-0.491028,-0.016647,0.484034,0.095318,0.457382,0.884147
0.075031,-0.575379,-0.014995,-0.638234,0.769724,-0.013498
0.490458,-0.350648,-0.089533,-0.558443,0.806836,-0.192762
0.385254,-0.169348,0.056237,-0.257137,0.965990,0.027283
0.428693,-0.083972,-0.026800,-0.623774,0.758441,0.188874
0.052219,-0.562916,0.109827,0.360777,0.263764,-0.894577
0.736180,0.006359,-0.097873,-0.147308,0.947893,0.282487
0.571646,0.178668,0.307041,-0.470691,0.875266,0.111174
0.694734,-0.118885,0.144800,-0.630183,-0.179346,0.755450
0.921565,-0.527501,-0.828185,0.854143,0.081622,0.513592
0.634268,0.045377,0.796360,-0.523646,0.025944,0.851541
0.307635,-0.155917,0.058957,-0.402972,-0.913847,0.049979
0.274659,-0.238368,0.136357,-0.523925,-0.113521,-0.844166
0.536882,-0.186268,-0.142176,-0.117139,0.019271,0.992929
0.082222,-0.776787,0.212354,0.938500,-0.308130,0.155802
-0.764824,-0.189025,0.623966,0.490813,0.868507,0.069264
0.715765,-0.414928,-0.604148,0.941858,-0.335760,0.013012
0.610784,-0.043426,0.212928,0.873294,-0.222487,0.433424
-0.380370,0.013853,0.475556,0.302804,0.921674,0.242541
0.594153,0.159441,0.479743,0.732384,-0.030039,0.680229
0.643694,-0.219099,-0.145171,0.733455,-0.673456,0.092200
0.695429,0.337741,0.605447,0.271952,-0.962280,-0.007657
-0.710127,-0.235587,0.564409,-0.508071,0.146584,-0.848750
0.824071,-0.265937,-0.706618,-0.739554,-0.670189,-0.062505
0.600430,0.107371,0.739236,-0.698383,0.121700,-0.705302
-0.807269,-0.251215,0.586356,-0.397129,-0.002535,0.917759
0.547605,0.018094,0.717653,0.723038,0.650643,-0.232121
0.003253,-0.180355,0.291129,0.296896,-0.881277,-0.367701
0.137735,-0.708106,0.224384,0.045053,0.124920,0.991143
0.514799,0.116234,0.470073,0.993147,-0.058196,-0.101355
0.675987,-0.035436,-0.008337,0.623305,0.175682,-0.761989
0.570610,0.093045,0.874170,0.038442,0.519124,0.853834
-0.415016,-0.133440,0.445737,0.291499,0.191949,0.937115
0.510815,-0.222436,-0.111568,0.957605,-0.184191,0.221509
0.529144,0.042127,0.594561,-0.726722,0.609617,0.316611
0.620985,-0.331873,-0.261429,0.917505,-0.312031,0.246621
0.768129,0.382450,0.803330,0.120473,-0.837410,0.533132
-0.467282,-0.139051,0.504576,-0.680897,0.717173,-0.148469
-0.252283,-0.106776,0.687238,-0.041529,0.008001,0.999105
0.530048,-0.227375,0.125623,0.371994,-0.691103,0.619675
0.578825,0.088894,0.594384,-0.441386,0.536153,-0.719527
-0.139799,-0.168940,0.351614,-0.359710,-0.874240,-0.326056
0.613583,-0.036852,0.207068,0.595272,0.221961,-0.772259
0.595641,0.158729,0.802736,-0.619308,-0.752022,0.225654
0.125391,-0.488636,0.045245,-0.801899,0.578847,0.147969
0.628303,-0.217461,-0.217880,-0.376935,0.902145,0.209889
-0.202447,0.109346,0.679219,0.451370,-0.807134,0.380526
0.500971,-0.158599,-0.085294,0.547001,-0.834965,0.060198
0.653581,-0.374329,-0.290782,0.252168,0.835700,0.487869
0.668370,-0.034963,-0.089843,0.934315,-0.307919,0.179560
0.818287,-0.274697,-0.819184,-0.734552,0.665040,0.134742
-0.328948,-0.210521,0.431273,-0.081856,0.967238,0.240315
0.020502,-0.008530,0.254282,0.045792,-0.516359,0.855147
-0.558717,-0.173810,0.500510,0.795648,-0.100109,0.597430
0.703266,-0.298743,-0.333524,-0.695289,-0.225971,0.682283
0.582763,0.590924,0.882873,-0.015294,0.541662,0.840457
0.186104,-0.066900,0.216574,0.948125,-0.126456,-0.291664
0.132739,-0.664202,0.244014,0.089216,0.117390,0.989070
0.679549,0.102939,0.484318,-0.845416,0.513887,-0.145572
0.705811,-0.291587,-0.243595,-0.557470,0.714504,0.422742
0.478898,-0.195142,-0.107545,0.598076,-0.744658,-0.296293
0.355754,-0.358801,0.439864,0.200973,0.712688,-0.672076
-0.573332,-0.296881,0.467139,-0.118751,-0.215488,0.969259
-0.452337,-0.082881,0.445313,0.716261,0.556613,0.420894
0.761671,-0.286186,-0.647395,0.851185,0.052029,0.522281
0.638112,0.203842,0.473375,-0.055153,0.808790,0.585506
-0.698336,-0.111851,0.562116,0.801378,0.502416,0.324609
0.724667,-0.383704,-0.461448,0.473065,0.644928,-0.600231
-0.862376,-0.084065,0.621659,-0.248962,0.948655,0.195118
0.503653,-0.005622,0.578622,-0.613299,0.708712,-0.348700
0.576952,0.049709,0.497778,0.862775,-0.387504,-0.324745
-0.704467,-0.113199,0.571216,0.762910,0.490282,0.421416
0.333689,-0.383422,0.174825,0.652451,0.396999,-0.645523
0.597654,-0.098909,0.656256,0.838645,-0.539981,-0.071387
-0.741046,-0.217739,0.575325,0.301461,-0.195993,0.933117
0.577960,0.420964,0.880282,0.816335,-0.172425,0.551241
0.247448,-0.299549,0.375434,-0.167149,-0.462089,0.870939
0.575065,-0.276834,-0.115204,-0.233571,0.415036,0.879312
0.589221,0.126439,0.466684,-0.472832,0.854183,0.216336
0.004714,-0.765700,-0.007775,-0.454644,-0.878153,0.148817
0.741453,-0.386191,-0.537151,0.820744,-0.569287,0.047871
0.815704,-0.440385,-0.549287,0.748297,-0.622909,-0.228115
0.206396,-0.569541,0.206669,0.105053,0.546049,0.831140
0.617082,-0.282139,-0.366294,0.906089,0.108940,-0.408822
0.587891,0.018502,0.375089,0.812405,0.537527,-0.225972
-0.729058,-0.118638,0.586671,0.940810,0.318810,0.115055
-0.002368,-0.803196,-0.030422,0.189890,0.719786,-0.667720
0.839247,-0.453368,0.790950,-0.184989,-0.980707,-0.063191
0.028748,-0.026462,0.341099,0.172689,-0.983357,-0.056466
0.728105,-0.538700,-0.413040,0.312229,-0.834544,-0.453927
0.490233,0.180952,0.903660,0.752884,0.360871,-0.550399
0.694197,-0.384419,-0.485909,0.440995,-0.821742,-0.360920
0.652714,0.036652,-0.049808,0.798958,0.519247,0.303396
0.487974,-0.451731,0.302975,-0.560550,0.333810,-0.757862
0.561458,-0.234395,0.127662,-0.376973,0.693592,-0.613857
0.576552,0.103770,0.781217,0.377275,0.547856,-0.746671
0.909710,-0.557457,-0.826516,-0.465589,0.688136,-0.556503
0.575958,-0.121382,0.550057,0.900709,-0.035086,0.433003
-0.148461,-0.020031,0.667624,0.513321,-0.202856,0.833877
0.039584,-0.122023,0.384477,0.877736,-0.366590,0.308531
0.628198,-0.068042,0.657729,-0.562051,0.818563,0.118545
-0.722668,-0.110123,0.576177,0.613866,0.405496,0.677305
0.317684,-0.253055,0.110146,0.695483,-0.717423,-0.040101
-0.192284,0.046362,0.721676,-0.352924,0.583491,0.731425
0.583245,0.029410,0.475098,0.648793,-0.516142,0.559165
0.510013,-0.029601,0.879442,0.423115,-0.531736,0.733642
0.249781,-0.377760,0.115873,-0.050553,-0.978651,-0.199213
0.114003,-0.405941,0.133705,-0.539728,0.799965,-0.262201
0.603712,-0.058884,0.659389,0.401567,-0.899448,-0.172448
0.683097,-0.219100,-0.305252,-0.063059,-0.096252,0.993357
0.718329,-0.086982,-0.092742,-0.094781,0.620857,0.778173
0.721519,0.014415,-0.029430,0.905854,-0.261553,-0.333194
-0.494423,-0.106264,0.473413,0.209070,0.398152,0.893177
0.605531,0.148041,0.786084,0.079149,0.391065,0.916953
-0.192649,-0.036261,0.720646,0.908696,0.330992,-0.254392
0.619404,-0.109852,-0.131776,-0.160560,0.552276,0.818054
0.709964,-0.338000,-0.616881,0.811366,0.351392,0.467128
0.711634,0.582747,0.864096,0.718627,-0.623064,0.308814
0.228585,-0.160035,0.211703,0.430425,-0.390006,0.814020
0.616475,0.010056,0.613139,-0.027069,-0.004664,0.999623
0.653835,0.077839,0.611453,0.555029,-0.383224,-0.738297
0.558133,0.120390,0.219263,0.759769,0.178195,-0.625298
0.691670,-0.159165,-0.255495,-0.303126,-0.009963,-0.952899
0.808527,-0.385315,-0.809389,-0.054274,-0.403049,0.913568
0.657335,0.150381,0.560820,-0.252558,-0.069628,0.965073
0.351720,0.162458,0.816040,0.856652,0.512666,-0.057629
0.792246,-0.264103,-0.619852,-0.039883,-0.998233,-0.044045
0.050475,-0.544767,0.086887,0.573491,0.814200,0.090478
0.349503,-0.526112,-0.109715,-0.671808,0.736173,0.081991
0.480379,-0.021796,0.601543,0.584934,-0.792419,-0.172986
0.658355,0.044930,0.791699,0.276141,0.265932,0.923594
0.199209,-0.196051,0.307587,-0.384409,-0.171751,-0.907045
-0.408551,-0.078316,0.479617,0.860282,0.504795,-0.071385
0.797412,-0.278957,-0.665530,-0.039620,-0.942798,0.331003
-0.503705,0.068165,0.498883,0.053406,0.181730,0.981897
0.102899,-0.214710,0.454597,0.339032,0.430813,-0.836335
-0.896362,-0.051107,0.628359,-0.609588,-0.782371,-0.127661
-0.072016,-0.220244,0.439301,0.327247,0.733499,0.595726
0.791834,0.232466,0.787352,-0.636733,-0.114908,0.762475
0.260592,-0.162473,0.074779,0.930162,-0.161830,-0.329560
0.718546,-0.122885,-0.160272,-0.400178,0.246018,0.882798
0.702894,-0.195927,0.005107,-0.092224,0.376079,0.921986
0.572525,0.009780,0.520290,0.790597,0.598706,0.128481
0.737050,-0.423803,-0.526622,0.866222,-0.465005,0.182840
0.665496,0.652025,0.873315,0.350009,0.612083,0.709118
0.241281,-0.240110,0.179023,0.658306,-0.733807,0.167811
0.430872,0.080641,0.851668,0.708501,-0.598073,0.374613
0.738398,-0.329530,-0.487283,-0.214857,0.197069,0.956556
0.637115,-0.031528,0.187280,0.967128,0.248587,-0.053550
0.855497,-0.476172,-0.621040,0.450878,-0.884012,0.123415
0.017884,-0.115269,0.249015,-0.313046,-0.850488,0.422696
0.644135,0.241370,0.743815,-0.154588,-0.395225,0.905483
0.584455,0.027951,0.481568,-0.658774,0.725831,-0.197956
0.061997,-0.043244,0.234699,0.458246,-0.874677,-0.157958
0.601812,0.091506,0.725364,0.817072,-0.440846,0.371547
-0.040706,-0.109004,0.271377,0.264920,0.400565,0.877134
0.664410,0.187555,0.472720,0.663037,-0.636873,0.393415
0.661241,-0.002434,0.029906,0.924061,0.372519,-0.085681
0.125876,-0.292924,0.149698,-0.644361,0.051727,-0.762970
0.550621,-0.504450,0.298107,-0.492605,0.375892,-0.784885
0.660490,-0.427036,-0.247644,-0.706827,0.412701,-0.574520
0.545715,0.586989,0.914247,0.451782,-0.785046,0.423789
0.776980,-0.443561,-0.639841,-0.727215,0.436727,-0.529555
0.764906,-0.138313,-0.063862,0.739768,-0.042354,0.671528
0.438265,0.472467,0.893527,0.947225,0.319330,0.028154
0.782321,-0.403640,-0.398395,-0.674122,0.642960,-0.363541
0.570549,0.113959,0.602226,0.723702,-0.647145,-0.239707
0.569704,0.233619,0.780102,0.793394,-0.599639,-0.104687
0.300363,-0.159352,0.108415,0.354466,0.894778,-0.271527
0.127185,-0.318950,0.440398,-0.075015,0.989523,0.123357
0.772001,-0.285729,-0.406908,0.553778,-0.013185,0.832560
0.146555,-0.402784,0.368852,-0.419036,-0.849443,-0.320711
0.552229,-0.091545,0.593949,-0.376916,0.823788,0.423448
0.392854,0.186401,0.905780,0.486976,-0.684071,-0.543048
0.203688,-0.256941,0.176987,0.295395,-0.955287,-0.013004
0.299955,-0.482749,-0.014838,-0.037910,0.993517,-0.107172
-0.111639,-0.173717,0.437786,-0.108277,0.328554,0.938258
0.988493,-0.485896,-0.982065,0.227321,-0.836042,0.499359
0.305990,-0.339532,0.175799,0.567102,0.221740,-0.793238
0.562406,-0.576587,-0.071734,0.931361,-0.266952,0.247596
-0.507600,-0.390218,0.500199,-0.295247,0.665658,0.685368
0.628967,-0.003617,0.444449,-0.820996,0.274085,0.500842
0.478443,0.048030,0.903054,0.073579,0.860233,0.504564
0.205762,-0.441459,0.380622,0.183939,-0.814941,0.549580
0.575893,0.308192,0.904308,0.433216,0.826826,0.358723
0.693993,0.192166,0.746650,0.750095,0.026585,-0.660796
0.736769,0.167980,0.593517,0.956822,-0.249057,-0.149877
-0.538961,-0.241141,0.501444,0.748103,-0.280754,-0.601264
0.792896,-0.287330,-0.438139,-0.608257,-0.768278,0.199432
0.463224,-0.229294,-0.190112,-0.194371,-0.163757,0.967163
0.674139,-0.075488,-0.073358,0.190699,0.743778,0.640646
0.130161,-0.319670,0.165814,-0.613632,0.101013,0.783104
0.498273,0.391947,0.891708,0.941341,0.332673,0.056631
0.684865,0.023291,-0.045337,0.465324,0.700992,-0.540448
0.582304,-0.016179,0.534143,-0.368884,0.680954,0.632635
0.761119,-0.425442,-0.422972,0.162738,0.915418,0.368139
0.548986,0.373705,0.841824,0.644956,-0.702401,0.301107
0.812155,-0.370165,-0.372606,-0.096278,-0.849398,0.518896
0.958648,-0.442403,-0.951307,0.189794,-0.860318,0.473108
0.644413,-0.610897,-0.188060,-0.004742,0.198483,0.980093
-0.531796,-0.281673,0.496427,-0.059769,0.982121,0.178511
0.646284,0.253891,0.830944,0.244172,-0.934530,0.258911
0.225028,-0.071953,0.123243,0.859606,-0.164050,0.483905
0.697446,-0.294960,-0.133374,-0.364479,0.577932,-0.730171
0.911846,-0.422997,0.301008,-0.292997,0.424385,-0.856767
-0.393323,-0.179461,0.452170,0.076682,0.685218,0.724290
0.781336,-0.372215,-0.727045,-0.565101,0.766043,0.306330
0.488408,-0.182419,-0.034645,0.158983,-0.832536,0.530668
0.189488,-0.115489,0.141835,0.639899,-0.483265,0.597481
-0.588797,-0.336654,0.544500,-0.566082,0.677624,-0.469443
0.635793,-0.112960,-0.039718,-0.326223,-0.172923,0.929342
0.621244,-0.097896,-0.018825,0.226637,0.973944,0.008256
-0.491845,-0.366157,0.527733,0.094764,0.440360,-0.892806
0.627509,-0.274200,-0.176378,-0.401703,-0.846909,-0.348397
0.524083,-0.210313,-0.117727,0.894841,0.153581,0.419133
0.113058,0.075188,0.202579,-0.369634,-0.922943,0.107454
0.183237,-0.160234,0.312685,0.864723,-0.064703,0.498063
0.760081,-0.126000,0.747408,-0.595739,0.028633,-0.802668
0.612578,0.099136,0.788318,-0.257567,0.395869,0.881446
0.717778,-0.114285,-0.106824,0.131981,0.237346,0.962418
0.848004,-0.356156,-0.653882,-0.302517,0.522272,-0.797317
0.689520,1.000000,0.915971,0.663288,-0.714713,-0.221891
-0.894787,-0.299710,0.576867,-0.119899,0.602276,0.789232
-0.341662,-0.139893,0.423436,-0.633813,0.565565,-0.527652
0.559424,-0.233863,-0.158954,0.959118,-0.080378,0.271353
0.547512,0.332796,0.828512,-0.520647,-0.837242,0.167191
0.157835,-0.218764,0.406843,-0.511532,-0.825085,0.239937
0.576002,0.143182,0.501926,0.448517,0.893219,-0.031502
0.483698,0.490171,0.863963,-0.169875,-0.307579,0.936236
0.693312,0.255371,0.786329,0.953880,0.226778,-0.196683
0.665749,-0.292899,0.803707,0.109629,0.822881,0.557538
0.473226,0.228491,0.895880,0.930343,-0.363703,-0.046707
-0.678950,-0.094822,0.583490,0.031345,0.119085,0.992389
0.894212,-0.549082,-0.833975,-0.089296,0.906762,-0.412079
0.520745,-0.199386,-0.087805,0.347386,-0.800384,0.488578
0.410376,-0.436177,-0.068394,0.652334,0.757852,-0.010974
0.594734,0.592306,0.874028,-0.191095,0.077726,0.978489
0.489402,-0.077404,0.826185,0.527870,-0.781037,-0.333668
0.777172,-0.296829,-0.734694,0.659825,-0.500055,0.560870
0.083278,-0.087572,0.270181,0.642811,0.568578,0.513336
0.837225,-0.383321,0.762027,0.478818,0.175536,0.860186
0.157228,-0.198192,0.364618,0.506611,0.824129,0.253290
0.649399,-0.196062,-0.355731,0.824905,-0.534924,0.182725
0.601351,0.470920,0.905641,0.080170,-0.994044,0.073823
0.350611,-0.400611,0.442605,0.200973,0.712688,-0.672076
0.531322,-0.411944,-0.198601,0.794902,0.194929,0.574572
0.725136,-0.329076,-0.408592,-0.085384,0.913154,0.398572
0.090399,-0.570721,0.007210,-0.514182,0.813688,0.271163
-0.182292,0.014012,0.680020,0.642145,0.112258,0.758319
0.535434,0.131796,0.886021,-0.763891,0.312230,0.564786
0.351476,-0.174060,0.003989,-0.546878,-0.590850,-0.593145
-0.263396,-0.896108,-0.023510,0.037150,-0.948209,0.315467
-0.366958,-0.075011,0.466151,0.947713,0.218111,-0.232954
0.553347,0.121180,0.286283,-0.589518,0.609305,-0.530298
-0.707220,-0.007619,0.579020,0.105975,0.981414,0.159989
0.759105,-0.081627,-0.246323,0.220651,0.901036,0.373426
0.861418,-0.379950,-0.815028,-0.485978,0.619045,-0.616935
-0.327076,-0.050914,0.444276,0.486021,0.693322,0.532060
0.614522,0.191442,0.470329,0.761693,0.152197,0.629809
0.608363,-0.009933,0.466365,-0.078373,-0.256949,0.963242
0.481394,0.585785,0.925724,-0.471046,-0.784049,0.404207
-0.167233,-0.061241,0.341486,0.476560,-0.747920,0.462068
0.875111,-0.393120,-0.928029,-0.696775,-0.700928,0.152331
0.522321,0.148570,0.850048,-0.353216,0.589644,0.726333
0.606133,0.147763,0.543963,-0.071615,0.495565,0.865613
0.688827,-0.345227,-0.349511,0.871459,0.489310,-0.033683
0.459982,0.304838,0.899345,0.974751,-0.098541,-0.200377
0.582743,0.153640,0.810115,-0.261297,-0.687961,0.677077
-0.580858,-0.228635,0.504796,-0.533708,0.283448,-0.796752
-0.479645,-0.319617,0.513088,0.737723,0.611633,0.285780
0.771849,-0.377353,-0.713670,0.881868,-0.448763,-0.144638
0.585803,-0.138716,-0.187723,-0.135660,0.745850,0.652154
0.025596,-0.352488,0.411780,0.859432,0.157924,-0.486248
0.714271,-0.304906,-0.443725,0.784937,-0.606451,0.126847
0.240981,-0.275674,0.053910,-0.653238,0.756998,-0.015309
0.462487,-0.534725,-0.100863,0.957106,0.130273,0.258801
0.524650,-0.286178,-0.102403,0.435132,0.295540,-0.850480
0.696132,0.293639,0.750016,0.123653,-0.598258,0.791705
0.719625,-0.148227,-0.193718,0.011714,0.619274,0.785087
0.284947,-0.249365,0.408283,0.788917,0.532547,0.306600
-0.081863,-0.106961,0.618546,0.943027,-0.310779,0.118813
0.653162,0.113893,0.488989,0.211582,-0.897081,-0.387917
0.573700,0.035614,0.529729,-0.191821,0.006663,0.981407
0.564841,0.125206,0.535582,-0.167298,0.985803,-0.014264
0.564766,0.163415,0.643173,0.910191,0.321785,-0.260782
0.761769,-0.285039,-0.203196,0.604696,0.753554,-0.257874
-0.324486,-0.010879,0.433763,0.009558,-0.681772,0.731503
0.565182,-0.328716,-0.230998,-0.229999,-0.217042,-0.948680
0.852667,-0.380856,-0.407597,-0.065924,0.609960,0.789685
0.633709,0.087600,0.443683,0.129846,-0.026961,0.991168
0.637788,-0.140746,-0.007765,0.957776,-0.251266,0.139752
0.706326,-0.278929,-0.078426,0.693935,0.626314,0.355226
0.609222,-0.187673,-0.094010,-0.045277,0.894845,-0.444074
0.625439,0.061158,0.610342,-0.175894,0.072254,0.981754
0.058020,-0.453058,0.016741,0.808596,-0.396424,0.434765
0.340000,-0.382780,-0.003096,-0.639364,0.762836,0.096410
0.567970,0.215138,0.762177,0.858093,0.302922,0.414627
0.560608,0.027171,0.304423,0.126520,0.960006,0.249764
-0.619603,-0.084455,0.535353,0.128677,0.971404,0.199543
0.681854,-0.068026,-0.207810,0.755313,-0.643472,0.124280
0.116059,-0.290327,0.450412,-0.084562,-0.385973,0.918626
0.156181,-0.065100,0.217619,-0.282833,-0.949893,-0.133073
0.564401,0.867611,0.967085,0.025724,-0.980577,0.194439
0.250806,-0.700791,-0.049566,-0.269401,-0.276293,-0.922543
0.778296,-0.446344,-0.630405,-0.320585,0.874243,0.364588
-0.048844,-0.774141,-0.033305,0.304673,-0.750544,0.586393
0.003979,0.118333,0.440889,0.326619,-0.715987,-0.616995
0.468782,0.215947,0.824948,-0.672231,0.708868,0.213567
0.667410,-0.376325,-0.284477,-0.571349,-0.619287,-0.538557
0.259124,-0.402562,0.367548,-0.260398,-0.622360,0.738147
0.488933,-0.685623,-0.074507,0.923140,-0.088965,-0.374029
0.203084,-0.323248,0.442138,0.893062,0.078032,0.443116
-0.678524,-0.092004,0.557068,0.248364,0.674367,0.695373
0.185704,-0.255678,0.382481,-0.002397,0.971622,0.236527
0.560791,-0.371558,-0.060391,-0.785893,0.182299,0.590880
-0.130150,0.104880,0.660415,-0.243415,0.916846,-0.316453
0.472912,-0.552377,0.308106,-0.382416,0.885933,0.262451
0.357148,-0.166186,0.026018,-0.018158,-0.912756,0.408102
0.599906,0.319603,0.876097,0.986546,0.145315,0.074898
0.046628,0.048396,0.249131,0.193296,0.845126,0.498396
0.395962,0.034845,0.862134,0.855404,0.495463,0.150998
0.676645,-0.132897,-0.226662,-0.485842,0.700273,0.523045
0.486732,0.441127,0.904341,0.750877,0.507725,0.422373
0.462547,-0.290888,-0.126353,0.744097,-0.101382,0.660334
0.196025,-0.212571,0.200473,0.324038,0.863927,-0.385525
0.651592,0.054640,0.763865,0.323257,0.864012,-0.385989
0.485588,-0.338789,-0.134431,-0.606024,0.485157,0.630363
0.712164,-0.313419,0.782896,0.854109,-0.445318,0.268683
0.649690,-0.008447,0.541599,-0.592943,0.468916,0.654627
0.329451,-0.072789,0.151097,-0.540660,-0.572698,0.616201
-0.030063,-0.046376,0.265063,0.623648,0.645173,0.441377
0.920859,-0.475051,-0.817037,0.840223,-0.282086,0.463090
0.223801,-0.042147,0.144926,-0.277823,0.954166,0.111274
0.664838,-0.161550,-0.318433,0.250480,0.844984,-0.472505
0.761150,-0.395679,-0.400148,0.239458,-0.089770,0.966748
0.753442,0.529932,0.843727,-0.144094,-0.548447,0.823676
0.575543,-0.273813,-0.178395,0.138087,0.989542,0.041707
-0.314144,0.009148,0.653549,0.358350,-0.053541,0.932051
-0.426666,-0.211856,0.513311,0.861502,0.505774,0.044793
-0.649047,-0.420126,0.564439,0.548170,0.836362,-0.002841
-0.041624,-0.752235,0.006477,-0.087816,0.444303,0.891562
0.425940,-0.177640,-0.028714,0.329816,0.884210,0.330748
0.551057,0.395310,0.793381,0.091914,0.726081,0.681439
0.649075,-0.102050,-0.064531,0.210197,-0.911686,-0.353051
-0.100436,-0.065442,0.298772,0.841596,0.280150,0.461771
-0.857345,-0.079677,0.628296,0.084195,-0.988068,0.128971
0.209986,-0.272253,0.190788,-0.695615,0.481141,0.533501
0.651162,0.172068,0.525707,0.376642,0.924673,0.055868
-0.429409,-0.119826,0.510432,-0.506460,0.046527,-0.861007
0.562169,-0.326842,-0.208271,-0.111031,-0.969503,0.218485
-0.473846,-0.017765,0.479721,0.109006,0.428311,0.897032
0.666506,0.151933,0.686553,0.791714,0.582838,0.182998
0.349267,-0.332550,0.183156,0.779898,0.261999,-0.568433
0.573808,0.301803,0.789074,-0.680648,-0.273069,0.679818
0.518645,0.025304,0.380841,0.161452,-0.901729,0.401022
0.531896,-0.455802,-0.092298,0.947488,0.280747,-0.153127
0.650530,0.063737,0.106141,0.319746,-0.524678,0.788972
0.826660,-0.474010,-0.599397,-0.422410,0.898539,-0.119150
0.674937,-0.170325,-0.159659,0.805844,-0.589949,-0.050761
0.936097,-0.374387,-0.909556,0.217663,-0.727952,0.650161
0.300045,-0.323353,0.171315,-0.498100,-0.241982,0.832671
-0.820201,-0.165227,0.584870,-0.466451,-0.150180,-0.871705
0.533960,0.032335,0.691991,-0.508276,0.731846,0.453936
0.167300,-0.471089,-0.002537,-0.574558,0.791612,-0.207927
0.082193,-0.568652,0.011859,-0.329748,0.924861,0.189467
0.499174,0.112862,0.679472,-0.016448,-0.504780,0.863092
0.311216,-0.366312,0.166959,0.453214,0.676133,-0.580897
0.530412,-0.015721,0.833124,0.676969,-0.680706,-0.279916
-0.124276,-0.140288,0.356073,0.216292,0.153196,-0.964235
-0.930148,0.051955,0.649690,0.979593,-0.196565,-0.041945
0.543297,0.051029,0.154239,-0.692626,0.721294,-0.002186
0.555431,-0.860712,-0.033991,-0.660133,-0.110594,0.742963
0.491064,-0.082721,0.609498,-0.006549,0.638158,0.769877
0.471531,-0.383255,-0.134820,0.827946,-0.478353,0.292720
0.537949,0.337247,0.912797,0.514732,0.714155,0.474378
0.470491,0.924885,0.917120,-0.260235,0.846595,0.464279
0.756224,-0.345236,-0.523266,-0.676420,0.576466,0.458413
0.765598,-0.082638,-0.095823,0.710803,0.402908,0.576562
-0.156039,-0.082542,0.488843,0.635529,0.726341,-0.261785
0.765957,-0.311832,-0.361327,0.343649,0.938318,0.038269
0.503299,0.133594,0.889898,-0.653822,0.597283,-0.464510
0.160987,-0.135459,0.284431,0.744634,-0.643033,0.178968
0.554983,0.134055,0.443010,-0.355281,-0.879326,0.317115
0.055056,-0.102393,0.234451,0.279267,-0.931825,-0.231756
0.569102,0.018859,0.627891,0.893181,-0.236536,0.382463
0.050376,-0.856803,0.093152,-0.720202,0.054901,-0.691589
0.681291,-0.245771,-0.165563,0.829086,0.041692,0.557565
-0.236211,0.024326,0.668902,0.985723,-0.158385,0.057143
-0.192562,0.058593,0.678484,0.754432,0.546112,0.364134
0.580490,0.076181,0.167459,-0.336227,0.915148,-0.222386
0.464719,-0.263388,-0.107496,-0.451154,0.873895,-0.181017
-0.478131,-0.374519,0.529124,0.468834,0.789717,-0.395654
0.684664,-0.157444,-0.106754,0.895906,-0.443307,-0.028832
0.714904,-0.116694,-0.046079,-0.631267,-0.000300,-0.775565
0.706574,-0.104682,-0.201826,0.879256,-0.398523,-0.260939
0.268463,-0.266400,0.110991,0.149593,0.091398,0.984514
0.558059,0.379897,0.789265,0.496201,-0.053362,0.866566
-0.455683,0.045800,0.449852,0.542790,-0.661366,0.517663
0.266255,-0.187358,0.137603,-0.447648,-0.314402,-0.837116
0.078094,-0.150574,0.217770,0.423279,0.904730,0.047935
0.628715,0.080708,0.474331,0.761445,-0.043120,-0.646794
0.763527,0.763537,0.887772,0.761103,0.122490,0.636960
0.860337,-0.397529,-0.851105,-0.798883,-0.537255,0.270448
0.032017,-0.097539,0.504169,-0.789426,-0.567713,-0.233471
0.423231,-0.336811,0.038448,-0.655383,0.741544,0.143480
0.409915,-0.325414,-0.119505,0.923716,0.081881,-0.374225
0.796497,-0.195632,-0.184249,0.314193,0.739855,0.594893
0.153627,-0.154887,0.333959,0.903268,-0.284622,0.321088
0.677639,0.325511,0.795282,0.773039,0.634355,-0.002006
0.106400,-0.014776,0.221367,0.778920,0.148634,0.609254
0.401950,-0.205365,-0.049271,0.916474,-0.394176,0.068557
0.569624,0.044285,0.522772,-0.258713,-0.329488,-0.908023
-0.192653,-0.077767,0.336319,0.916486,-0.198390,0.347412
0.564343,0.069876,0.258233,0.756488,-0.315562,0.572841
0.837242,0.023035,0.740692,0.140554,0.989815,0.022608
0.179951,-0.335886,0.167850,0.217912,-0.897725,0.382890
0.590441,0.179771,0.814939,-0.430704,-0.742497,0.513023
0.740297,-0.037991,0.059135,0.977445,0.189032,0.094166
0.751572,0.195456,0.754570,0.717275,-0.163009,-0.677455
0.273131,-0.204298,0.132148,0.741481,0.563959,0.363533
0.412722,-0.291860,0.032358,0.455676,-0.878162,0.145573
0.814853,-0.367658,-0.820697,0.716112,0.236273,0.656780
0.004184,-0.053011,0.320094,-0.429103,0.880008,-0.203606
0.600654,-0.011521,0.313676,-0.080355,-0.978724,0.188794
-0.333589,0.200342,0.687045,-0.627538,0.534728,0.565917
0.680545,0.010331,0.138731,0.879823,0.454203,0.140037
-0.553330,-0.084474,0.492197,-0.696708,-0.655640,-0.291093
0.199729,-0.230229,0.254403,-0.709830,0.433263,0.555360
0.450382,0.361636,0.881510,0.786211,-0.186159,-0.589251
0.657713,0.075678,0.791343,0.114818,-0.105472,0.987771
0.748746,-0.436839,-0.497851,0.723334,0.677466,-0.133518
0.633921,-0.291183,-0.303186,0.720357,-0.687449,0.092193
0.419292,-0.391455,0.056492,-0.662517,0.746757,0.058528
0.488121,0.128269,0.900260,-0.299587,0.020711,0.953844
0.637537,0.152753,0.463879,-0.586818,0.658571,0.471094
0.302314,-0.236466,0.094261,0.832684,0.031402,0.552858
0.441552,0.122609,0.934473,0.328203,0.128815,0.935783
0.378593,0.064723,0.878930,0.992400,-0.104422,0.065108
-0.144212,-0.058700,0.691498,-0.001599,0.593904,0.804534
0.722056,-0.382617,0.266205,0.326828,0.798040,0.506276
0.396657,-0.294925,0.027097,0.450128,0.798122,0.400482
-0.135169,-0.085868,0.499211,0.825435,0.265098,-0.498377
-0.185853,-0.925949,0.007428,0.172437,0.852990,-0.492618
0.619517,-0.260303,-0.188740,0.343912,-0.736117,0.582972
-0.276665,-0.022177,0.429777,0.205284,-0.955413,-0.212235
0.746449,-0.289533,-0.151304,-0.485457,0.121007,-0.865846
0.309234,-0.304295,0.041259,-0.503521,0.863769,0.019234
-0.163401,-0.125051,0.680958,0.991678,-0.033666,-0.124262
0.464603,0.181362,0.904485,-0.256052,0.529130,0.808986
0.559065,0.084118,0.324920,-0.387098,-0.028985,0.921583
0.270147,-0.123647,0.097946,0.589924,-0.087040,0.802754
0.734766,-0.268762,-0.370385,-0.466544,0.819096,-0.333793
0.066032,-0.638562,0.082504,-0.004770,0.431261,0.902215
-0.622903,-0.101475,0.525350,-0.492573,-0.471530,-0.731458
0.903230,-0.555984,-0.962323,0.385459,0.906332,-0.173159
0.181113,-0.068428,0.226683,0.755221,-0.107137,0.646655
0.720442,-0.005765,-0.073948,-0.418707,-0.803793,-0.422612
0.481795,-0.336151,-0.142563,0.860484,-0.445476,-0.247221
0.545637,-0.295544,-0.179292,0.918235,-0.380396,0.110201
0.292147,-0.288151,0.084974,-0.492829,0.864636,-0.097596
0.470921,0.240588,0.822742,0.871119,-0.433781,0.230187
-0.709699,-0.084849,0.547556,0.699494,-0.615943,0.362384
0.556650,0.382670,0.822104,0.332937,0.871356,-0.360405
0.644481,0.374104,0.871791,-0.303884,-0.015687,-0.952580
0.910087,-0.501608,-0.845154,0.875861,0.362397,0.318648
0.735007,-0.205818,-0.185449,0.380932,0.693275,0.611768
0.528140,0.085940,0.299538,0.916576,-0.387852,-0.097257
0.629475,-0.032678,0.113222,0.797921,0.593170,0.107104
0.466524,0.593174,0.850873,-0.696306,-0.652254,-0.299538
0.549118,-0.186972,-0.162846,-0.257312,0.846010,0.466966
-0.714198,-0.273726,0.570843,-0.131469,-0.885925,0.444807
0.649042,0.225533,0.477138,-0.585461,-0.804305,-0.101626
0.130461,-0.240271,0.402617,-0.336960,-0.898111,0.282585
0.761135,-0.347130,-0.537561,0.595324,-0.669607,0.444090
0.662877,-0.189475,0.774471,0.563332,-0.187710,-0.804626
0.647383,0.103629,0.056224,0.855792,0.281855,-0.433794
0.657109,0.139329,0.529418,-0.628123,0.550001,0.550418
-0.138637,0.005344,0.638004,-0.092193,-0.837669,0.538342
0.766772,-0.152801,-0.187164,-0.092227,0.166401,0.981736
0.695520,-0.033140,-0.060781,-0.136358,0.909803,0.392001
-0.887178,-0.033900,0.663499,0.277347,-0.798893,0.533713
0.584836,-0.044913,0.451546,0.956352,0.041555,0.289249
0.019470,-0.770115,0.107433,0.874195,-0.174248,0.453234
0.475170,-0.455687,0.333924,0.832348,-0.199968,0.516923
0.692577,-0.077972,-0.097369,-0.646171,-0.549175,0.529972
0.561578,0.281885,0.896063,-0.016075,-0.825401,0.564319
0.526882,-0.058240,0.211734,0.730587,0.607337,-0.312064
-0.197248,-0.054840,0.659558,0.883423,-0.326076,0.336509
0.779888,0.403657,0.816483,0.146763,0.808719,-0.569592
0.510007,-0.488074,-0.052923,0.374783,-0.123768,-0.918814
0.554835,0.402076,0.826776,0.329281,-0.840614,-0.430050
0.245832,-0.073451,0.163627,-0.548302,0.794459,-0.261152
0.643101,-0.046464,0.029721,0.269423,0.051174,-0.961661
-0.156154,0.103477,0.685481,0.104068,-0.993215,0.051903
0.346086,-0.260341,0.461509,-0.470980,-0.055653,-0.880387
0.076900,-0.259218,0.375657,0.216668,0.584202,-0.782153
0.584783,0.450824,0.876457,0.861964,-0.116455,0.493412
0.495548,-0.065183,0.813975,0.126256,0.684919,0.717597
0.563667,-0.327307,-0.223199,0.380146,-0.916066,-0.127720
0.532826,0.036483,0.307910,0.675458,0.578737,-0.456969
0.583031,0.011708,0.262132,0.757783,0.641409,-0.119830
0.446934,0.227883,0.830426,0.849745,-0.508241,0.140088
0.615579,0.285181,0.911862,-0.011994,-0.241933,0.970219
0.586492,-0.434022,-0.170294,0.777790,0.284926,0.560232
0.349971,-0.217057,0.118653,0.889452,0.424686,-0.168871
0.705272,-0.150115,-0.194975,0.022622,0.837977,0.545237
-0.774181,-0.311480,0.604117,0.740928,-0.023219,-0.671183
0.499095,0.824145,0.937193,0.272907,0.455782,0.847222
-0.762949,-0.155116,0.588280,-0.726341,0.598104,-0.338675
0.611278,0.102811,0.489609,-0.679954,0.060674,-0.730740
0.795547,-0.301286,-0.813910,-0.839034,-0.049679,-0.541806
0.622654,-0.344502,0.835551,0.543756,0.481160,0.687615
0.307273,-0.198764,0.097350,-0.370590,0.056385,0.927084
0.637084,0.139833,0.729264,-0.687830,0.446427,-0.572357
0.254251,-0.429616,-0.076186,0.355652,0.731382,-0.581886
0.760397,-0.285103,-0.375848,0.779768,0.535552,0.324263
0.518230,-0.097646,0.634669,0.541567,0.533948,-0.649311
0.144548,-0.279589,0.166631,0.481152,-0.117849,-0.868679
0.568465,0.247616,0.850616,-0.026586,-0.990231,0.136875
-0.529208,-0.245757,0.518604,0.813050,-0.030217,0.581409
0.480880,0.256040,0.848479,0.136189,0.184900,0.973275
0.734639,0.964500,0.909883,-0.648242,-0.751611,-0.121917
0.320984,-0.610879,-0.102911,-0.674794,0.737904,0.012266
0.620053,0.106907,0.512550,0.101862,0.837681,-0.536577
-0.671055,-0.078419,0.581819,0.521089,0.830070,0.198618
0.082379,0.001353,0.231009,0.992666,-0.120878,0.001699
0.675943,-0.230851,-0.095449,0.967105,-0.042642,-0.250779
0.770096,-0.452667,-0.497848,0.361900,0.863254,0.351881
0.623716,0.176627,0.474579,-0.110086,-0.900854,0.419933
0.539165,0.093089,0.170176,0.772676,0.497512,0.394276
0.838556,0.007207,0.761803,-0.757936,0.368447,-0.538312
0.612868,0.107933,0.619165,0.238945,0.956552,0.167072
0.606559,0.223817,0.501341,0.918118,-0.365969,0.152072
0.589225,0.335422,0.917716,-0.020742,-0.533831,0.845337
0.614290,0.061055,0.574854,0.809531,0.570004,0.140550
0.581977,0.160604,0.491104,-0.311547,0.944679,0.102567
0.652509,0.164309,0.479584,0.737332,-0.508154,-0.445108
0.530592,-0.382110,0.319040,-0.656503,0.685613,-0.314545
0.644522,0.231802,0.789808,0.790375,0.086979,-0.606418
-0.152929,-0.796407,-0.007959,0.118452,-0.889991,0.440324
0.861847,-0.375934,-0.930576,-0.072550,-0.842483,0.533815
0.686670,-0.122602,-0.099927,-0.316026,0.257799,0.913054
0.055214,-0.437788,0.009234,-0.672226,0.458012,-0.581668
0.025719,-0.159297,0.270007,0.779656,0.515429,0.355626
0.371572,0.048415,0.841882,0.248884,0.949209,-0.192509
0.493460,-0.514764,-0.106005,-0.655749,0.593041,0.467221
0.262817,-0.151807,0.131037,-0.422786,0.393220,-0.816474
0.253936,-0.284187,0.288956,0.999433,-0.024851,0.022714
0.678185,-0.178357,-0.181825,0.379124,0.836163,0.396354
0.675711,-0.226484,-0.190264,0.050520,-0.864389,0.500279
0.348886,-0.371508,-0.068719,-0.674216,0.669488,-0.311800
0.655553,-0.010710,-0.010633,-0.165208,-0.164652,0.972418
0.752646,-0.219964,-0.456646,0.557661,-0.645656,0.521672
0.860724,-0.347313,0.790719,-0.376670,-0.914594,-0.147099
0.651579,0.001470,0.734015,0.900846,0.160978,-0.403191
0.063215,-0.030184,0.210187,-0.351190,-0.268976,-0.896837
0.587705,-0.021952,0.791474,0.028302,-0.289867,0.956648
0.021788,-0.126091,0.255558,-0.650946,-0.649782,-0.392495
0.678490,-0.100474,0.125957,0.896679,-0.074458,-0.436375
0.113371,-0.072549,0.169371,0.128754,-0.592169,0.795461
0.378573,-0.132659,0.035103,-0.002160,-0.986642,0.162892
0.102849,-0.328605,0.452719,-0.405661,0.788907,0.461590
-0.313253,-0.182830,0.404824,0.088204,-0.450608,0.888354
0.494343,-0.188063,-0.125491,-0.544082,-0.103756,0.832592
0.124368,-0.617322,0.247348,0.637778,0.104362,-0.763117
0.686994,-0.352665,-0.281780,-0.845533,-0.048108,0.531751
0.456349,-0.144682,0.625033,0.687390,0.544358,-0.480801
0.615807,-0.294453,0.780670,-0.712456,-0.605512,-0.354628
0.246820,-0.206426,0.070721,0.857482,-0.492512,-0.148849
0.837707,-0.395897,-0.957028,-0.573697,0.807345,-0.138075
0.834500,-0.406161,-0.578431,0.968494,-0.056002,0.242659
0.368579,0.036176,0.800298,0.474264,0.838410,0.268593
-0.246581,-0.899740,-0.008019,0.952035,0.233948,0.197223
0.737580,-0.103655,0.056255,0.898501,-0.418106,-0.133730
0.054821,-0.503887,0.018836,0.930265,-0.303150,-0.206658
0.680543,-0.150282,0.005501,-0.130133,0.139719,0.981603
0.656675,-0.050804,0.692181,0.637274,0.582781,0.504231
0.624328,0.031913,0.043065,0.564286,0.179196,-0.805897
-0.282255,-0.121853,0.389791,0.174466,0.387793,0.905084
0.307124,-0.284854,0.401494,0.851940,0.493345,0.175522
0.627928,0.193762,0.785195,0.918829,0.207974,0.335410
0.356174,-0.395840,0.440635,0.200973,0.712688,-0.672076
0.683094,0.301586,0.791296,0.002065,-0.429643,0.902997
0.941448,-0.512826,-0.955718,-0.317938,-0.823857,0.469228
0.236661,-0.306014,0.197591,0.101745,0.249340,0.963056
0.786652,-0.266764,0.788152,-0.569377,-0.742930,-0.351944
0.680511,0.265264,0.782372,-0.667993,-0.592780,0.449886
0.689109,-0.135589,-0.104611,0.890650,-0.449751,-0.066827
0.180980,-0.403025,0.239542,-0.247570,0.286064,0.925676
0.587363,0.181477,0.435947,-0.447031,0.354532,0.821261
0.701198,-0.057724,0.065775,0.633327,0.720912,-0.281394
0.741151,-0.168069,-0.261398,0.996032,-0.025945,-0.085134
0.594897,0.137389,0.455580,0.150111,-0.909976,-0.386537
-0.181460,-0.030338,0.681134,-0.318670,-0.626425,-0.711366
0.567734,0.060456,0.181568,0.732014,-0.681232,-0.008862
0.695540,-0.324271,0.818880,0.222317,-0.858968,-0.461247
-0.650095,-0.168177,0.578446,0.937770,0.077775,-0.338435
0.709772,-0.143355,0.764157,0.388094,0.731860,-0.560147
0.599135,0.431337,0.844940,0.751419,-0.536484,0.384127
0.694930,-0.293666,-0.316585,-0.542012,-0.569437,-0.618032
0.595838,0.139471,0.593639,-0.448870,-0.891433,0.062153
0.168052,-0.241777,0.191860,-0.776034,-0.402034,0.485942
0.585880,-0.080942,-0.032438,0.525027,-0.814960,0.245328
0.529039,0.122395,0.464494,-0.615011,-0.781540,-0.104673
0.673604,0.104194,0.177216,0.893748,0.399239,-0.204505
0.752154,0.720133,0.894220,0.814088,0.216373,0.538929
0.505860,-0.181950,-0.137210,0.091173,-0.861903,0.498809
-0.648334,-0.055846,0.532411,0.649348,0.747525,0.139836
-0.494833,-0.176038,0.450863,-0.365033,-0.461378,-0.808630
0.727464,-0.052197,-0.186948,-0.466566,-0.774269,0.427579
0.461896,-0.310545,-0.069720,0.260005,0.912707,0.315219
-0.912889,-0.133270,0.611488,0.860333,0.293482,-0.416768
0.555410,0.100255,0.487896,0.802553,0.181016,-0.568456
0.612145,0.069310,0.826567,-0.783862,0.620510,-0.022986
0.618199,-0.128056,0.010706,0.774228,0.632214,-0.029620
0.000744,0.096446,0.259202,0.102029,-0.800443,0.590662
0.621071,0.202235,0.684425,0.096861,-0.714737,0.692653
0.590616,-0.109669,0.524477,0.988769,0.116973,0.093026
0.278224,-0.209519,0.081944,0.536231,-0.459343,-0.708139
0.318174,-0.310750,-0.061085,0.476477,-0.720702,0.503546
-0.644489,-0.273503,0.514624,-0.394550,-0.879630,-0.265671
0.634004,0.125320,0.808488,0.981193,0.153370,0.117209
0.029709,-0.295106,0.414626,0.717804,0.554121,0.421553
0.865826,-0.410488,0.813695,-0.310134,-0.949608,-0.045415
0.194923,-0.333671,0.224988,-0.816784,0.545707,-0.187263
0.611646,0.090821,0.713686,0.878531,-0.471759,0.075009
-0.232601,0.014136,0.675364,0.872312,-0.355483,0.335713
-0.559949,-0.240832,0.547269,-0.743567,-0.152426,-0.651056
-0.409559,-0.280916,0.500076,0.043918,0.859649,0.508994
-0.486876,-0.134778,0.481682,0.491133,0.476482,-0.729214
-0.323922,-0.103404,0.391920,0.226612,0.277025,0.933758
-0.524808,-0.079922,0.506808,0.440086,0.880431,0.176537
0.293529,-0.351754,0.146390,0.334239,-0.484338,-0.808518
0.433685,-0.011302,0.920861,0.724329,-0.570931,0.386503
0.132538,-0.223528,0.338904,-0.210711,-0.610655,0.763348
0.375958,-0.245912,-0.102981,-0.399549,-0.362656,-0.841927
0.278182,-0.026157,0.157956,-0.006391,-0.964435,0.264244
-0.819402,-0.036452,0.655289,0.514245,0.577186,-0.634356
0.462774,-0.462236,-0.079404,-0.309277,-0.341381,0.887585
-0.151317,0.023347,0.675339,-0.225151,0.112765,-0.967776
0.533364,-0.041083,0.597484,-0.198000,0.716126,0.669298
-0.502093,-0.282820,0.513962,0.318149,-0.175386,0.931676
0.565811,0.071797,0.601099,0.914118,-0.290742,-0.282591
0.690049,-0.080613,-0.065804,-0.224977,-0.505961,-0.832700
0.776302,0.431687,0.848751,-0.504232,-0.002936,0.863563
0.635684,0.111640,0.135170,0.280589,-0.707573,0.648544
0.704608,-0.160383,-0.178846,-0.496469,-0.867756,0.022752
-0.047677,-0.259724,0.269278,0.768187,0.623716,-0.144452
0.850803,-0.351591,-0.839362,-0.686155,-0.611049,0.394730
0.449444,-0.270066,0.036796,0.794335,-0.366604,0.484389
-0.059805,-0.207826,0.394600,0.443226,0.889026,-0.114817
0.176732,-0.207347,0.294444,-0.050993,0.920847,-0.386576
0.672884,0.307296,0.763082,-0.592867,-0.355274,-0.722696
0.185897,-0.732990,-0.090057,-0.628405,0.771124,-0.102347
0.602878,-0.079584,0.465145,0.911242,-0.378327,-0.162811
0.552163,0.054090,0.384883,0.018909,-0.735503,0.677258
-0.913833,-0.116462,0.572908,0.280706,0.729048,-0.624255
-0.481892,-0.108976,0.475711,-0.014546,0.040588,-0.999070
-0.674698,-0.200518,0.515866,-0.248030,-0.817197,0.520260
0.574639,0.059092,0.663631,-0.210184,-0.862222,-0.460864
-0.254887,-0.040380,0.689834,-0.784170,0.344903,-0.515868
0.274336,-0.119887,0.044642,0.883140,-0.288147,0.370182
0.539161,-0.225275,-0.130573,0.891736,-0.416246,0.177614
0.758029,-0.309230,-0.358079,0.648985,0.744036,-0.158836
0.649974,0.087570,0.768280,0.342130,0.675434,-0.653250
0.610703,0.064785,0.041727,-0.395808,-0.779752,0.485100
0.174501,-0.343614,0.408205,-0.745082,-0.015812,0.666786
0.653159,-0.066436,-0.066038,0.803835,-0.353629,0.478327
0.705290,-0.300551,-0.263851,0.576444,-0.072393,0.813924
-0.686929,-0.168561,0.562979,0.863436,-0.416942,-0.283967
0.546172,0.296936,0.838648,0.713116,0.283705,0.641075
0.877418,-0.454270,-0.903433,0.653276,0.511172,0.558510
0.043127,-0.122485,0.269680,-0.633665,0.482961,-0.604332
0.706961,-0.194450,-0.283400,-0.303410,0.949800,-0.076300
-0.201276,-0.171929,0.659682,0.826330,0.055756,0.560420
-0.393669,-0.182314,0.481185,0.938373,0.142431,-0.314913
0.689422,-0.235311,0.000765,-0.616982,0.610636,0.496444
0.808008,-0.359421,-0.632980,0.879990,0.330528,-0.341129
-0.674644,-0.033483,0.521568,-0.484399,-0.861317,0.153263
-0.437382,-0.162072,0.482732,0.920275,-0.375190,-0.111025
0.612305,0.114678,0.480106,0.260023,-0.087495,-0.961630
0.648600,0.007863,0.012814,0.866499,-0.169095,0.469667
-0.205584,0.159776,0.712979,0.406964,0.787455,0.462920
0.682138,-0.282918,-0.258749,0.065266,-0.185433,0.980487
0.643708,-0.167844,-0.234645,0.835100,-0.542070,0.093640
0.544218,0.413726,0.884688,-0.719333,0.444712,-0.533659
0.650485,0.045054,0.368587,0.275504,0.394607,0.876574
0.639745,-0.161084,0.013139,0.650126,-0.759589,0.018995
0.619056,0.328928,0.911384,0.169743,-0.853959,0.491876
0.588275,0.295165,0.718629,-0.169147,0.928931,0.329358
0.532196,0.355423,0.862381,0.511499,0.354149,0.782909
-0.254913,0.030244,0.386737,-0.693929,0.432863,-0.575405
0.536809,-0.290074,-0.155718,-0.319791,-0.014793,0.947373
0.529481,-0.023899,0.801204,-0.111035,0.775903,0.621004
0.607724,0.137479,0.345671,-0.053840,0.668069,0.742149
0.574644,0.185409,0.806826,-0.008361,-0.875680,0.482820
0.263967,-0.313302,0.202746,0.383008,-0.031030,0.923224
0.655860,-0.011295,0.798367,0.898069,0.423430,0.119073
0.606732,-0.439600,0.823525,-0.624942,-0.464427,-0.627499
0.688783,-0.420627,-0.351825,0.295143,-0.869591,0.395856
0.669105,0.003237,0.378046,-0.070282,0.952493,0.296340
0.626123,0.149037,0.474967,0.459370,-0.658224,-0.596422
0.349477,-0.362178,-0.029054,0.430671,-0.194028,-0.881405
0.108979,-0.289034,0.484383,0.072127,-0.453248,0.888462
-0.913873,-0.121150,0.589558,0.610150,0.591103,-0.527555
-0.827056,-0.115319,0.641523,-0.590305,0.392206,0.705489
0.552732,0.054897,0.484719,0.244986,-0.390411,-0.887446
0.764423,-0.209255,-0.408870,0.643525,0.584517,0.494182
0.825159,0.566473,0.887893,0.498154,-0.771856,0.395071
0.663798,-0.465167,-0.251079,0.677678,-0.449210,0.582206
0.057785,-0.434321,0.083591,0.741134,-0.671107,0.018346
-0.265590,-0.094396,0.397935,0.547337,0.371325,0.750026
0.791068,-0.367154,-0.644904,-0.217004,-0.580880,0.784530
0.513310,0.815509,0.993193,0.251285,-0.933035,0.257492
0.673947,0.825323,0.895929,0.220669,-0.129175,0.966757
0.767642,-0.087546,-0.162292,0.108596,0.666429,0.737617
0.481294,-0.315739,-0.140685,-0.838389,-0.212145,0.502093
0.809213,-0.355879,-0.812703,0.680776,0.623371,0.384646
0.543203,-0.392562,-0.142616,0.771695,-0.325507,0.546381
0.741476,-0.296065,-0.411569,-0.719816,-0.550898,0.422346
-0.172798,-0.156079,0.662949,0.832778,-0.381281,0.401380
0.414947,-0.203716,0.015661,0.554769,-0.767095,0.322176
0.252457,-0.704077,-0.070430,0.882543,0.158001,0.442893
0.475470,0.155308,0.840115,-0.662275,0.399497,0.633872
0.164834,-0.092541,0.164508,0.335219,-0.449985,0.827733
-0.571367,-0.192778,0.510483,-0.616604,0.391638,-0.682949
0.608279,0.106773,0.176816,0.354491,-0.926552,-0.125845
0.614584,0.156240,0.501115,-0.275453,0.141384,0.950861
-0.477706,-0.031951,0.459053,0.985396,0.140408,-0.096331
-0.353254,-0.089079,0.490611,0.970446,0.109010,-0.215292
0.757375,-0.196075,-0.412284,0.081107,-0.988396,-0.128436
0.303939,-0.358235,-0.003849,0.425941,0.900171,-0.090920
-0.271528,-0.057173,0.433600,0.106921,-0.102501,0.988970
0.071421,-0.294115,0.449990,0.043813,0.579834,0.813556
0.517596,-0.079604,0.843361,0.810616,-0.367468,-0.455927
0.630567,-0.028250,0.212558,-0.234731,-0.324771,0.916202
0.422125,0.105587,0.899713,-0.408054,0.464436,0.785997
0.489659,-0.515818,-0.112505,-0.566104,0.404640,0.718187
-0.099269,-0.200575,0.468511,-0.145521,0.977034,-0.155652
0.055200,-0.480000,0.046206,0.970122,0.130814,-0.204333
0.639334,-0.298655,-0.278871,0.123081,-0.962213,0.242895
0.200501,-0.356026,0.015820,-0.060506,-0.603138,0.795338
0.041951,-0.611215,0.007803,-0.460867,0.536898,-0.706641
0.730000,-0.249175,-0.179379,-0.413235,-0.877333,0.243974
0.699558,0.911958,0.924927,-0.318523,-0.355940,0.878550
-0.557280,-0.076339,0.498977,-0.155896,0.892183,-0.423917
0.805481,-0.350332,-0.525041,0.769089,-0.199913,-0.607073
0.594258,0.015181,0.507819,-0.151218,0.916322,0.370792
0.016349,-0.048415,0.297420,0.538033,-0.842905,-0.005610
0.212587,-0.381383,0.232752,0.816242,-0.183995,0.547626
0.486303,0.232698,0.812939,0.754978,-0.643688,0.125199
0.660205,0.408097,0.792816,0.959578,-0.095614,0.264704
0.071595,-0.578946,0.069954,0.322759,0.930103,0.175316
0.192134,-0.279769,0.373791,0.184500,0.842602,-0.505947
-0.691659,-0.091272,0.592680,-0.097551,-0.916601,-0.387721
0.480599,-0.225317,-0.137559,-0.269963,0.918179,0.289946
0.605270,-0.047907,0.440497,-0.672485,0.704944,-0.225428
0.130968,-0.210804,0.154037,-0.706815,0.249185,-0.662057
-0.145640,-0.055808,0.628614,0.586697,0.322745,-0.742713
0.774148,0.813399,0.894248,0.874158,0.149247,0.462140
0.558604,0.044015,0.791712,0.807354,-0.144699,-0.572051
-0.064139,-0.543246,0.060642,0.634247,-0.770213,0.067102
0.615329,0.080430,0.298920,0.945054,-0.069666,-0.319404
0.693694,0.003042,0.061530,-0.675445,0.128645,-0.726102
0.690227,-0.125695,-0.049511,-0.592647,0.679591,0.432350
0.564796,0.069721,0.614984,-0.207777,0.818241,0.536013
0.797451,-0.396361,0.800558,0.601923,0.795154,0.073617
0.571630,0.516030,0.899122,0.611987,0.367124,-0.700493
0.568279,0.273340,0.920716,-0.656267,-0.573672,-0.490116
0.569165,0.175027,0.902926,0.036707,-0.899390,0.435602
0.068584,-0.064713,0.294685,0.304956,0.936737,-0.171829
-0.094852,0.001368,0.543628,0.986372,0.162307,0.026964
0.755135,-0.300435,-0.224164,0.523831,-0.788211,-0.322995
0.609711,0.191581,0.697222,0.993482,0.078252,0.082889
0.574925,0.408439,0.902904,-0.495613,0.866456,-0.060174
0.250932,-0.215333,0.104822,0.100875,0.151610,0.983279
0.310796,-0.154333,0.114635,-0.515277,-0.021928,-0.856743
-0.195183,-0.921851,-0.009730,0.013335,-0.995111,-0.097854
0.106788,-0.408071,-0.009033,-0.525639,-0.346644,-0.776879
-0.835065,-0.140841,0.600329,-0.775912,-0.595934,0.206937
-0.068409,-0.120869,0.418312,0.458023,0.660144,0.595336
0.741414,0.035048,0.023536,0.982741,0.184618,-0.011674
0.642914,0.203607,0.630656,0.879261,-0.379125,-0.288383
0.477240,-0.339713,0.092769,0.219451,-0.972502,-0.077986
0.625043,0.109546,0.480767,-0.536886,0.723068,0.434656
-0.914641,0.043019,0.636432,0.992172,-0.121225,0.029983
0.587469,0.062234,0.469179,-0.753495,-0.390295,0.529069
0.692553,-0.144046,-0.346317,-0.318130,0.931832,0.174594
0.353639,-0.383303,0.348207,-0.153238,0.390818,-0.907623
0.726749,0.315314,0.644289,0.768770,-0.454542,-0.449871
0.554113,0.011746,0.284374,-0.432688,-0.775140,-0.460367
0.560112,-0.317769,0.296169,0.326366,-0.912462,0.246777
-0.541306,-0.054058,0.512019,0.054344,0.783613,0.618868
0.654324,-0.225051,-0.223328,-0.455439,0.814605,0.359157
0.648088,0.065054,0.445795,-0.028109,-0.203615,0.978648
0.678355,-0.249794,-0.279645,0.537352,0.264889,-0.800679
0.000214,-0.082654,0.274622,-0.356900,0.261596,0.896766
0.568587,0.138247,0.549189,0.443165,0.812504,0.378739
0.626129,0.013225,0.695319,0.617043,0.269887,0.739201
0.662001,-0.287252,-0.351335,0.849608,0.163602,-0.501399
0.830345,-0.439409,-0.827844,0.599591,0.338192,0.725339
0.616840,0.280266,0.768383,0.413023,-0.837734,0.357231
0.689761,-0.031973,0.129189,0.849458,0.399017,0.345262
0.516362,0.555388,0.914168,-0.215044,0.968913,0.122323
0.528974,0.165872,0.202969,0.726369,0.556171,-0.403809
-0.303125,-0.158606,0.408652,-0.112748,-0.661783,0.741168
-0.348739,-0.107011,0.505128,0.380728,0.917458,-0.115397
0.343100,-0.162422,0.084665,0.584750,0.467485,0.662967
-0.424096,-0.180533,0.448636,-0.508188,-0.383028,-0.771385
0.142550,-0.260088,0.322001,-0.412493,-0.910948,0.004907
0.850567,-0.433603,-0.391951,-0.233659,-0.970486,-0.059663
0.874590,-0.404916,-0.918196,0.847974,0.457750,0.267218
-0.210169,-0.132274,0.671646,-0.581452,0.543139,-0.605734
0.747173,-0.158799,-0.172978,-0.158160,-0.913743,0.374244
0.807378,-0.352999,0.806167,0.541314,0.685581,0.486784
0.344463,-0.366304,0.071136,-0.135134,-0.709770,0.691350
0.620102,0.507208,0.817103,0.156468,-0.964013,0.214932
0.560233,-0.264425,0.091415,-0.570842,0.702967,0.424236
0.591960,0.205908,0.540123,0.367576,-0.502148,0.782774
-0.461181,-0.387415,0.507140,-0.190586,-0.543328,0.817601
0.625066,0.101849,0.728734,0.993303,-0.115538,-0.000756
0.603070,0.166546,0.870546,-0.691260,0.712924,-0.117893
0.124454,-0.365484,0.400366,-0.110124,-0.991502,-0.069258
0.675772,-0.037474,-0.069927,0.196409,-0.529905,0.825000
0.595291,-0.387619,-0.221230,-0.242878,-0.934290,-0.260984
0.654885,0.097977,0.508297,0.822779,-0.285510,0.491445
0.885787,-0.436288,0.767691,0.362515,0.626653,0.689847
0.464726,-0.549613,0.317752,-0.807250,0.389540,-0.443403
0.631037,0.245402,0.724207,0.892390,-0.031025,-0.450197
0.175296,-0.728171,0.215505,-0.643335,-0.586354,0.492250
0.340182,-0.337260,0.086133,0.137003,-0.720659,0.679618
0.506580,-0.067940,0.420643,-0.674416,0.736413,0.053473
0.733757,0.292759,0.587219,0.959765,0.019247,-0.280143
0.700402,0.278727,0.618280,-0.157584,0.974808,-0.157847
0.108344,-0.271656,0.161062,0.874751,-0.027231,0.483807
0.725175,-0.383413,-0.384587,-0.641210,0.490829,-0.589862
0.154494,-0.582487,0.234530,0.630055,0.272994,0.726983
0.513178,-0.244166,-0.015230,0.907174,0.265100,0.326736
0.392537,-0.488996,-0.145329,-0.568414,-0.819272,0.075493
-0.430207,-0.107584,0.467361,0.254184,0.964345,0.073687
0.744493,-0.005931,-0.006824,0.953430,0.250881,0.167422
0.795381,-0.188583,-0.191849,0.291809,0.511450,0.808249
-0.005737,0.046897,0.258730,0.086657,-0.759988,0.644134
0.746943,-0.099551,-0.189633,-0.262542,-0.964809,0.014697
0.150616,-0.618849,0.225578,0.117527,0.291957,0.949183
0.569149,-0.187797,-0.139545,-0.302820,0.894159,-0.329819
0.077495,-0.079009,0.384433,-0.191815,0.942478,0.273756
-0.374232,-0.200492,0.485728,-0.403989,-0.014842,0.914644
0.521262,-0.141597,-0.060819,0.221916,0.974755,-0.024618
0.547155,0.063833,0.818907,0.663347,0.685768,0.299489
0.522385,0.273593,0.802051,0.918953,-0.337756,0.203584
