-0.001207,0.344481,-0.945883,-0.529805,0.180454,-0.828699
0.097551,0.236700,-0.573716,0.992932,0.118541,-0.005881
-0.746606,0.678696,0.553948,-0.451455,0.073349,-0.889274
-0.548075,-0.292542,0.288978,0.193170,0.909515,-0.368059
0.024396,-0.130479,0.777292,-0.817768,-0.118425,-0.563233
-0.902022,-0.463793,0.246799,-0.363558,0.065444,0.929270
0.097551,-0.893359,0.511866,-0.491171,-0.521210,-0.697919
0.084788,0.046775,0.909071,0.743271,0.666653,0.055877
0.314056,0.545334,0.533045,-0.661322,-0.466862,-0.587106
-0.551110,0.289479,0.598617,-0.036294,0.582877,0.811749
-0.468075,0.420740,-0.975196,0.232891,0.187801,-0.954197
-0.836880,0.683439,0.740093,0.223432,0.974205,-0.031680
0.127438,-0.584665,0.689490,0.060713,0.843945,0.532984
0.278336,0.245587,0.839225,0.282514,0.052152,-0.957844
0.028286,-0.348805,0.653661,0.313223,-0.865473,-0.390957
-0.791589,-0.297346,0.413453,-0.597334,0.343597,0.724661
-0.482548,0.382971,0.490963,0.366110,0.416009,-0.832406
0.079886,-0.452324,0.543960,0.183850,0.870703,0.456154
-0.302385,0.379068,0.169663,-0.179510,-0.338689,0.923616
-0.300984,0.478144,-0.965734,-0.010315,0.037358,0.999249
-0.139113,0.432028,0.833540,-0.623996,0.652498,-0.429971
0.148058,0.063649,0.881805,0.290369,0.947566,0.133437
0.089846,0.142849,0.969193,0.966618,0.173961,0.188113
0.244093,-0.665426,0.599391,-0.581606,0.703183,0.408984
0.097632,0.201814,0.419761,-0.523199,0.851860,-0.024428
0.028524,-0.049658,0.853239,-0.393251,-0.918768,-0.034910
0.771040,0.202594,0.517579,-0.922574,0.381581,-0.057033
0.173974,0.133722,0.946491,-0.474640,-0.504870,-0.720988
0.553366,0.650594,0.588587,0.281975,0.443380,-0.850826
0.312660,-0.478744,0.359129,-0.460968,-0.114502,0.879999
-0.117477,0.106281,0.590704,0.648241,0.028729,-0.760893
-0.217712,0.640387,0.780571,0.340866,-0.811645,0.474386
0.360050,0.634562,0.726952,0.063855,-0.522952,0.849967
0.102766,0.707938,-0.978309,0.154397,-0.164373,-0.974240
-0.244720,0.537708,0.758298,-0.695841,0.140975,-0.704224
-0.289703,0.867359,0.341048,-0.651290,-0.232842,0.722223
0.378652,-0.225111,0.274522,0.420598,0.544096,0.725986
0.258182,0.847304,0.467322,-0.093666,-0.649706,0.754393
0.041130,-0.041132,0.882345,-0.316463,-0.634677,-0.705008
-0.242383,-0.847245,0.473893,-0.376141,0.830119,-0.411608
0.294368,0.290981,0.776462,-0.736262,0.050658,0.674798
0.259113,-0.022638,0.621124,-0.705109,-0.221687,-0.673555
0.011400,0.424702,0.822916,-0.496125,0.518899,-0.696135
0.410173,-0.359553,0.716092,0.675581,-0.570238,-0.467352
0.519437,-0.318782,0.382867,-0.008228,0.131778,0.991245
0.734854,-0.165906,0.372381,0.204931,0.257177,0.944385
-0.752130,0.242164,0.065357,0.525432,0.357722,0.771982
0.540062,-0.157139,0.660827,-0.597927,0.567811,0.565750
0.231487,0.246667,0.508103,-0.541991,0.383706,-0.747674
0.170630,0.329711,0.765755,0.589215,-0.030141,0.807414
0.277947,-0.085505,0.706339,-0.114598,0.988345,-0.100204
0.048911,-0.021737,0.703863,-0.605346,-0.277012,0.746204
-0.266665,0.801729,0.532160,0.257045,-0.227123,0.939331
-0.135997,0.404888,0.703116,-0.530307,0.166697,-0.831256
-0.407992,0.110664,-0.986761,-0.098534,-0.072520,0.992488
0.918751,-0.650775,0.431645,-0.782373,0.160427,0.601794
-0.148063,-0.160262,0.849891,0.973412,-0.213433,0.083158
0.363242,-0.460250,0.566495,0.346077,0.216270,0.912939
-0.474844,0.746067,0.632620,0.876744,0.227549,0.423724
0.022762,0.405909,0.722469,-0.349677,0.548409,-0.759587
-0.602785,0.611505,0.541221,-0.194522,-0.449244,0.871975
0.024553,-0.007566,0.808750,-0.194755,0.480661,0.855006
0.359585,0.318662,0.853931,0.884984,-0.237128,-0.400716
-0.662479,0.022817,0.468829,0.335317,0.673285,0.658976
0.462860,0.249790,0.885278,-0.399433,-0.743559,0.536258
-0.762329,-0.033146,0.701096,0.692981,0.395878,0.602543
-0.343164,0.673832,0.170825,0.155773,0.147030,0.976789
-0.272969,-0.080641,-0.047235,0.693825,-0.655384,0.298460
-0.037862,0.765162,0.673886,0.190665,-0.455471,0.869594
0.204170,0.061547,0.680000,-0.619517,0.746536,0.242659
0.549866,-0.215144,0.595601,0.795766,0.560171,-0.230141
0.564339,0.565810,0.481750,-0.243808,0.347298,0.905506
-0.716177,-0.064789,0.489428,0.520540,0.134587,0.843163
-0.141289,0.487990,0.739222,0.213210,-0.432807,0.875910
0.223084,0.609643,0.800809,-0.129948,0.962822,0.236828
0.195301,-0.737241,0.481460,0.524341,0.850480,0.041846
0.469163,0.298666,0.901933,0.979069,-0.115333,-0.167698
-0.039810,0.229554,0.873505,-0.661245,-0.747599,-0.062051
-0.114052,-0.066951,0.819028,-0.468913,-0.499607,-0.728364
0.287133,0.454125,0.707059,0.239578,-0.316916,0.917696
-0.330401,-0.426684,0.622300,-0.012002,0.408492,0.912683
-0.465429,0.160081,0.658959,-0.319808,-0.411305,0.853552
0.107046,0.606881,0.641031,0.609137,-0.089002,0.788055
-0.344257,-0.236280,0.394778,0.845536,0.409677,-0.342393
0.044555,0.668968,0.302922,0.886652,-0.429712,0.170869
-0.470797,-0.386815,0.570562,0.076630,0.778504,0.622944
0.176387,0.831332,0.318665,0.876666,0.036396,-0.479720
-0.052103,0.591149,0.471319,0.966265,0.190660,-0.173152
-0.329389,0.141467,0.666346,-0.731630,-0.237704,-0.638916
0.629015,0.020955,0.528425,-0.586210,0.091777,0.804944
-0.070547,0.208118,0.874819,-0.324532,-0.902708,0.282485
0.164403,0.123394,0.922366,0.040819,-0.171920,0.984265
-0.392427,-0.046535,0.729331,0.849922,0.264838,0.455514
-0.645982,0.216164,0.044745,0.525432,0.357722,0.771982
0.214130,0.158220,0.921550,-0.749676,-0.237587,0.617688
-0.291337,0.189685,0.666056,0.849104,0.257924,0.460975
-0.021128,0.209980,0.585931,0.216829,0.901829,-0.373751
0.578114,0.428005,0.684648,0.513274,0.458434,-0.725526
-0.454533,0.504083,0.416967,0.816312,-0.164087,-0.553814
0.312812,-0.213883,0.707418,0.678704,0.600230,-0.423184
0.099655,0.176474,-0.125146,0.773876,0.632182,-0.038236
-0.561617,0.463732,0.304071,0.596021,0.355630,0.719921
0.059964,-0.111625,0.779077,0.897368,-0.173583,0.405708
0.440910,0.121832,0.801044,0.876060,-0.480991,-0.034165
0.091713,-0.298908,0.534041,-0.186671,-0.066761,0.980151
0.481537,0.405789,0.515947,0.779451,-0.615312,0.117675
0.252031,0.229374,0.873810,-0.063876,0.911970,0.405255
0.057238,0.030683,0.868124,-0.795207,0.165084,-0.583432
0.264172,-0.099736,0.374235,-0.224745,-0.185504,0.956597
0.289233,-0.009667,0.619353,0.720212,0.087767,0.688180
-0.448073,-0.234658,0.437192,-0.644717,0.230605,-0.728808
-0.243785,0.321184,-0.265641,-0.562027,-0.821612,-0.095290
-0.913460,-0.234658,0.418710,0.399228,-0.566777,-0.720681
0.119030,-1.000000,0.525700,-0.138453,0.635479,0.759603
0.941399,0.618470,0.561404,-0.592110,0.613597,0.522403
0.251256,0.530804,0.758409,-0.440656,0.852682,-0.280635
-0.386826,-0.503302,0.636881,-0.507335,-0.793974,-0.334988
-0.048602,-0.012069,0.801183,0.840396,0.150173,0.520752
-0.174131,0.396901,0.544762,-0.635650,0.138525,0.759447
-0.501149,-0.245827,0.410548,-0.645785,0.531503,0.548148
-0.458114,-0.027561,-0.991451,0.143798,0.022631,-0.989348
0.748786,0.672151,0.616102,0.204594,0.926848,0.314793
0.292814,0.460370,0.757939,-0.667797,0.343288,-0.660455
0.271102,-0.661643,0.603749,-0.292425,0.690180,0.661921
0.003772,0.646571,0.567104,-0.646541,0.762415,0.026608
-0.163391,0.298186,0.748158,0.850747,0.303515,0.429078
0.387211,0.818843,0.454470,-0.304389,-0.085712,0.948684
0.005330,-0.720187,0.486066,-0.211838,0.387322,0.897277
0.002138,-0.081962,0.893730,-0.139030,-0.874263,-0.465118
-0.110471,-0.007986,0.851081,0.177542,0.903323,0.390495
-0.613373,0.062988,0.662791,0.558147,0.071983,0.826614
-0.029611,-0.091330,0.818461,0.126965,-0.077130,0.988904
0.390014,0.419479,0.540709,-0.383968,0.901582,-0.199294
-0.531269,0.733877,0.620820,0.666293,-0.271681,0.694437
0.231022,0.600636,0.794183,-0.207387,-0.594513,-0.776881
0.041520,0.121652,-0.882829,-0.782657,0.617806,-0.075919
-0.727772,0.517594,0.601674,0.424114,-0.459177,0.780566
-0.075216,-0.238141,0.647961,0.701960,0.142009,0.697915
0.279581,0.140026,0.865067,-0.456767,0.509031,-0.729556
0.157634,-0.298487,0.519170,-0.541079,-0.707127,-0.455197
0.226428,0.346943,0.545011,-0.397806,0.916669,-0.038323
-0.317172,0.776870,0.467322,0.301738,-0.316835,0.899205
0.170938,-0.025399,0.574767,0.630217,0.603983,-0.487885
0.285651,0.211180,0.834702,0.838686,-0.539552,0.074088
0.792753,0.697790,0.127816,-0.274847,-0.839629,0.468489
-0.016539,0.110904,0.948816,-0.335372,0.774173,-0.536826
-0.330639,0.034406,0.338751,0.156480,-0.150194,0.976195
0.488386,-0.132401,0.578129,0.215973,0.717433,0.662303
-0.556017,0.787438,0.548290,0.417203,-0.140506,0.897886
-0.140667,0.415996,-0.972471,0.125078,-0.030061,-0.991691
0.513134,0.686202,-0.965942,0.084702,0.026684,0.996049
0.656095,0.479584,0.710655,-0.148883,-0.653944,0.741748
0.389548,-0.041492,0.499374,-0.106401,-0.043185,0.993385
0.222847,-0.035907,0.205893,-0.420354,-0.451251,0.787194
0.670416,0.563588,0.724157,-0.703148,-0.511447,0.493968
0.050003,0.188483,0.852187,-0.184821,0.888870,-0.419228
-0.051324,0.017713,0.802649,-0.586041,0.112136,-0.802484
0.544341,0.613426,0.576511,-0.512458,-0.713359,0.478024
0.415151,0.478323,0.729621,0.782341,-0.008282,0.622795
-0.486287,-0.761499,0.295051,0.483329,0.863087,-0.146538
0.146580,0.218266,0.717877,0.755131,-0.649383,0.089887
-0.133195,0.208839,-0.970576,0.361761,0.234821,-0.902213
-0.127281,-0.224151,0.311831,-0.388156,0.585090,-0.712043
0.302775,-0.476102,0.727353,0.085334,0.818395,0.568285
0.693449,0.250511,0.072717,-0.159656,-0.417614,0.894488
-0.505895,0.143569,-0.982168,-0.001770,-0.161178,0.986924
-0.253669,0.144470,0.780585,0.636902,0.279011,0.718686
0.688081,0.075477,0.538648,0.581636,-0.023053,-0.813122
0.348380,-0.426384,0.495888,0.756436,-0.116530,0.643603
-0.557727,-0.059205,0.574491,-0.402542,-0.812166,0.422311
-0.371726,0.618530,0.532146,-0.228743,0.475629,0.849384
0.861708,-0.269185,0.606004,-0.131293,0.526635,0.839892
0.187207,-0.072596,0.704610,0.935839,-0.131974,-0.326785
-0.722794,0.284016,-0.992447,-0.036152,-0.085613,0.995672
0.422936,0.058004,0.860834,0.237618,0.938428,-0.250781
0.435618,0.632641,0.731738,0.966231,-0.067344,-0.248722
-0.307990,0.112046,0.668560,0.174948,0.546261,0.819141
0.574067,-0.186021,0.813163,-0.333050,0.855512,0.396456
0.564420,-0.023838,0.839433,0.832642,-0.160443,-0.530061
0.044322,-0.061787,-0.215009,0.996453,-0.083983,-0.005370
0.717498,-0.249910,0.379118,-0.147260,0.194739,-0.969738
-0.302618,0.656779,0.454622,-0.263059,0.372376,-0.890020
-0.581776,0.766543,0.464154,-0.161219,-0.411083,0.897229
0.277481,0.716585,0.451980,-0.203720,0.285531,0.936467
0.515390,-0.150174,0.635663,0.184967,0.742540,0.643755
0.548232,0.382550,0.457334,-0.647147,0.610406,-0.456732
0.350171,0.639366,0.520609,0.955281,-0.090301,0.281575
-0.229074,0.684100,0.583081,0.629822,-0.679926,0.375533
-0.164170,-0.183620,0.843154,0.955331,-0.294686,-0.022423
0.274760,0.005163,0.787308,0.330020,0.806793,-0.490074
0.357642,0.579801,0.713519,-0.271280,-0.513028,0.814377
-0.519361,0.025219,0.665350,0.669332,0.737399,0.090756
0.117943,-0.190465,0.578088,0.861194,-0.428358,-0.273597
-0.139888,0.451783,-0.973149,0.072038,0.078611,0.994299
0.179346,0.859132,0.554252,-0.274885,-0.603180,0.748740
0.579206,0.098655,0.343317,0.403863,0.894475,0.191860
-0.138724,0.626216,0.762241,0.617909,0.028871,0.785719
0.053970,-0.436412,0.537375,0.092949,0.623869,0.775982
0.005253,0.030623,0.869286,-0.166587,0.499008,0.850435
-0.279585,0.533205,0.765727,-0.753802,-0.424104,-0.501915
-0.807154,-0.012069,0.647104,-0.188989,0.941214,0.279998
0.060895,0.146271,0.982625,0.803204,-0.361820,0.473233
-0.405969,-0.541312,0.444980,0.212986,0.642884,0.735756
0.166269,0.173472,0.711444,0.045799,-0.556430,0.829631
-0.114831,-0.145431,0.843624,0.983750,-0.176306,0.033939
0.571112,-0.741384,0.531164,0.683243,0.720670,0.117529
-0.449864,-0.001261,0.649566,-0.606264,0.343503,-0.717251
-0.716101,-0.343822,0.276459,0.350791,0.847577,-0.398195
0.484415,-0.489852,0.642829,-0.304192,0.547796,0.779350
0.566909,-0.203555,0.656815,-0.087370,0.677504,0.730312
-0.732674,0.470218,0.315608,0.582730,-0.228887,0.779767
-0.782174,0.706377,0.176801,-0.604832,-0.096265,0.790513
-0.269235,-0.114627,0.767332,-0.732734,-0.289403,-0.615911
0.428384,-0.741023,0.558250,0.015535,0.851581,0.523993
0.105958,0.099795,0.889760,-0.435197,-0.836448,0.333105
-0.603331,0.515612,0.600553,0.102035,0.272165,0.956826
-0.663647,0.648253,0.548940,-0.122015,-0.273390,0.954133
0.046731,-0.261800,0.746900,0.256688,0.807246,0.531475
0.602629,0.363336,0.563977,-0.147018,-0.451531,0.880060
-0.497026,0.064909,0.229134,-0.794359,0.475865,0.377553
0.563797,-0.195208,0.805955,-0.235226,0.918915,0.316646
0.133352,0.892218,0.413412,0.755397,0.179028,-0.630337
0.060354,0.832593,0.391098,0.823088,0.183288,-0.537524
0.050626,0.100757,0.947142,-0.427219,0.737188,-0.523486
0.706060,0.136123,0.320325,0.303648,-0.946353,0.110515
-0.352973,0.130178,0.804226,-0.372395,-0.845809,-0.382007
0.532120,0.314999,0.453723,-0.555841,0.629063,-0.543435
-0.829565,-0.412754,0.435546,0.904600,-0.186971,-0.383067
-0.827622,0.654498,0.741670,0.389955,0.777658,-0.493136
0.031013,0.207817,-0.348020,0.390421,0.920635,-0.001358
-0.732598,0.050858,0.664562,-0.678360,0.570672,0.462775
-0.091404,0.047736,0.840609,-0.730239,-0.048546,-0.681465
-0.075606,0.302029,-0.957323,0.694960,-0.068275,-0.715800
0.271800,-0.634802,0.596140,-0.562690,0.643010,0.519536
0.137555,-0.388135,0.644046,0.723582,0.332496,0.604876
0.495388,-0.499820,0.001100,0.243852,0.105251,0.964084
-0.466203,-0.189444,0.402552,0.283776,0.596110,-0.751082
-0.527996,-0.245046,0.246868,-0.397253,0.675680,0.621005
0.338728,-0.319683,0.703476,-0.139158,0.563812,0.814095
-0.792676,-0.040591,0.478734,0.409291,0.485487,-0.772517
-0.600919,0.213102,0.558444,-0.346242,0.216219,-0.912889
-0.495003,0.012189,0.739775,0.039012,0.900352,0.433409
-0.297170,0.389816,-0.979817,0.338806,0.235279,-0.910964
0.056150,0.076498,0.818558,0.543714,-0.818638,0.184951
0.538580,0.500240,0.561058,-0.792108,0.610377,0.002121
-0.818516,-0.524439,0.520775,0.650647,0.413775,0.636749
-0.631661,0.677615,0.559440,0.545161,0.595083,-0.590488
0.671660,-0.313679,0.632412,-0.708293,0.453161,0.541263
0.594226,-0.004083,0.840180,-0.655441,0.600899,0.457513
0.439124,0.030563,0.521840,-0.112424,0.602486,0.790172
-0.849021,-0.336857,0.427052,0.367616,0.267376,0.890712
0.777890,0.538429,0.404240,-0.626502,-0.353003,0.694898
0.343397,0.393179,0.731530,-0.465208,0.640730,-0.610775
0.156465,-0.023358,0.203957,-0.757894,-0.308476,0.574838
-0.521228,0.851207,0.457361,-0.365342,0.055870,0.929195
-0.002841,-0.242885,0.528978,-0.241997,-0.487007,0.839203
-0.009533,0.253813,0.733329,0.601552,0.789632,0.120901
0.049457,0.218326,0.649428,0.808315,0.332721,0.485719
0.367522,0.564369,0.724365,-0.023740,-0.361479,0.932078
0.359276,0.322265,0.687028,0.746107,-0.636894,-0.194141
-0.029303,0.797647,0.679225,0.045892,-0.786004,0.616515
-0.371185,0.340999,0.611150,-0.269081,0.963059,0.010597
-0.183783,-0.688543,0.473823,0.469892,-0.858679,-0.204624
0.568467,-0.301790,0.371606,-0.030582,0.065907,0.997357
0.144324,0.140747,0.929518,0.859226,-0.315492,0.402735
-0.424180,0.256695,0.669002,-0.598155,-0.642764,0.478607
-0.410249,0.533205,0.048439,0.245228,-0.656742,0.713129
-0.605046,-0.041372,0.767747,-0.601073,-0.644702,-0.472304
-0.334761,-0.428125,0.316576,-0.291370,-0.468146,0.834232
-0.629870,0.596674,0.538413,-0.308840,-0.533108,0.787663
0.636406,-0.538189,-0.007878,0.263764,0.344092,0.901126
0.248454,0.832653,0.237019,0.186989,0.111998,0.975957
-0.634772,-0.036267,0.686446,-0.670640,-0.359818,-0.648670
0.197947,0.157499,0.801778,0.643267,-0.597855,0.478306
-0.109929,-0.337457,0.556216,-0.214408,0.793381,-0.569715
0.929724,-0.696289,0.314985,0.282007,-0.735763,0.615731
-0.601541,0.348145,0.580578,-0.087357,0.476011,0.875090
0.446515,-0.030684,0.217638,-0.135060,-0.624821,0.768998
-0.169461,0.518194,0.557572,-0.408101,0.912914,0.006546
0.568542,-0.756756,0.414961,0.614835,0.263561,-0.743313
0.411337,0.392818,0.864596,-0.821952,-0.301520,0.483198
0.412586,-0.570133,0.659706,-0.514365,0.611061,0.601692
-0.389472,0.349105,-0.987135,0.148110,0.024265,-0.988673
0.292582,0.609703,-0.960961,0.100783,-0.400444,0.910762
0.338262,-0.156659,0.006287,0.677672,0.387550,0.624953
0.162612,-0.126096,0.363528,-0.148909,0.096261,0.984154
-0.766765,0.613786,0.149908,0.866256,0.436057,-0.243835
0.170706,-0.567792,0.573619,-0.298475,0.366924,0.881067
0.186894,-0.714543,0.482193,0.542597,0.817494,0.193113
0.299583,0.205416,0.869825,0.188502,0.521300,0.832294
0.302229,0.537769,0.754204,-0.302446,-0.073136,0.950356
0.831513,0.439955,0.484779,-0.384580,-0.423361,0.820283
0.583952,0.134202,0.688757,-0.602893,-0.373546,0.704971
-0.550645,0.687042,0.452160,-0.430125,-0.328631,0.840829
-0.355462,0.326588,0.566758,-0.430360,-0.291120,-0.854423
0.768162,0.359553,0.485955,-0.339805,-0.548577,0.763934
-0.115064,-0.251832,0.155843,0.174244,-0.091253,-0.980465
-0.473134,0.052600,0.575362,-0.211571,0.771337,0.600230
-0.571345,0.063528,0.696517,-0.282812,0.607965,0.741887
-0.668392,-0.433289,0.488376,-0.408572,-0.447049,-0.795749
-0.405427,0.678876,0.614539,-0.770527,0.138400,-0.622200
0.060354,-0.244866,0.075594,0.890564,0.333423,0.309393
-0.821238,-0.334275,0.253093,-0.476107,-0.455322,0.752333
-0.449161,0.331752,0.615563,-0.157524,0.982499,-0.099404
-0.774854,0.081001,0.189805,-0.802465,0.592078,-0.074120
0.474920,0.058424,0.518423,-0.135622,0.608275,0.782053
-0.244720,0.464273,0.555138,0.457948,0.654196,-0.601923
0.210083,-0.135884,0.720602,0.837400,0.147963,0.526183
-0.004555,0.072175,0.835892,-0.239527,-0.064913,-0.968717
0.398421,0.295484,0.545814,0.850450,-0.022421,0.525578
0.130549,0.023537,0.819678,-0.424430,0.327084,0.844320
0.113972,-0.193828,0.661587,0.763531,-0.635410,-0.115215
0.288378,0.102798,0.780751,-0.551630,-0.126811,0.824393
-0.539515,0.791942,0.629341,0.782166,0.579310,0.229384
0.514535,0.311216,0.422722,-0.255374,0.555029,-0.791661
-0.606680,-0.076438,0.394695,-0.553457,-0.188144,0.811349
-0.546051,0.474961,0.299478,0.417007,0.469985,0.777958
-0.110552,0.692206,0.696877,0.943968,0.323416,-0.065782
-0.482083,0.480185,-0.972720,-0.199897,-0.126802,0.971577
0.308613,0.329230,0.743593,0.155242,0.648676,0.745063
-0.792676,-0.265282,0.417009,0.867070,0.305413,-0.393590
-0.031716,-0.340639,0.430731,-0.817191,0.576110,0.017211
-0.370871,0.362916,0.634169,-0.513640,-0.770629,0.377232
-0.149464,0.019515,0.864223,-0.561365,-0.671215,-0.484087
0.137788,0.241324,0.869369,0.737327,0.632566,0.237085
-0.631737,0.202354,0.285644,0.023959,-0.761919,0.647229
-0.524339,0.735139,0.575445,-0.505398,0.447399,0.737839
-0.138254,-0.190285,0.852395,-0.839094,0.543692,0.017906
0.387914,0.503542,0.713146,-0.047924,-0.799516,0.598731
-0.475547,-0.679597,0.303600,-0.225853,0.421578,0.878216
0.210083,0.833734,0.547405,-0.274885,-0.603180,0.748740
-0.079187,0.655758,0.508850,0.860559,-0.506051,-0.057887
-0.166426,0.158040,0.571627,0.615120,0.585775,0.527726
0.229620,0.217545,0.897299,0.969660,-0.011885,0.244167
-0.141446,0.709919,0.330908,-0.409019,-0.189869,0.892554
0.226039,0.145971,0.900259,-0.326780,-0.907162,-0.265090
0.047666,0.417318,0.661878,0.753082,-0.354843,-0.554034
0.062064,0.067131,0.953754,-0.136669,-0.873509,0.467230
-0.209855,-0.066351,0.646412,-0.578411,-0.585707,-0.567792
-0.192109,0.241863,0.564406,0.783965,0.087433,0.614618
0.342542,-0.090489,0.776946,0.788935,0.280957,-0.546485
0.468151,-0.040652,0.219561,-0.380762,-0.596931,0.706182
-0.013894,-0.367720,0.562788,0.120712,-0.693024,0.710736
-0.078484,-0.455267,0.308248,-0.625262,0.100647,0.773897
-0.025175,-0.118470,0.751022,0.824023,0.505562,-0.255721
-0.660142,-0.279332,0.388843,-0.532215,-0.550498,-0.643195
0.308532,0.100936,0.649940,0.579213,0.652629,-0.488455
-0.291413,0.625796,0.532727,0.246132,0.428747,0.869250
0.017081,0.300888,0.841107,0.885849,0.457327,-0.078248
-0.123077,-0.327249,0.610693,0.296769,-0.566877,-0.768491
0.263008,0.467815,0.789590,-0.226005,0.537465,-0.812437
-0.098800,-0.097754,0.822860,0.622232,0.210912,0.753886
0.242692,-0.270326,0.697472,0.940029,-0.239403,-0.242963
0.478112,-0.283836,0.615093,0.956774,0.287560,0.043508
-0.259269,0.391678,-0.975528,0.001333,-0.123854,0.992300
0.196622,0.268524,0.772201,0.967592,0.078836,0.239899
-0.061209,0.677074,0.713685,0.937931,0.260753,0.228677
-0.543253,-0.144170,-0.991658,-0.089269,-0.038340,0.995269
-0.157558,0.257295,0.894076,0.861402,0.287639,0.418630
-0.389472,0.923022,0.491862,-0.502070,-0.441949,0.743376
0.457720,0.832653,0.103441,-0.609950,0.644288,0.461361
0.379274,-0.099556,0.626090,0.062978,0.626689,0.776721
0.070547,-0.092771,0.646011,-0.574422,0.692037,-0.437178
0.275458,0.555663,0.399495,-0.583771,-0.409870,0.700870
0.105645,-0.228234,0.581546,0.829205,-0.509802,-0.229174
0.280440,0.048097,0.856697,0.755751,-0.611500,-0.234326
-0.840153,-0.527141,0.431105,-0.817272,0.424170,-0.390060
0.018796,0.339378,0.336179,0.906093,0.377975,-0.190081
-0.250401,0.095473,0.067847,-0.204852,0.973802,0.098721
0.547144,-0.192746,0.827674,0.832349,-0.378761,-0.404643
0.498034,0.128257,0.678907,0.131577,-0.872431,0.470693
-0.596952,0.097574,0.564946,-0.402329,0.709806,-0.578192
0.574613,0.678336,0.618745,0.773368,0.573465,-0.270259
-0.505272,0.779393,0.631181,0.728611,0.681125,0.072072
0.652594,-0.267864,0.687954,-0.022069,0.953175,0.301612
-0.079496,0.391017,0.662169,0.129813,0.087036,-0.987711
-0.037473,-0.472499,0.166260,-0.482882,-0.130610,0.865890
-0.018173,-0.541072,0.466934,-0.032761,0.607749,0.793453
-0.921088,-0.467095,0.240145,0.375874,-0.133589,-0.916991
0.765905,0.198091,-0.969594,-0.553370,0.164325,0.816565
0.382699,0.190525,0.435656,0.111518,-0.829265,0.547615
0.638429,0.457788,0.496939,-0.069671,-0.994779,0.074571
-0.263630,0.529362,0.168501,-0.041462,-0.113188,-0.992708
-0.503638,0.415696,-0.981975,-0.173192,-0.149296,0.973507
-0.424883,0.141587,0.821809,0.098125,-0.971424,0.216116
0.820925,-0.618170,0.326799,-0.432356,0.798492,-0.418902
-0.080897,0.622133,0.638153,-0.044416,-0.546024,0.836591
-0.406672,0.290861,0.614871,-0.378689,0.833204,0.402946
0.290012,0.235919,0.778662,0.651375,-0.221825,-0.725606
-0.595318,0.562267,0.181767,-0.282265,-0.249594,0.926299
-0.609948,-0.315960,0.553906,0.054868,0.723805,0.687820
0.425111,-0.501081,0.560436,0.112081,0.479990,0.870085
0.109849,0.083944,0.847747,-0.693100,0.516895,-0.502427
-0.118256,0.398463,0.516237,-0.598934,-0.749604,0.281731
0.589167,-0.258256,0.662971,0.008162,0.696891,0.717131
-0.218572,0.478504,0.526336,0.395975,0.812145,-0.428513
0.947389,0.515732,0.425129,-0.567388,-0.160908,0.807576
0.069146,0.318902,0.786823,0.509169,-0.590665,0.625989
-0.589091,0.096193,0.556203,-0.515444,0.286779,-0.807512
0.380053,-0.347965,0.505046,0.818527,-0.514594,0.255354
-0.281528,0.173291,0.698191,-0.385214,0.806354,0.448780
-0.344024,0.600036,0.463254,-0.037594,-0.532828,0.845388
-0.358421,-0.062628,0.587508,-0.404283,-0.157276,-0.901010
-0.430018,0.582322,0.588795,-0.281632,-0.606429,0.743591
0.861086,-0.568092,0.378136,-0.188703,0.982034,0.000334
0.232342,0.087847,0.832599,-0.152634,0.861628,0.484045
0.704113,-0.772968,0.420605,-0.211502,-0.279357,-0.936604
-0.322231,0.455086,0.423220,0.534202,0.053158,-0.843684
0.224870,-0.654978,0.464915,0.121485,0.273676,0.954119
-0.608157,0.094692,0.557489,0.600705,-0.158042,0.783694
-0.607844,0.154677,0.671645,-0.540704,-0.638339,-0.547871
-0.373208,-0.530204,0.660605,-0.124259,0.963148,0.238549
0.403166,-0.187162,0.796023,0.630460,0.070991,-0.772968
-0.708706,-0.443317,0.466533,0.053225,0.876402,0.478629
-0.416167,-0.411794,0.634626,0.810125,0.255011,0.527889
0.613292,-0.039690,0.854788,0.894044,-0.375728,0.243956
0.465192,0.337817,0.655307,-0.384488,-0.645813,0.659617
0.369394,-0.502402,0.660439,0.762416,0.635314,-0.122872
0.087747,-0.573316,0.504714,0.526026,0.849229,0.045904
-0.429472,0.272667,-0.976289,0.125817,0.144400,-0.981488
-0.622241,0.229494,0.609988,-0.137454,0.655269,-0.742785
0.323708,0.837997,0.572637,-0.527257,-0.631135,0.568919
-0.729017,-0.439534,0.483604,0.227369,0.545995,0.806345
-0.147440,-0.217845,0.754840,0.893930,0.331315,0.301860
-0.825755,-0.314879,0.418821,-0.150543,0.642756,0.751134
0.063076,-0.618890,0.543490,-0.750765,-0.660553,-0.004544
0.708938,-0.406449,0.622729,-0.506039,0.847728,0.159000
-0.161135,-0.068332,0.878582,0.266214,0.891072,0.367589
-0.080042,0.098354,0.930361,0.150046,0.950050,0.273662
-0.237947,0.379608,0.644295,-0.673801,0.703742,0.225252
0.493910,-0.008947,0.826734,0.970836,0.051900,-0.234060
0.478734,-0.602198,0.405914,0.148295,0.900145,0.409571
-0.332192,-0.110484,-0.981228,0.410374,-0.153593,-0.898890
0.050778,0.144770,0.020744,-0.126830,0.979658,0.155512
0.164327,0.106821,0.921812,-0.534274,0.768033,0.353095
0.682790,0.241623,0.040650,-0.160985,-0.675511,0.719561
-0.037938,-0.021857,0.880616,-0.270423,-0.773938,-0.572619
-0.869802,-0.513991,0.427923,0.968335,-0.156034,0.194887
-0.506598,0.830131,0.445381,0.210649,-0.508244,-0.835054
0.288843,0.578959,0.763514,0.766112,-0.592162,0.249833
0.507453,-0.111444,0.799329,-0.328617,0.582427,0.743498
0.283476,0.643509,0.224721,-0.137313,-0.271599,-0.952564
-0.235301,-0.161402,0.515864,0.113041,-0.123334,0.985906
-0.447916,0.925964,0.474363,0.653876,0.309577,0.690369
0.330012,-0.514291,0.649483,0.419083,0.745637,0.518069
0.237092,0.204275,0.955898,0.292738,0.332930,-0.896360
-0.210007,-0.007025,0.695936,0.144337,0.691938,0.707381
0.295536,0.481986,0.564212,-0.567303,-0.239726,0.787845
0.387211,0.687583,0.557462,0.000566,0.079271,0.996853
-0.397253,-0.351147,0.626215,0.802721,0.109705,0.586178
-0.128060,-0.763540,0.481667,-0.126007,-0.408303,-0.904108
-0.716334,-0.494896,0.487989,0.782413,-0.026469,0.622198
-0.314840,0.039930,0.658502,0.879524,-0.357435,-0.314131
-0.622398,0.085805,0.710932,0.887609,-0.140795,0.438550
0.102842,0.149994,0.964337,0.922392,0.337669,0.187545
0.103156,0.125795,0.942812,0.613248,-0.789890,0.000702
-0.159268,0.316140,0.900578,0.881791,0.270192,0.386575
0.223939,0.666206,0.840429,-0.768462,-0.635977,-0.070709
-0.240749,0.595233,0.328459,-0.626424,-0.079446,0.775423
0.775401,0.464993,-0.971475,-0.085988,0.002349,0.996293
0.214833,-0.249550,0.679917,-0.268428,0.478763,0.835902
-0.061522,0.610064,0.669085,0.936543,0.349246,0.030254
-0.158802,0.424102,0.403493,-0.079225,-0.356138,0.931069
-0.920931,-0.455627,0.445312,-0.610210,-0.116729,-0.783593
0.123856,0.003663,0.511271,-0.408462,0.674655,0.614816
0.596796,-0.060886,0.846073,0.989732,-0.068986,-0.125182
0.272422,0.584544,0.760332,0.845499,-0.529458,0.069318
0.541463,0.724391,0.664769,-0.348873,0.909571,0.225761
-0.731354,-0.360394,0.471223,0.377339,-0.754147,-0.537473
0.988795,0.654317,0.650562,-0.799829,0.370875,0.471937
0.076850,-0.445779,0.497631,-0.621422,0.201369,0.757156
-0.500138,0.206617,0.446696,-0.630607,0.120534,-0.766685
-0.189307,0.845322,0.464181,0.645785,-0.331934,0.687591
-0.453288,0.061727,0.681190,-0.013867,0.981496,0.190979
0.288221,-0.171671,0.254366,0.812127,0.524696,0.255234
-0.298808,0.933469,0.342459,-0.260234,0.057848,0.963811
-0.402933,0.228594,-0.983828,0.043213,0.125619,-0.991137
0.283552,0.685962,0.334629,-0.523886,-0.422383,0.739686
0.019960,0.119251,0.857832,-0.338658,0.094471,0.936155
0.002608,-0.206557,0.742819,0.482353,0.739583,0.469417
0.392816,0.503363,-0.965112,0.058654,0.083255,0.994801
-0.233743,-0.507026,0.460225,0.222520,0.959904,-0.170496
-0.791589,0.534406,0.613031,-0.500372,0.227334,-0.835433
0.163780,-0.561427,0.517966,0.116468,-0.992619,-0.033809
-0.006968,-0.172512,0.466478,0.500833,0.541425,-0.675296
0.649326,0.556683,0.721792,-0.709015,-0.453160,0.540318
0.441380,0.412813,0.882566,0.978313,0.103440,-0.179453
0.168293,0.383152,0.779741,0.431654,0.592694,-0.679992
-0.217479,-0.278372,0.517496,-0.464264,-0.550905,-0.693514
0.199971,0.666807,-0.970590,-0.333892,0.113596,0.935741
0.376319,0.572175,0.724766,-0.677437,0.639630,-0.363252
-0.275306,-0.111505,-0.973785,-0.525050,0.332975,0.783231
-0.700688,-0.394020,0.472371,-0.145387,0.892921,0.426093
-0.008521,-0.449922,0.550088,-0.172241,0.305186,0.936587
-0.604733,0.129879,0.688480,0.906629,0.163212,-0.389084
-0.424494,-0.208058,0.022722,0.724078,-0.536878,0.432982
-0.153197,-0.182118,0.849227,-0.839094,0.543692,0.017906
0.743025,-0.792963,0.422902,0.192389,0.510612,0.838011
0.165961,-0.168548,0.700280,0.568668,-0.466512,0.677483
0.213356,0.715623,0.451026,-0.782723,0.013904,0.622215
0.309857,0.735619,0.132699,0.956182,-0.290901,-0.033051
0.360754,0.684760,0.796950,0.937406,-0.075903,0.339865
0.311881,0.730575,0.550503,-0.341751,-0.110256,0.933300
0.652128,0.627957,0.596542,0.054011,0.942967,-0.328475
-0.785285,-0.028401,0.505696,0.803355,-0.086218,0.589226
0.897504,0.468656,0.510137,0.732537,0.680558,-0.015170
0.435466,0.103219,0.679640,-0.135584,-0.920759,0.365815
0.061598,0.121352,0.921660,0.028287,0.453297,0.890911
0.549552,-0.195989,0.818406,-0.175218,0.893958,0.412478
0.774156,0.576017,0.612672,0.087814,-0.565307,0.820193
-0.112884,0.369821,0.671741,0.276670,-0.161453,-0.947305
-0.154907,0.606941,0.742030,-0.367346,0.581229,-0.726106
0.603488,0.767023,-0.971876,-0.018002,0.079236,0.996693
0.313201,0.545515,-0.975819,-0.080897,0.074625,-0.993925
0.511267,-0.178456,0.808667,0.179821,0.898198,0.401130
-0.650414,-0.016212,0.390019,-0.694751,0.187532,0.694372
0.462936,0.012129,0.821352,0.489880,0.328270,-0.807624
0.070082,0.231235,-0.578682,0.992932,0.118541,-0.005881
0.525351,0.555542,0.715276,0.142511,-0.776596,0.613669
0.105569,0.033986,0.839461,0.964890,-0.031247,0.260790
-0.208606,0.028522,0.696808,0.901333,0.370786,-0.223869
0.067588,0.139066,0.174588,-0.272115,0.910528,0.311276
0.358573,0.333794,0.849462,-0.731798,0.218526,0.645537
-0.786297,0.805692,0.159730,-0.132624,0.525955,0.840108
-0.582474,0.720128,0.544084,-0.160822,0.501473,0.850095
-0.276626,0.225772,0.658738,0.414352,0.734496,0.537427
-0.411574,-0.277111,0.437607,-0.457228,0.028847,-0.888882
0.033345,0.318422,-0.971226,-0.072983,0.227231,0.971102
0.224248,-0.183980,0.724365,-0.189643,0.540236,0.819866
0.436944,-0.250090,0.684385,0.319412,0.715629,0.621169
0.277638,0.107541,0.666194,-0.682322,0.730498,0.028446
-0.615316,-0.004384,0.478388,-0.724530,0.599692,-0.339743
0.092336,0.232617,-0.379602,-0.711434,0.702700,-0.008564
-0.340129,0.853969,0.481210,0.065327,-0.536604,0.841302
-0.541230,0.796925,0.108034,0.099818,0.584857,0.804971
-0.892916,-0.326588,0.423026,0.381139,0.654700,0.652764
-0.048911,-0.306113,0.522559,-0.410638,0.168501,0.896094
0.646680,0.576979,0.723728,-0.677073,-0.398930,0.618407
0.443556,-0.156479,0.795304,0.250113,-0.418599,-0.873051
0.235848,0.529483,0.821089,-0.943624,0.299017,0.141996
0.123624,-0.184700,0.697334,0.646536,0.571540,-0.505305
0.682709,0.465414,0.065343,-0.134864,-0.200056,0.970458
-0.178101,-0.180918,0.842656,-0.242116,0.896990,0.369850
0.076542,-0.083103,0.767968,0.929723,-0.363757,0.057413
0.426204,-0.555362,0.667895,-0.475886,0.793130,0.380103
-0.714387,-0.098475,0.458620,0.445262,-0.364638,0.817791
-0.315073,0.163564,0.581408,-0.640694,0.401074,-0.654714
-0.626991,0.418578,-0.979637,-0.357644,0.038666,0.933057
-0.483793,0.275129,0.460917,-0.631021,-0.256107,-0.732272
-0.118722,-0.284016,0.311624,0.076355,-0.375796,0.923552
0.474611,0.701693,0.601287,-0.541956,-0.126377,0.830850
-0.392740,-0.174673,0.599779,0.671599,0.602424,0.431323
-0.537183,0.068332,0.550891,0.695454,-0.623332,0.357492
0.282773,-0.283416,0.696213,-0.255188,0.567249,0.783012
0.076228,-0.585145,0.456725,0.437431,0.107204,0.892839
0.179346,-0.321425,0.626049,0.884152,0.069980,0.461929
0.049533,0.618049,-0.971641,-0.134450,0.119798,0.983652
0.028676,-0.514231,0.305094,0.342565,0.001924,-0.939492
0.062767,0.076918,0.930541,0.783233,0.620824,-0.033523
0.539672,-0.000540,0.839378,-0.443281,0.094025,0.891438
-0.350793,0.907049,0.482165,-0.041904,-0.013996,0.999024
0.212496,-0.115348,0.703185,-0.419335,0.306906,0.854381
-0.744193,0.212682,0.583981,0.969789,-0.091480,0.226142
-0.523873,0.262099,0.026512,0.353128,0.261612,0.898254
0.050545,0.077459,0.797475,0.733619,0.624541,0.267864
-0.206896,-0.118049,0.760844,0.674884,0.110500,0.729604
0.445660,-0.541131,0.652291,-0.409335,0.760918,0.503437
0.365969,0.804492,0.101255,0.410287,-0.545447,-0.730857
-0.678277,0.813258,0.451966,-0.505250,-0.351445,0.788168
-0.443636,0.870421,0.478527,0.472402,0.436244,-0.765851
-0.539126,0.438634,-0.979139,-0.237625,-0.101884,0.965999
0.512122,0.681518,0.667508,-0.442057,0.815167,0.374285
-0.630416,-0.444638,0.476880,0.787531,-0.101327,0.607888
-0.104870,0.158940,0.012845,0.125893,-0.755536,0.642897
0.365499,-0.021977,0.583967,-0.680761,-0.731184,-0.043981
0.682011,-0.389936,0.610016,-0.730232,0.167339,0.662389
0.185806,0.115348,0.948055,0.034131,0.645375,0.763103
0.185806,0.127477,0.898572,0.504665,-0.783067,0.363481
0.044322,0.685421,0.667591,0.509959,0.132477,0.849936
0.224405,-0.085325,0.715746,-0.554328,0.642204,0.529428
-0.135299,-0.260718,0.767290,0.893442,0.339586,0.294011
0.132026,0.665726,0.638140,0.110909,-0.654183,0.748160
-0.798827,0.794464,0.170009,-0.162613,0.546441,0.821559
0.192266,0.145310,0.885430,-0.445325,0.679798,-0.582717
0.359352,0.133902,0.688853,0.079186,-0.996855,0.003076
-0.499359,0.109523,-0.984921,-0.067968,-0.122293,0.990164
-0.060121,0.647893,0.667204,0.740637,-0.138446,0.657488
-0.002921,-0.177975,0.719716,-0.604426,-0.580698,-0.545398
0.121211,0.020355,0.871444,0.817690,-0.540879,-0.197059
0.764428,-0.273928,0.608812,-0.215495,0.392630,-0.894094
-0.757422,0.606701,0.610735,0.947363,-0.010720,-0.319983
-0.038328,0.311276,0.805845,-0.190795,0.818099,-0.542505
0.287523,-0.749970,0.628235,-0.227567,0.733217,0.640785
0.296624,-0.050498,0.626215,0.704466,0.403693,0.583746
-0.321841,0.109523,0.803216,-0.438946,-0.782255,-0.442045
0.187283,0.062988,0.891655,-0.580672,0.376428,0.721888
-0.703804,-0.301009,0.447581,0.906400,-0.171231,-0.386158
-0.003387,-0.059986,0.891613,-0.471472,-0.599306,-0.646952
0.338884,0.759337,0.128397,0.927434,-0.373772,0.012709
-0.405038,0.065149,0.160726,-0.157733,0.983195,-0.091914
0.330401,0.642008,0.781428,-0.798992,-0.329778,0.502851
-0.323865,0.649214,0.605188,0.591969,-0.238881,0.769746
-0.613915,-0.083163,0.571351,0.430896,0.846404,0.312935
0.654850,-0.293864,0.583081,-0.617495,0.095938,0.780702
0.337407,0.561006,0.579512,0.943221,-0.187978,-0.273859
0.093661,0.145310,0.824963,0.719285,0.015016,-0.694553
0.017936,-0.036988,0.759073,0.817230,-0.458124,-0.349653
0.397875,0.648853,0.736137,0.990587,-0.000989,-0.136879
0.589946,0.684580,0.314197,0.136472,-0.765430,0.628882
0.077240,-0.615588,0.565015,0.610274,0.645213,-0.459636
-0.522083,0.757836,0.542079,-0.520491,0.497973,-0.693622
0.400288,0.373965,0.436791,0.052321,0.997618,0.044960
-0.843810,-0.249730,0.081418,0.801720,-0.519176,0.296144
0.794154,0.662544,-0.969248,-0.102434,-0.042436,0.993834
-0.171485,-0.207518,0.584119,-0.204052,0.019779,0.978760
0.534846,0.532725,0.696199,0.873781,-0.482106,-0.063886
0.218880,-0.373604,0.543656,-0.528467,0.465333,0.710061
-0.412353,0.691786,0.610638,-0.770527,0.138400,-0.622200
-0.214833,0.063228,0.749390,0.127620,-0.617047,0.776509
0.536167,0.632701,0.605381,0.180685,0.982544,0.044278
0.918984,-0.623154,0.438146,0.777592,0.560541,-0.284859
0.154442,0.696409,0.663040,-0.109515,-0.486794,0.866625
0.694541,-0.086166,0.575058,-0.181177,0.836925,0.516461
0.061209,0.024559,0.758478,0.775422,-0.394005,0.493438
0.399742,-0.344001,0.681771,0.871128,-0.417556,0.258425
-0.164403,0.024859,-0.970479,-0.678661,0.341154,0.650410
0.577805,-0.638165,0.412582,0.244824,0.957396,0.153147
0.619206,0.766122,0.464970,0.196811,0.835633,0.512819
-0.305264,0.187343,-0.983552,-0.125688,-0.071839,0.989465
0.111716,0.204635,0.790572,-0.604606,-0.551438,-0.574776
0.229307,0.501621,0.749417,0.992084,-0.025397,0.122982
0.230475,0.036988,0.760899,-0.603459,-0.797370,0.006151
0.132806,0.067972,0.954985,-0.623088,-0.724339,-0.295117
0.476088,-0.405969,0.630794,-0.887693,0.078377,-0.453717
0.617339,0.782034,-0.970382,-0.041703,0.041417,0.998271
-0.565745,0.173531,0.358866,-0.067133,-0.230431,0.970770
-0.586911,0.178516,0.367069,0.040402,-0.099643,0.994203
-0.172577,0.447040,-0.980550,-0.306135,-0.011314,-0.951921
0.012179,0.140987,0.859492,-0.365357,-0.127103,0.922149
0.458499,0.005944,0.822099,-0.234284,0.654242,0.719082
0.458266,-0.267803,0.376324,-0.068516,-0.015601,0.997528
-0.714463,-0.541072,0.274992,0.773960,0.412790,-0.480198
0.090393,0.294523,0.753540,-0.548359,0.835092,-0.043863
-0.341065,0.240543,0.456296,0.764910,0.228045,-0.602419
-0.772365,-0.224811,0.426997,0.878280,0.313108,-0.361370
0.415231,0.186141,0.579554,0.860381,-0.508990,0.025959
0.226894,-0.474661,0.558554,0.337817,-0.807789,-0.483070
0.328145,-0.145130,0.651627,0.327997,-0.885465,-0.329196
-0.099498,-0.459949,0.581823,0.952927,-0.034954,-0.301178
0.319585,0.543773,0.582819,0.940982,0.125186,-0.314454
0.929025,0.629698,0.419914,-0.809464,0.188188,0.556195
-0.332116,0.410292,0.276929,0.603935,0.168918,0.778928
0.597181,0.635764,0.589431,-0.386799,-0.467954,0.794610
0.218648,0.835535,0.426941,0.926305,0.146298,-0.347212
-0.641778,0.017834,0.683154,-0.643295,0.645111,-0.412315
-0.412272,0.124715,0.691897,0.320145,-0.128836,0.938567
0.038561,0.155938,-0.582749,0.984697,0.173559,-0.015784
0.583952,0.574336,0.580509,0.250237,0.726710,-0.639745
-0.644110,0.734959,0.175030,-0.130784,0.357698,0.924634
0.449393,0.501320,0.529448,0.977405,-0.197893,0.074285
-0.257484,-0.163744,0.567145,-0.717128,0.378798,0.585012
-0.681156,0.044854,0.377486,-0.570819,0.296987,0.765483
-0.170630,0.067792,0.748850,0.199699,-0.641376,0.740782
0.400834,-0.147472,0.791361,0.667540,-0.329892,-0.667504
-0.430018,-0.030203,0.739692,-0.496650,-0.107331,-0.861289
0.829489,0.495737,0.472551,-0.403665,0.073899,0.911917
0.375075,-0.583704,0.673858,0.468116,0.856466,0.217562
-0.209466,0.359974,0.445907,-0.186890,-0.297174,0.936355
0.725126,0.555122,0.521881,0.073858,-0.702370,0.707970
-0.003543,-0.038729,0.164987,0.892182,-0.002117,0.451671
0.326511,-0.346704,0.660273,-0.719360,-0.689410,-0.085054
0.099964,0.728714,0.332443,-0.713136,0.076934,0.696792
0.083700,-0.121653,0.708843,0.489363,0.854858,0.172459
-0.568699,0.138345,0.557849,0.832752,0.237196,0.500263
0.240436,-0.310136,0.606211,-0.602526,0.341523,-0.721335
0.341065,-0.493035,0.380709,0.765083,-0.181436,-0.617842
0.234057,0.577339,0.818641,0.987687,0.105569,-0.115457
-0.347833,0.443377,0.563120,-0.340349,0.440719,-0.830620
0.212886,-0.535787,0.443071,0.404794,0.208612,0.890294
-0.733296,0.247688,0.672931,-0.468859,-0.827405,-0.309147
-0.100201,-0.386694,0.419941,-0.415423,0.885161,-0.209557
0.090939,-0.292723,0.637434,-0.519776,0.404069,0.752702
0.034746,-0.244326,0.636230,0.042376,-0.213131,0.976104
0.834857,0.628917,0.484641,0.187244,0.216596,0.958137
-0.097864,0.100997,0.803216,-0.427798,-0.869545,0.246741
0.499900,0.003482,0.820315,-0.621282,0.274219,0.734038
0.544883,0.398403,-0.968321,0.014179,-0.043876,0.998936
-0.034594,0.647472,0.664091,-0.752049,0.194391,-0.629789
-0.580061,0.096974,0.501906,-0.365301,0.207996,-0.907355
0.734000,0.739342,0.531510,-0.574814,-0.799089,-0.176201
0.110780,0.101777,0.597704,0.934151,0.356159,-0.022656
0.408458,-0.281914,0.519793,-0.464483,0.866270,-0.183935
0.923891,0.419959,-0.965527,-0.243989,0.044073,0.968776
0.529322,0.284256,0.692630,0.243963,0.413309,0.877301
0.185184,0.865258,0.334270,0.858966,0.075289,-0.506467
0.672359,0.624774,0.570839,-0.153205,0.897185,0.414230
0.010854,-0.089228,0.665087,0.118080,-0.715062,0.689016
-0.751432,0.140807,-0.991105,-0.277834,-0.032703,0.960072
0.149383,0.170709,0.415999,-0.500508,0.861527,-0.085222
-0.749095,-0.470758,0.486785,-0.071028,-0.995559,-0.061782
-0.607611,0.122793,0.669196,0.937991,-0.062025,0.341065
0.042684,-0.005524,0.816843,0.717226,-0.432326,-0.546518
-0.368069,-0.108022,-0.981781,-0.324938,0.044631,0.944682
-0.023000,-0.453405,0.161141,-0.460816,-0.104144,0.881364
-0.303164,0.255194,0.577396,0.420031,0.331984,0.844607
0.185103,-0.462892,0.648625,0.632504,0.655303,0.412938
-0.121134,0.100637,0.800823,-0.517254,-0.811797,-0.270986
0.849800,0.311216,-0.249870,-0.290390,0.952331,0.093482
0.411726,-0.329951,0.381179,0.319054,-0.017087,0.947582
-0.409317,-0.442116,0.455646,0.579252,0.608897,0.541951
-0.326900,0.571754,-0.114522,-0.617391,-0.783314,0.072439
0.614537,-0.287078,0.687152,0.027697,0.917351,0.397116
0.779524,0.615768,0.590233,-0.607857,-0.599794,-0.520343
-0.038408,0.306653,0.814283,-0.452718,-0.665925,-0.592951
-0.102068,0.223009,0.656400,-0.057532,-0.260894,0.963652
0.722011,-0.012069,0.385136,0.407864,-0.561530,-0.719952
-0.398345,0.253933,0.629120,0.630759,-0.170617,0.756989
0.236313,0.539150,0.746388,0.959649,0.260915,0.104866
0.345810,0.195929,0.721736,0.025070,-0.693300,0.720213
0.680220,-0.046295,0.575584,0.066864,0.771123,0.633166
-0.761160,0.665786,0.429182,-0.617988,-0.443993,0.648815
-0.273045,0.650654,0.779450,-0.390141,0.807933,-0.441626
0.723801,-0.400385,0.628207,0.838927,-0.452290,-0.302713
0.515157,0.784317,0.148248,-0.166600,0.837542,0.520353
-0.469163,0.231956,0.573412,-0.260709,-0.503445,0.823756
0.081363,0.042452,0.865897,0.436619,0.584818,0.683632
0.283395,0.193407,0.705468,0.644139,0.236931,0.727289
0.234289,0.202774,0.840014,0.908494,-0.376323,-0.181711
-0.144714,-0.441036,0.614138,-0.184144,0.918013,0.351203
-0.753688,0.265221,0.577921,0.917963,-0.259406,0.300088
0.313201,-0.342080,0.699561,0.309140,-0.669400,-0.675526
0.209542,0.622613,0.734186,-0.365598,0.929644,0.045819
-0.334837,-0.248289,0.319717,-0.171400,-0.833042,0.525988
0.750805,0.736459,0.666485,0.272009,0.958219,-0.088479
0.715788,0.688003,0.595214,0.342753,0.311113,-0.886413
-0.097475,-0.319923,0.403534,-0.665037,0.350286,-0.659565
0.220282,0.119190,0.907522,0.964661,0.206061,0.164220
0.512977,0.029723,0.803853,-0.719413,-0.694101,0.025860
0.282150,0.845202,0.462369,0.155323,0.572349,-0.805166
0.066424,-0.015972,0.890023,-0.359334,0.585639,0.726572
-0.454690,0.416056,0.430635,-0.091429,0.350869,0.931950
0.240982,0.575177,0.813924,0.840377,-0.466207,0.276439
-0.035449,-0.248108,0.570161,0.457506,0.307844,0.834218
0.213508,0.052480,0.350386,0.593947,0.697389,0.401093
0.417098,-0.434370,0.621968,0.307209,-0.739207,-0.599330
-0.363632,0.459890,0.573965,0.410558,-0.753849,0.512986
0.090312,-0.598776,0.452782,0.312320,0.175891,0.933551
0.767853,0.324426,-0.979429,-0.169850,0.061579,0.983544
-0.742483,0.329411,0.048743,0.619849,-0.008689,0.784673
0.277016,0.491233,0.784306,-0.684197,0.566390,-0.459430
0.507139,-0.021917,0.827785,0.797779,0.540350,-0.267528
-0.790501,0.029542,0.491212,0.895803,0.086878,-0.435878
0.288297,-0.246248,0.596223,0.136628,-0.607210,0.782706
0.167984,0.686742,0.661726,-0.002568,-0.680440,0.732799
-0.152261,0.054462,0.073201,0.214039,-0.974724,0.064033
0.445579,0.607362,0.598091,0.144893,0.545742,-0.825331
0.077938,-0.194968,0.717171,0.660813,0.506417,0.553957
0.540992,0.463492,0.515947,-0.570606,0.554238,-0.605994
0.024942,0.177675,-0.741338,-0.732272,-0.669385,-0.125301
0.264404,0.599136,0.802068,0.822649,0.551268,0.139112
0.470408,0.616969,0.590911,-0.633659,0.640964,-0.433176
-0.717968,0.095893,-0.988228,-0.329518,0.092016,0.939655
-0.535312,0.647112,0.565983,-0.670034,-0.530614,-0.519136
0.253746,0.664465,0.553394,-0.127239,0.083590,0.988343
-0.130549,-0.214483,0.454373,0.421527,-0.163857,-0.891889
-0.161215,-0.762700,0.490354,0.262302,0.512872,0.817410
0.268376,0.193647,0.875857,-0.632675,0.302118,-0.713055
0.074048,0.175873,0.834190,0.957750,0.133374,0.254805
-0.374296,-0.091750,0.729123,0.772448,0.338422,0.537396
-0.114285,-0.178696,0.758727,0.976951,-0.038877,0.209896
-0.043154,0.587186,0.659844,0.160838,0.599302,-0.784199
0.454219,-0.431008,0.363749,-0.208415,0.225240,0.951751
0.085800,0.160982,-0.046350,0.917524,0.393614,0.056726
0.019185,0.136303,0.740813,0.727819,-0.592698,0.344947
-0.603645,0.232497,0.561335,0.199156,-0.349172,0.915650
0.212810,-0.325328,0.183994,-0.692084,-0.030899,0.721156
-0.053894,0.024198,0.841632,-0.696127,-0.269704,-0.665333
0.466437,0.396541,0.672530,0.050738,-0.483593,0.873821
0.732128,-0.196290,0.212934,0.641023,0.436438,-0.631357
0.577492,0.659181,0.558886,-0.007938,0.953781,0.300398
-0.896649,-0.333674,0.430095,-0.345354,0.477608,0.807850
-0.214601,0.290441,-0.968708,-0.120840,-0.177157,0.976736
0.414139,-0.093491,0.789161,0.036056,0.531305,0.846413
-0.359276,-0.512790,0.660785,-0.124259,0.963148,0.238549
-0.219346,-0.520415,0.298924,0.023027,-0.601782,0.798328
0.461226,-0.167287,0.801764,0.726643,-0.175461,-0.664231
0.147906,0.087907,0.869466,0.465685,-0.853084,-0.235341
0.263939,0.253213,0.932035,0.959090,-0.279565,0.044610
0.133584,-0.561607,0.566108,-0.360945,-0.619020,-0.697519
-0.679056,0.397202,0.613073,0.481959,-0.771284,0.415736
-0.164250,-0.218146,0.437773,-0.415924,0.176602,0.892087
0.330715,0.457368,0.597123,0.864798,-0.405772,0.295758
-0.597883,0.545635,0.539838,-0.537083,-0.817002,0.209878
-0.139346,0.583824,0.448784,0.346246,0.175998,-0.921487
-0.189620,0.599856,0.762103,-0.537040,0.461509,-0.706115
0.240982,0.261198,0.819263,-0.833716,0.222127,0.505546
0.266898,0.055782,0.938952,-0.540293,-0.840582,-0.038787
-0.465971,-0.225052,0.399564,0.163525,-0.979882,-0.114414
0.156465,0.128558,0.947529,0.258157,0.711590,0.653448
0.584422,-0.045214,0.858454,0.894044,-0.375728,0.243956
-0.618275,0.671130,0.564254,-0.265435,0.385175,0.883846
0.058639,0.109523,0.577327,0.940075,-0.338139,-0.043841
-0.048835,0.387714,0.559634,0.980931,0.087999,0.173294
0.319039,0.547496,0.776407,0.963092,0.107286,-0.246869
-0.056853,-0.370962,0.408833,0.852765,-0.455565,0.255445
0.934939,-0.609823,0.440664,0.777592,0.560541,-0.284859
-0.693453,0.149874,0.565955,0.077303,0.479706,0.874017
0.112960,0.154557,0.507508,0.874773,-0.442127,-0.198230
-0.753921,-0.067611,0.703600,-0.551715,-0.592096,-0.587395
-0.570025,0.362075,0.671022,-0.359750,0.889638,-0.281290
-0.062377,0.005824,0.742390,-0.224864,0.124399,-0.966417
0.260671,0.204035,0.752723,0.083000,-0.996078,-0.030665
0.650570,0.651195,0.573439,0.267169,0.932073,0.244665
-0.243395,0.538789,0.758492,-0.695841,0.140975,-0.704224
-0.025412,-0.152215,0.789397,0.819154,0.439025,0.369113
-0.120432,0.094032,0.767235,-0.374008,-0.825151,0.423372
0.221916,0.121172,0.633145,0.470719,0.793065,0.386616
-0.293669,0.178215,0.656635,0.676893,-0.731989,0.077507
-0.085880,-0.738982,0.465482,0.438589,-0.824189,-0.358263
-0.236626,0.737300,0.226201,-0.273393,0.598097,0.753350
0.225416,0.365798,0.667757,-0.017511,0.628194,0.777859
-0.428930,0.012009,0.724863,-0.665873,0.124541,-0.735597
0.703177,-0.184040,0.594231,-0.077156,0.647664,0.758010
0.244872,0.051759,0.934000,0.296522,0.945842,0.132127
0.146115,0.498919,0.721031,-0.274999,0.832346,-0.481223
0.427135,-0.723550,0.402428,0.638331,-0.009109,-0.769708
-0.165414,0.155158,0.450721,-0.154000,-0.806724,-0.570509
0.020430,-0.126276,0.718388,-0.575653,-0.778685,-0.249547
-0.164094,0.889576,0.336566,0.557511,0.579514,0.594428
0.544807,-0.489732,0.292118,0.146496,0.056955,0.987570
-0.095998,0.286418,0.877918,-0.710361,0.278142,-0.646548
-0.070314,-0.424102,0.667135,0.266778,0.756665,0.596899
0.296239,-0.425844,0.713699,-0.142595,0.712644,0.686881
-0.488619,0.232196,0.691773,-0.079111,0.685407,0.723850
-0.776493,-0.454005,0.466146,-0.307179,0.794884,0.523260
0.854702,0.396901,0.553796,0.466996,-0.867446,0.171614
0.486130,0.255734,0.880450,0.986407,-0.018440,-0.163282
-0.120199,0.314639,0.882635,-0.757966,0.216958,-0.615156
0.314835,-0.386154,0.684205,0.373043,-0.858285,0.352399
0.153976,0.178695,-0.903967,0.636838,0.769393,0.049719
-0.348612,0.855470,0.477254,-0.057623,-0.565092,0.823013
0.215612,0.257956,0.837496,0.587518,0.755173,-0.290750
0.737809,0.790621,-0.967408,-0.120612,-0.010008,0.992649
0.453597,-0.088748,0.778551,0.106835,0.240085,0.964855
-0.039264,-0.196229,0.742362,0.382024,0.686102,0.619130
0.429861,-0.081543,0.776255,-0.071102,0.244732,-0.966980
0.605122,0.634202,0.592073,0.596893,0.617391,-0.512394
0.024629,0.459949,0.257147,0.591210,-0.081875,-0.802351
-0.347990,-0.670590,0.304776,-0.070028,-0.129914,0.989049
0.719911,-0.336496,0.614996,-0.393132,0.436765,0.809125
0.051789,0.146932,0.774110,0.812716,-0.452673,0.366850
-0.595941,0.907470,0.486744,0.221508,-0.556924,0.800481
-0.147982,-0.672512,0.431299,0.985608,0.095456,-0.139516
0.691349,0.540951,0.711970,0.640900,0.482599,-0.596946
