-0.930261,-0.441954,0.136935,0.429281,0.886400,-0.173244
-0.139812,-0.519109,0.620682,0.223064,0.361354,0.905354
0.059108,-0.618638,0.346678,0.737558,0.423821,-0.525722
-0.254653,-0.358748,0.651908,-0.751446,0.310048,0.582408
-0.233283,0.048252,0.636060,-0.177068,-0.177773,0.968010
0.115572,-0.070098,0.868515,0.858045,0.217246,0.465363
-0.197175,-0.760659,0.541861,0.764101,-0.152083,-0.626914
-0.622686,-0.197715,0.292835,-0.331305,0.081862,-0.939966
0.059671,0.083301,-0.814082,0.455267,-0.878130,0.147034
0.550138,-0.373583,0.589819,0.937606,-0.342078,-0.062273
0.005511,0.176973,0.003600,0.229805,-0.673328,0.702722
-0.688881,-0.533128,0.445851,-0.404754,0.406832,-0.818939
-0.705640,-0.442529,0.408982,0.340541,0.858823,0.382694
0.506102,0.782841,0.580152,0.203169,-0.757181,0.620805
0.281424,-0.143509,0.832262,0.494121,0.736125,-0.462563
0.331703,-0.815825,0.324006,0.421687,0.894063,-0.151098
-0.710927,0.133473,0.380773,0.226851,-0.428196,0.874750
-0.299927,-0.210822,0.259705,0.371633,0.051236,0.926965
-0.675440,0.140147,0.519632,-0.389525,-0.749917,0.534691
0.063665,0.567746,0.661775,-0.600672,0.745849,-0.287928
-0.512850,-0.268485,0.368063,0.475888,0.876506,0.072580
0.276476,-0.049308,0.472679,0.678658,0.730135,-0.079537
-0.381306,-0.313232,0.385331,-0.049953,0.729364,0.682300
0.087003,-0.124880,0.830372,0.777823,0.612938,0.138919
-0.426578,-1.000000,0.240962,-0.049828,0.509238,0.859182
0.420280,-0.342472,0.036702,-0.648260,-0.706394,-0.284195
-0.138462,-0.879010,0.547572,0.603466,0.786077,-0.133839
-0.299702,-0.329797,0.274131,-0.207561,0.611773,0.763317
0.428435,0.595113,0.525075,0.364412,0.308427,-0.878679
-0.330127,0.325908,0.651908,0.727175,0.602692,-0.328603
0.209494,-0.500096,0.432847,0.936358,-0.349669,-0.031061
-0.120522,-0.344008,0.613214,-0.774695,0.462799,-0.430889
-0.324053,-0.427405,0.689729,0.854103,0.458746,-0.245074
0.542602,0.293404,0.417629,-0.122800,-0.729843,0.672494
0.064732,0.353947,0.665020,0.898571,-0.184493,-0.398161
-0.138406,-0.162473,-0.807686,0.316783,-0.937005,0.147208
-0.258590,0.102603,0.692156,0.894424,0.342826,0.287186
0.816265,0.524343,0.475012,-0.397735,0.182310,0.899205
-0.388222,-0.459190,0.528038,0.619121,0.368676,-0.693374
0.520500,-0.767525,0.432270,-0.852977,0.074472,0.516609
-0.471233,-0.151431,0.590167,-0.692257,0.594115,-0.409643
0.457511,0.388756,0.573864,-0.309170,0.178372,0.934129
-0.419998,-0.080373,0.572765,-0.770481,0.498106,-0.397805
-0.190484,0.079316,0.644936,-0.500532,-0.172171,0.848425
0.101964,0.764212,0.611485,0.500646,-0.764350,0.406353
0.541589,0.567602,0.520020,-0.692145,0.666033,-0.278091
0.307407,-0.051662,0.714439,0.740589,-0.288572,0.606840
0.113099,0.047484,0.981981,-0.101249,-0.723113,0.683269
0.277600,-0.545468,0.378400,-0.522798,0.091028,0.847583
-0.600754,-0.256482,0.609541,-0.184674,0.913406,0.362746
0.019966,-0.791483,0.562588,0.826222,-0.470204,0.310267
-0.306113,0.156471,0.699570,0.883691,0.466143,0.042445
0.879871,0.474026,0.622787,0.340172,0.910917,0.233480
0.663236,-0.215911,0.529084,-0.677046,-0.733649,-0.058036
0.241101,0.134627,0.852145,-0.294646,0.191462,-0.936230
-0.397334,-0.250193,0.020506,0.403594,-0.777624,-0.482091
-0.597266,-0.092808,0.621728,-0.634032,0.704820,-0.318170
0.330859,-0.544555,0.425432,0.289090,0.442593,-0.848845
0.644959,0.287018,-0.815972,0.716437,-0.696788,0.034696
0.746583,0.461206,0.568809,-0.194880,0.522414,0.830124
0.026771,-0.419628,0.509120,-0.584790,-0.547765,-0.598309
0.274957,0.266036,-0.205540,0.878691,-0.470151,0.082825
-0.672064,-0.379058,0.291695,0.364176,0.032189,0.930774
-0.095833,0.207701,0.841754,-0.489717,-0.841608,0.227757
0.090659,-0.368206,0.484920,0.382520,-0.028492,0.923508
-0.192227,-0.558096,0.518814,-0.073159,-0.811842,0.579276
-0.526403,-0.802190,0.212525,0.527511,0.100378,-0.843597
0.184298,-0.184271,0.779518,-0.363588,0.764768,-0.531915
0.228277,-0.074276,0.725111,-0.579872,0.807095,-0.111112
0.083742,-0.521462,0.358517,-0.404161,-0.476145,0.780987
-0.555254,-0.327540,0.441709,0.830368,-0.237394,0.504116
-0.193521,0.443778,0.534715,0.269487,-0.046529,0.961879
-0.000168,0.585174,0.615695,0.794212,0.576633,-0.191629
-0.536303,-0.201124,0.569051,0.663936,-0.042465,-0.746583
0.361735,0.041963,0.756672,-0.354698,0.868716,-0.345720
0.051853,0.181294,0.840896,-0.256840,-0.899824,-0.352633
0.149430,0.316449,0.845280,0.784262,-0.536914,0.310895
0.638209,0.144230,0.556394,0.991194,0.023795,0.130265
-0.085202,0.166794,0.818774,0.025454,-0.580271,0.814025
0.313874,0.366190,0.485309,-0.330010,0.644010,-0.690177
-0.232663,-0.781785,0.531363,0.998440,-0.052107,-0.020050
0.162084,-0.533849,0.442272,-0.169628,-0.964095,0.204319
0.120354,0.790138,0.618899,-0.636061,-0.682616,-0.359809
0.051403,0.062176,0.107761,-0.525279,0.311977,-0.791677
-0.003431,-0.606252,0.336301,0.793506,0.343762,-0.502171
-0.316798,0.243951,0.702319,-0.663643,-0.690843,-0.286904
0.070695,-0.148310,0.897958,0.924344,0.362235,-0.119893
0.227716,-0.177742,0.775992,-0.607991,0.629783,-0.483445
0.528935,-0.001344,0.634250,-0.284386,-0.945257,0.160045
-0.514875,-0.669052,0.419707,0.915147,-0.113044,0.386946
-0.792475,-0.205540,0.632427,0.901005,-0.257571,0.349065
0.914010,0.406809,0.666950,-0.069752,-0.879405,0.470938
-0.008942,0.794988,0.640605,0.339960,0.613719,-0.712584
0.893313,0.462311,-0.962849,-0.341735,0.015150,0.939674
-0.213599,0.111004,0.673600,0.749173,0.390726,0.534858
0.888138,0.408536,0.635376,0.910366,0.377557,-0.169363
0.448288,0.237325,0.512566,-0.564024,0.784522,0.257686
0.191385,0.257970,0.415457,0.497192,-0.852052,0.163730
0.166133,0.756147,0.224230,0.035381,0.425477,0.904277
-0.270851,-0.714376,0.298345,0.251592,0.052129,-0.966429
0.150498,-0.344969,0.466365,0.675189,0.353862,0.647226
-0.526573,-0.848042,0.216789,-0.626790,-0.071876,0.775866
0.369215,-0.717016,0.430782,0.751472,0.429429,-0.500879
0.081099,0.885924,0.440582,0.261618,-0.564461,0.782905
0.209943,-0.538170,0.438236,0.755002,-0.302318,0.581873
0.133288,-0.147350,0.241377,0.075332,-0.150575,0.985724
0.175131,0.330181,0.307395,0.954342,-0.216506,0.205808
0.012711,0.048444,0.843926,-0.115138,0.993314,-0.008408
-0.611158,0.342327,0.407936,0.114686,-0.807773,0.578230
-0.402057,-0.154839,0.651130,0.919867,-0.362824,0.149009
-0.261458,-0.105243,0.736400,0.906052,0.405855,0.119800
-0.372307,-0.646438,0.326849,0.477376,0.414640,0.774716
-0.758787,-0.378385,0.501679,-0.488538,0.474043,-0.732539
-0.856362,-0.190561,0.315654,-0.024961,0.571543,0.820192
-0.589898,-0.030344,0.482360,0.092522,-0.800330,0.592378
-0.082223,-0.072114,0.775362,-0.528139,-0.602216,-0.598670
0.140207,0.349722,0.859184,0.666524,-0.743484,0.054566
0.685170,0.721386,0.549811,0.071103,-0.214784,0.974070
-0.241662,-0.706838,0.534192,0.021021,0.174911,0.984360
-0.602496,-0.768390,0.212244,0.486950,0.097167,-0.868008
-0.381587,-0.363645,0.665851,-0.538864,-0.742286,0.398293
0.453912,-0.039129,0.642000,-0.118105,-0.630284,0.767328
0.445588,-0.223066,-0.988993,-0.305474,0.026565,0.951830
-0.180304,0.654745,0.540225,-0.753852,0.456982,-0.472096
-0.662223,-0.337814,0.297245,0.347497,0.048394,0.936432
0.513356,-0.088438,-0.980345,0.349794,0.132394,-0.927424
0.068106,0.041866,0.835520,-0.093345,-0.273549,0.957318
-0.253642,-0.507203,0.579710,0.836527,-0.123857,0.533743
0.046680,-0.048973,0.950299,-0.794678,0.579626,0.180332
0.002532,-0.156520,0.844181,-0.357730,0.448451,0.819097
0.431190,-0.452373,0.495995,0.685539,0.067016,-0.724945
-0.909285,-0.336279,0.501867,0.128041,0.908150,-0.398583
-0.181710,-0.159017,0.813626,0.779814,0.363900,0.509379
0.392441,0.167899,0.696058,0.910339,0.268595,0.314863
-0.368427,-0.370992,0.199466,0.497359,-0.184458,0.847708
-0.298070,-0.397686,0.645110,0.432124,0.367711,0.823443
-0.208031,0.009075,0.782226,-0.322553,0.917351,0.233294
-0.183679,0.032984,0.682087,0.538443,0.253179,0.803728
-0.350148,0.419052,0.575969,-0.399159,-0.627034,0.668955
-0.022102,0.202372,0.583289,0.805837,-0.024552,-0.591628
0.087791,0.926349,0.393952,0.672573,0.678006,-0.296570
0.764918,0.322834,0.608642,0.317634,0.624110,-0.713859
-0.744558,-0.331237,0.485550,0.006001,0.811348,0.584532
0.154773,0.044747,-0.660877,-0.393532,0.903125,-0.171749
0.248749,-0.074900,0.847493,-0.081185,-0.682695,0.726179
0.117541,-0.601450,0.254959,0.063911,0.198341,0.978047
-0.959789,-0.196371,0.313187,0.474370,-0.733313,-0.487058
-0.347223,-0.429567,0.697921,0.556768,0.697561,-0.451018
-0.140318,0.457557,0.781448,0.905739,0.411804,0.100269
-0.158708,0.151478,-0.049828,-0.152865,-0.988102,-0.016921
-0.527248,0.074419,0.504602,0.517467,-0.189772,0.834395
-0.335638,-0.445602,0.671589,-0.736297,-0.143432,-0.661282
-0.749732,-0.382082,0.467290,0.878773,-0.476070,-0.033405
0.053204,-0.357980,0.592634,0.422945,0.528319,0.736204
-0.548901,0.110140,0.260912,0.378031,0.255368,0.889876
0.428322,-0.494384,0.468590,0.365922,-0.079368,-0.927255
0.054496,0.756338,0.628257,0.753881,0.656490,0.026165
-0.005849,0.299549,0.769918,0.795680,0.395768,0.458542
0.122434,-0.221961,0.778740,-0.200093,0.979624,-0.017314
-0.157865,-0.142260,0.666374,-0.199267,-0.795843,0.571775
0.079467,0.765940,0.399958,0.785527,-0.618670,0.013920
0.025870,-0.241454,0.810971,0.973703,-0.198087,-0.112530
0.226197,0.460245,0.624074,-0.392438,-0.636679,-0.663802
-0.089984,-0.784954,0.617263,0.690771,-0.721153,-0.052666
0.158540,-0.128433,0.792174,0.936446,0.129909,0.325871
-0.621449,-0.235548,0.229753,-0.677722,0.028468,-0.734767
-0.238794,-0.548541,0.185054,0.219705,0.232109,0.947552
0.284911,-0.087287,0.500781,0.568256,0.818995,0.079577
0.294303,-0.273383,0.743573,0.169856,0.865167,0.471843
0.086667,0.023238,0.094595,-0.573360,0.455337,-0.681121
-0.026882,-0.616287,0.276558,0.430408,-0.631266,0.645176
-0.154941,-0.146726,0.767143,0.309302,0.944749,-0.108544
0.120522,0.597945,0.680143,-0.232070,-0.960084,-0.156150
-0.651369,0.112973,0.512418,-0.252238,0.178902,0.950984
0.533097,0.603947,0.552010,0.905642,0.342322,-0.250257
-0.373601,0.216343,0.646008,-0.097979,-0.036037,0.994536
-0.050504,-0.181102,0.708634,0.827236,0.360680,0.430802
0.411844,-0.425054,0.472894,0.517167,0.341657,-0.784735
-0.695967,0.226809,0.522032,0.415384,-0.904007,-0.101133
-0.029301,0.789322,0.607650,0.769491,0.585258,-0.255649
0.723581,0.385683,-0.967246,0.260055,-0.039614,-0.964781
-0.023676,-0.013252,0.621500,0.712968,-0.701191,0.002842
-0.436140,0.265172,0.510555,0.053168,-0.513288,0.856568
-0.019966,0.105770,-0.953839,-0.375071,0.560179,0.738594
0.198470,0.372383,0.839180,0.571455,-0.815912,0.087904
-0.030650,0.207558,0.659912,0.077857,0.865200,0.495346
-0.891737,-0.352458,0.336770,-0.145052,0.029268,-0.988991
0.456499,-0.573220,0.478914,0.762622,0.036485,-0.645815
0.134301,0.101306,0.654321,0.936036,-0.346616,-0.060776
0.243631,-0.622913,0.389367,-0.103808,-0.581409,0.806962
0.132727,0.577157,0.340363,0.548333,-0.412099,0.727671
-0.384905,-0.328405,0.671241,0.937320,0.083961,-0.338203
-0.009616,-0.724602,0.239715,-0.547478,-0.049421,0.835359
0.872223,0.439168,0.660193,0.565366,-0.707907,-0.423355
0.890388,0.386548,0.602033,0.996312,0.076504,-0.038861
0.068106,-0.316978,0.692934,0.925717,-0.256763,-0.277707
0.149823,-0.205061,0.795633,0.449460,-0.891601,0.055085
0.295765,0.010754,0.544140,-0.666455,0.276505,0.692375
-0.824137,-0.091511,0.648864,0.771787,0.436743,0.462168
0.215511,0.085509,0.849839,-0.687833,0.237751,0.685828
-0.109442,-0.583350,0.618188,0.097545,-0.650889,0.752880
0.193803,-0.095977,0.776166,-0.497654,-0.122864,-0.858630
-0.243236,-0.457797,0.184665,-0.364507,0.284374,0.886716
0.600191,0.348185,0.434925,0.383898,0.448563,-0.807102
-0.453124,-0.209861,0.700375,0.942583,-0.146395,0.300177
0.398122,0.443105,0.450209,0.429181,-0.857201,0.284622
-0.024464,0.802430,0.606283,0.769491,0.585258,-0.255649
0.029751,-0.232667,0.680586,0.681085,-0.288369,0.673028
-0.327990,-0.669196,0.508048,0.996959,-0.035496,0.069379
-0.040886,-0.370848,0.505541,0.523076,0.508756,0.683783
-0.237443,-0.063808,0.272630,-0.027883,0.236179,0.971310
0.549744,-0.244911,0.533736,-0.693019,0.524994,0.494070
0.456274,-0.479308,0.465279,0.956038,-0.003244,-0.293224
-0.377988,-0.253649,0.539756,-0.145611,0.313808,0.938255
-0.225465,-0.387459,0.633915,0.403367,-0.042655,0.914043
0.185366,0.797965,0.225396,0.035381,0.425477,0.904277
0.061696,-0.352651,0.692357,0.913125,0.136351,0.384202
-0.011978,-0.718073,0.573690,-0.533128,-0.026233,-0.845628
-0.283336,-0.040426,0.797497,0.782590,0.131442,0.608503
0.646365,0.326532,0.540922,0.012374,0.843898,0.536361
0.083685,0.057326,0.971791,0.759480,0.650013,-0.025960
0.587087,-0.354811,0.493782,-0.015560,0.891914,0.451938
0.364435,0.427789,0.496665,-0.133999,-0.780596,0.610503
0.899612,0.444307,0.481810,0.553761,-0.711086,0.433249
0.495136,0.631363,0.268098,0.427137,0.175153,-0.887060
0.489062,0.143076,0.669216,-0.238827,-0.219218,0.945994
-0.366233,-0.653159,0.331890,0.733507,0.167135,0.658812
-0.137337,-0.418955,0.286962,-0.110056,0.560334,0.820923
-0.028063,0.797388,0.624664,0.420787,0.806179,-0.415948
-0.215679,-0.338103,0.263955,0.032052,0.463825,0.885347
0.101569,-0.334694,0.704866,-0.086535,-0.866095,0.492332
0.409089,-0.250528,-0.238884,-0.309902,-0.719628,0.621367
-0.396939,0.457750,-0.183498,0.636157,0.411147,0.652888
0.931331,0.484397,0.488688,-0.663746,0.549119,-0.507848
0.108206,-0.321442,0.828803,0.555728,-0.744613,-0.369753
0.423599,0.312368,0.741280,-0.686738,-0.051143,0.725104
-0.178899,-0.339784,0.357927,0.438278,0.709441,-0.551912
-0.365895,-0.257057,0.619328,-0.476389,-0.724767,0.497761
0.032395,0.615950,0.580876,0.877841,0.351102,-0.325763
0.046680,-0.544988,0.261167,0.563497,0.248913,0.787726
-0.271976,-0.585031,0.308575,0.520312,-0.040990,0.852992
-0.135988,-0.290667,0.099743,-0.242018,-0.004582,0.970261
0.308869,0.434320,-0.989743,-0.116530,-0.047959,0.992029
-0.133175,-0.089255,0.838000,-0.622564,0.781475,0.041357
-0.258478,-0.717112,0.580434,0.802555,0.408322,0.434947
0.596254,0.348042,0.587030,-0.486732,-0.390306,0.781507
0.119060,0.208469,0.886266,0.616817,0.511151,-0.598549
-0.217085,0.188832,0.346665,0.512233,0.593507,0.620779
-0.320679,0.055502,0.562763,-0.554332,0.179817,-0.812639
0.563354,-0.415115,0.607369,-0.795599,0.485788,0.361983
0.131265,-0.461110,0.585944,0.926840,-0.174291,0.332551
0.226703,-0.249377,0.799012,0.780570,-0.389171,-0.489138
-0.691580,-0.227290,0.559599,0.727768,0.583355,-0.360625
-0.530904,-0.466535,0.227246,-0.086125,-0.268717,0.959361
0.438951,-0.230892,0.577846,0.080573,-0.721908,-0.687282
0.104156,-0.018197,0.530009,-0.426679,-0.761743,-0.487537
-0.176031,-0.570723,0.552654,0.245029,0.572144,0.782696
0.267927,0.249183,0.117561,-0.864810,0.229661,0.446496
-0.429221,-0.291771,0.610881,0.455055,0.851894,-0.259232
-0.022046,-0.501585,0.455800,-0.059375,-0.862649,0.502306
0.284573,-0.400135,0.561677,0.282978,-0.651964,0.703467
-0.143860,-0.518245,0.182707,0.253820,0.078211,-0.964084
-0.368483,-0.494863,0.673145,0.406433,0.908154,0.100344
0.088971,0.778759,0.434884,0.281125,-0.262644,0.923031
0.345032,-0.159784,0.501170,-0.665499,0.468557,0.581004
0.333840,-0.724890,0.387476,0.637768,0.546071,-0.543193
-0.410720,-0.195555,0.652042,0.829810,-0.495772,-0.256175
0.026826,-0.062992,0.800701,0.832865,0.403906,-0.378413
-0.410888,0.297244,0.516816,0.072157,-0.780887,0.620491
-0.128676,-0.093480,0.851488,0.145896,-0.985133,0.090705
-0.728193,-0.293163,0.490337,0.031056,0.808011,0.588348
-0.002475,-0.360956,0.375959,-0.561410,0.031339,0.826944
0.225354,0.373967,0.673708,-0.039247,0.288992,0.956527
-0.042573,0.669531,0.403337,-0.039694,-0.904291,0.425066
-0.308869,-0.326387,0.539756,0.358367,-0.337264,-0.870532
0.303976,-0.141541,0.767411,-0.120303,0.588465,0.799522
-0.291322,-0.286873,0.542692,-0.343657,0.097195,0.934052
0.025252,0.452660,0.675518,0.815849,0.375179,-0.440035
0.098308,-0.099145,0.867711,0.465795,-0.769163,0.437518
-0.684719,0.218600,0.541727,0.815206,0.027769,0.578505
0.086778,0.518053,0.643126,0.978249,0.026506,0.205734
-0.301501,-0.470377,0.591856,0.771903,-0.631008,0.077429
0.068220,0.281880,0.341771,0.983656,-0.092644,0.154393
0.570047,-0.418764,0.637575,0.270631,0.943231,0.192546
-0.154435,0.172844,0.308508,-0.181284,-0.970187,-0.160851
-0.170181,-0.139764,0.552801,-0.378296,-0.523228,0.763626
-0.317191,0.217303,0.677153,-0.244976,-0.333561,0.910343
-0.401608,0.113645,0.615963,0.729535,0.591405,-0.343538
-0.152016,0.098521,0.495968,0.864013,0.274631,0.421970
-0.635002,-0.348185,0.292017,0.229394,0.420871,0.877636
0.330016,-0.168331,0.789292,0.922619,-0.344216,-0.174041
-0.787189,-0.196323,0.673091,-0.389467,-0.706330,-0.591113
0.299927,0.141636,0.517929,-0.529926,0.819350,0.218730
0.588100,0.229930,0.571397,-0.735601,-0.523682,0.429707
0.106687,-0.490398,0.597514,0.971638,-0.029799,0.234588
0.105618,0.706502,0.639077,0.812096,0.076412,0.578500
0.233002,-0.773430,0.258981,-0.464802,-0.345112,0.815388
-0.195995,0.445794,0.776702,0.999886,-0.014199,0.005172
-0.062763,0.270646,0.800648,0.961313,0.140212,-0.237102
0.056803,0.705492,0.641597,0.092388,0.995505,-0.020846
-0.163152,0.362829,0.734081,0.856981,-0.262526,0.443467
0.065970,-0.123632,0.845991,0.205250,0.935226,-0.288486
-0.738483,-0.273286,0.596804,0.866654,-0.498690,0.014783
0.232439,0.252353,0.786168,0.445363,-0.887279,0.119950
-0.523199,-0.457221,0.418005,0.995555,-0.038523,0.085941
0.321692,0.444018,-0.157931,0.944610,-0.314615,0.093432
0.264834,-0.847418,0.254088,-0.510528,-0.564883,0.648281
0.221474,-0.558336,-0.995938,-0.013611,-0.083342,0.996428
-0.359316,0.177789,0.675464,-0.628979,0.776048,0.046210
0.250942,-0.071203,0.548176,-0.517167,0.198171,0.832626
-0.343569,0.150615,0.350861,-0.193694,0.134209,-0.971839
0.172825,0.322882,0.830278,-0.671571,0.598173,-0.437243
0.858894,0.377617,0.626487,0.195146,0.430456,-0.881264
-0.180248,0.232284,0.254463,-0.108180,-0.807808,0.579433
0.337327,-0.125409,-0.991607,-0.060827,-0.162505,0.984831
-0.199764,0.219656,0.862924,0.544270,0.808735,0.222974
0.903154,0.496495,0.496625,-0.627786,0.612736,-0.480040
0.712614,0.031352,-0.976618,-0.053953,-0.037147,0.997852
0.828749,0.365517,0.624289,0.321184,0.582497,-0.746685
0.255947,-0.149846,0.849557,0.196145,-0.824543,0.530713
-0.143749,-0.456789,0.292191,0.096809,0.275886,0.956303
0.568865,-0.160889,-0.979728,-0.136983,-0.124336,0.982739
0.143524,-0.320626,0.708728,0.404074,-0.659260,0.634114
-0.421010,-0.382946,0.396379,-0.147639,0.606535,0.781228
-0.189078,-0.095593,0.842076,-0.681047,0.640515,-0.354846
-0.708565,0.127809,0.379392,-0.134400,0.482877,-0.865313
0.682527,0.317410,-0.824901,0.716437,-0.696788,0.034696
-0.111748,0.352074,0.796250,0.723159,0.683282,-0.100833
0.636635,0.546380,0.499829,-0.015665,-0.927978,0.372307
-0.381137,0.089976,0.744015,0.822844,-0.033607,0.567273
-0.335302,-0.472777,0.095466,-0.137128,-0.044867,0.989537
-0.270906,-0.379970,0.640739,-0.791335,-0.181084,-0.583950
0.464428,-0.464903,0.472009,0.739537,0.201467,-0.642259
0.570947,0.126417,0.677743,-0.068990,-0.058189,0.995919
-0.001912,0.898119,0.381416,0.791513,-0.037067,-0.610028
0.143356,0.307279,0.616821,0.735953,-0.405876,0.541883
-0.030425,0.770549,0.569145,0.534636,-0.676781,0.506095
0.800854,0.369791,0.617853,0.524123,0.521584,-0.673235
0.155279,0.722489,0.560095,0.090598,-0.991412,0.094311
-0.347730,0.223497,0.648824,-0.077179,-0.199298,0.976895
-0.144198,0.231035,0.776917,0.946510,0.122327,-0.298590
0.540802,0.259891,0.561503,0.101650,0.990401,0.093667
-0.077948,-0.068226,0.760332,0.454431,0.881479,0.128403
0.652157,0.684415,0.575513,-0.314544,-0.924091,0.217066
0.586919,0.333302,0.597876,0.509683,0.303788,-0.804945
-0.348461,0.430046,0.557279,-0.873604,0.209168,0.439392
0.594287,0.178462,-0.985480,0.017806,-0.096056,0.995217
-0.767841,0.228203,0.569882,0.500229,0.786494,-0.362212
-0.061244,0.426589,0.633674,0.780086,-0.468461,-0.414741
-0.481131,-0.746640,0.292647,0.423886,0.905286,-0.027896
0.070413,-0.513588,0.615386,0.030081,0.963156,0.267256
0.083853,-0.147302,0.816079,0.881383,-0.256915,0.396433
0.454305,-0.398359,0.575232,0.061212,-0.175109,0.982644
0.644564,0.691089,0.576344,0.580989,0.813879,-0.007294
0.299140,0.428702,0.495740,0.197681,-0.506180,0.839467
0.879703,0.332966,0.616472,-0.216556,-0.863997,0.454547
0.578145,0.530632,0.476956,0.325044,-0.877386,0.352902
0.155504,0.617198,0.617733,-0.445831,0.524091,-0.725647
0.600810,-0.033225,0.660086,0.567124,0.603219,-0.560801
0.077162,-0.463174,0.478753,-0.390455,0.716535,-0.578033
0.292053,-0.221337,0.668868,-0.838107,0.543114,0.051024
-0.283449,-0.517093,0.090157,-0.186949,-0.221868,0.956987
0.469040,-0.301950,-0.991460,-0.187189,-0.021596,0.982087
-0.028288,1.000000,0.377756,0.945733,-0.076081,-0.315912
-0.645633,-0.255570,0.459621,0.302784,0.273667,0.912923
-0.277825,0.109275,0.550495,0.431473,0.807650,0.401912
0.065014,-0.569042,0.260496,0.045658,0.088645,0.995016
-0.721556,-0.178174,0.599847,0.643481,0.622169,-0.445913
0.004387,-0.627569,0.483834,0.013267,-0.447795,0.894038
0.441370,-0.257106,0.595128,0.008178,0.844400,0.535651
-0.535740,-0.753553,0.359696,-0.574193,-0.363417,-0.733642
-0.792811,0.119838,0.507404,0.122014,0.247807,0.961095
0.046510,0.316832,0.738103,0.154584,-0.375642,0.913782
0.048535,0.019830,0.883437,0.803210,-0.583331,-0.120740
-0.376412,-0.518293,0.607302,-0.652508,-0.596956,-0.466773
-0.521905,-0.459431,0.433530,0.772429,-0.347978,0.531286
0.085484,0.071010,0.961561,0.812125,0.384884,0.438539
0.337889,-0.350538,0.399060,0.054642,0.571655,0.818673
0.614982,0.211926,0.562950,0.919042,0.224509,0.323970
-0.820820,0.220472,0.540225,-0.819390,0.422092,0.387863
-0.224285,-0.021078,0.708955,0.849137,0.449267,0.277716
-0.349923,-0.352027,0.531778,0.581703,0.226872,-0.781121
-0.611326,-0.115998,0.595289,0.441026,0.806130,0.394526
0.053204,0.044411,0.085599,-0.469749,0.520879,-0.712756
-0.023620,-0.421357,0.610251,-0.694202,0.427927,-0.578758
0.214444,0.123391,0.502671,-0.514839,0.825475,0.231371
-0.789044,-0.506146,0.469193,0.977361,-0.017723,0.210836
0.439346,-0.393509,0.476688,0.488331,0.142512,-0.860943
0.073674,0.866623,0.395159,0.633525,0.578096,-0.514249
0.523199,0.378528,0.563017,-0.313059,-0.460152,0.830816
-0.475170,0.141396,0.524713,-0.130218,0.318246,-0.939022
0.595073,0.434752,0.594028,-0.043149,-0.034311,0.998479
0.020359,-0.046476,0.557373,0.893386,-0.204107,-0.400253
-0.060683,-0.600682,0.408888,0.557965,-0.374763,-0.740424
-0.749621,0.208566,0.549516,0.283146,0.730985,-0.620877
0.040211,0.264020,0.883773,0.980109,-0.007523,0.198319
0.261347,0.221817,0.458401,0.851545,-0.497743,-0.164692
-0.408020,-0.136499,0.428261,-0.485032,0.712745,-0.506694
-0.219053,-0.489485,0.181018,-0.250272,0.108793,0.962044
-0.356503,-0.282792,0.620816,0.571181,0.426588,-0.701267
0.065238,0.071010,-0.256756,-0.145384,0.989374,-0.001286
0.170631,-0.544268,0.465359,0.199980,-0.558353,0.805140
-0.387605,-0.179710,0.282377,0.213010,-0.090958,0.972807
0.274564,0.345737,0.682154,0.712379,0.427652,0.556444
0.114392,0.087863,0.917318,-0.609656,0.686838,-0.395693
0.161971,0.723162,0.226241,0.035381,0.425477,0.904277
0.088354,0.129249,0.928848,0.171606,0.968760,-0.179038
-0.128338,0.403831,0.790726,0.903225,0.429128,-0.005849
-0.110792,-0.321299,0.625965,0.486064,-0.873140,-0.036991
0.171081,-0.265124,0.727283,-0.382216,0.923400,0.035253
0.355999,0.260178,-0.989086,-0.170308,0.097861,0.980520
-0.606771,0.027847,0.514751,0.363757,-0.370792,0.854514
0.122772,0.395285,0.693457,-0.740859,-0.224047,0.633191
-0.951633,-0.455253,0.325790,0.434568,-0.697207,0.570133
0.123672,-0.086518,0.915668,0.861965,0.428021,-0.271687
0.873629,0.458566,0.641101,-0.034477,0.873192,0.486155
-0.230527,-0.338535,0.650553,-0.433453,-0.163430,-0.886233
0.025702,0.216248,0.888063,0.697560,-0.322430,-0.639882
-0.126764,0.364845,0.723583,-0.541787,0.481576,-0.688877
0.056859,0.395957,0.754433,-0.092127,0.679856,0.727536
-0.083179,-0.769158,0.574239,0.325065,0.918982,0.223170
-0.159046,-0.431487,0.639023,0.402741,0.810538,0.425238
0.534278,-0.457605,0.492348,0.176461,0.039589,-0.983511
-0.644339,0.188832,0.529486,-0.551583,0.826827,-0.110059
0.202464,-0.146102,0.752113,0.399580,-0.016195,-0.916555
0.145661,-0.439265,0.462249,-0.654855,0.167047,-0.737062
-0.136269,0.310879,0.847318,0.162228,-0.939941,0.300323
-0.541026,-0.295468,0.245172,0.452968,-0.890762,-0.036917
-0.017940,-0.236269,0.710671,0.705290,0.598917,0.379293
0.039087,-0.490110,0.467920,-0.021819,-0.889102,0.457189
0.328440,0.385924,-0.153292,0.937193,-0.336552,0.091661
-0.278274,-0.715720,0.461592,0.774596,-0.222060,-0.592191
0.261909,-0.607740,0.421893,0.359102,0.653006,-0.666805
0.219673,-0.069090,0.857736,0.201302,0.860881,-0.467291
-0.416456,-0.510419,0.591320,0.810039,0.534943,0.240154
-0.728474,0.210101,0.551595,0.913238,-0.070550,0.401272
-0.274900,-0.480268,0.668533,0.706293,0.456191,0.541332
0.454643,0.068369,0.769570,0.341036,-0.934388,0.103018
-0.777514,-0.116141,0.506184,-0.571387,-0.055249,0.818819
0.174512,0.056991,0.886173,-0.000783,-0.804083,0.594516
0.369889,-0.207653,0.586695,0.800466,0.250123,-0.544694
0.069625,0.137315,0.849597,-0.695410,-0.591309,-0.408362
-0.095606,0.294075,0.771862,0.125285,0.252375,0.959484
0.504414,-0.375601,0.569279,-0.377492,0.279799,-0.882730
0.095102,0.238717,0.609634,-0.744530,0.410669,0.526333
-0.298013,0.190897,0.711824,0.912657,0.408471,-0.014434
0.472078,-0.454532,0.495016,-0.477374,-0.101268,0.872845
-0.122491,-0.910986,0.546822,0.394598,0.915417,-0.079399
0.512570,0.270549,0.764877,-0.300292,-0.682869,0.665969
-0.233338,0.010370,0.466887,-0.475013,0.726101,0.497131
0.231371,-0.089014,0.373586,-0.344169,-0.745564,-0.570686
-0.235981,0.276791,0.879911,0.990112,0.137081,0.029778
0.040999,-0.315153,0.767465,0.754235,-0.341873,-0.560582
-0.038356,-0.467736,0.516508,-0.675101,0.262854,-0.689308
-0.097069,-0.728779,0.511802,0.922346,0.291673,0.253385
-0.075136,0.301373,0.746683,0.122336,0.728815,0.673693
-0.649907,-0.221193,0.610989,0.168962,0.098618,0.980676
0.195997,-0.110764,0.846058,0.674170,0.733307,-0.088063
-0.056408,-0.512196,0.404892,-0.702102,-0.183895,-0.687921
-0.277262,0.264644,0.663679,0.200702,0.858055,-0.472716
0.169169,-0.126896,0.749794,0.144166,-0.683355,0.715711
-0.679770,-0.034137,0.513478,-0.433459,0.546077,-0.716877
0.397166,-0.114990,0.497188,0.044320,-0.927257,0.371793
0.348406,-0.125024,0.702734,-0.241149,0.062589,0.968468
0.114110,0.448819,0.638661,-0.351651,-0.301503,-0.886249
-0.791349,-0.500480,0.467437,0.995464,-0.060388,0.073511
-0.100949,0.239725,0.479289,0.409763,0.314286,0.856340
0.206401,0.243182,0.423609,0.849683,-0.506470,0.146720
0.074462,0.028039,-0.651425,-0.251903,0.962355,-0.102068
-0.613576,-0.384338,0.219054,-0.394480,-0.421611,0.816474
0.138181,0.063952,0.762316,0.262697,0.134053,0.955521
0.141274,0.449155,0.704665,-0.220257,-0.749365,0.624451
0.511444,0.763156,0.355741,0.317663,0.944464,-0.084129
0.545189,0.095593,-0.978495,0.144225,0.195342,0.970072
-0.136551,0.530007,0.514322,0.974387,0.211323,0.076892
-0.260727,0.113021,-0.788930,-0.275159,0.729617,-0.626057
-0.688542,-0.346697,0.496276,0.827484,-0.012391,0.561353
-0.351610,-0.438641,0.530585,0.694663,0.458343,-0.554405
-0.209323,-0.482427,0.180790,0.299300,-0.121047,-0.946450
-0.194364,-0.068466,0.212230,-0.185059,0.395393,-0.899676
0.259041,0.048973,0.787495,0.106214,0.975177,-0.194289
0.173724,0.049308,0.833281,-0.612538,0.746676,-0.259366
-0.008324,0.984060,0.377059,0.945733,-0.076081,-0.315912
-0.432427,-0.664154,0.096432,-0.214823,-0.017514,-0.976496
0.082223,0.794412,0.394408,0.891460,-0.404897,-0.203365
-0.333163,0.482572,0.563969,-0.663381,0.545096,-0.512636
0.165965,-0.063905,0.848083,-0.556077,-0.824879,0.101749
0.268038,-0.201028,0.656171,-0.838107,0.543114,0.051024
-0.335132,-0.030776,0.802913,-0.530135,-0.773490,-0.347376
-0.055395,0.071298,0.913215,0.122119,-0.976909,-0.175317
0.123447,0.401047,0.757463,-0.341682,0.251037,0.905668
-0.455093,-0.070194,0.591897,-0.678641,0.467640,-0.566356
0.020416,-0.304975,0.729938,-0.523984,-0.295576,-0.798796
0.017829,-0.166604,0.829956,-0.347699,0.765019,0.542081
-0.562284,-0.528375,0.419278,0.466334,0.110257,0.877711
0.082841,-0.075716,0.903428,0.738957,0.553797,0.383734
-0.275968,-0.451220,0.295503,0.033978,0.461789,0.886339
0.471683,-0.279768,0.388093,-0.138844,0.652923,0.744590
-0.144423,-0.499280,0.419801,0.600852,0.257466,-0.756762
-0.387323,-0.021413,-0.961508,0.247185,-0.222960,0.942968
0.250886,-0.228730,0.724307,0.283873,-0.746856,-0.601350
-0.662561,-0.211974,0.612034,0.962049,-0.181281,-0.203960
0.148417,0.036633,-0.434348,0.182250,0.966863,0.178775
0.629492,0.196947,0.676939,0.251024,0.019692,-0.967781
0.084698,0.030728,0.689984,0.011351,0.970413,0.241185
0.087847,-0.245199,-0.284147,0.934167,-0.337608,0.115553
-0.568022,-0.271462,0.629517,0.079007,0.927711,0.364843
0.236994,-0.017333,0.540091,0.364610,0.918946,0.150327
0.449300,0.482380,0.513102,-0.448497,0.778824,-0.438502
0.029358,0.082005,0.969981,-0.093335,0.919162,-0.382661
-0.170293,-0.427694,0.630965,0.062457,-0.187589,-0.980260
0.054891,-0.582870,0.490203,-0.120128,0.411379,-0.903514
-0.272257,-0.344200,0.643193,0.933483,-0.352218,0.067472
0.263034,0.289467,0.418970,0.508110,-0.835727,0.208288
0.091165,0.004752,0.170869,0.942700,-0.282603,0.177345
-0.003261,-0.369935,0.758804,-0.650572,0.532944,0.541042
-0.681851,-0.185855,0.608830,0.873766,-0.361762,-0.325056
0.264721,0.219561,-0.998887,-0.140434,0.007964,0.990058
-0.180697,-0.806848,0.504441,0.444829,-0.886177,-0.129685
0.044598,0.847850,0.642134,-0.281275,-0.612773,0.738508
0.550870,0.140917,0.679097,-0.117415,-0.001574,0.993082
0.195490,-0.307663,0.578530,0.508219,-0.041819,0.860212
0.153197,0.503890,-0.993551,0.006080,0.192765,0.981226
0.672123,0.376224,-0.974111,-0.282739,-0.047400,0.958025
-0.711826,-0.212023,0.302635,0.402808,-0.010758,0.915221
0.036556,-0.273575,0.678829,-0.682510,-0.465263,-0.563658
0.801585,0.380690,0.469314,-0.179421,-0.621553,0.762548
-0.093133,-0.051757,0.855792,0.882435,-0.325620,0.339529
0.436646,0.568802,0.525544,0.533116,-0.113406,-0.838407
0.164389,0.531641,0.080196,0.925826,0.374693,-0.049512
-0.561835,0.379682,0.537477,-0.381991,0.336646,-0.860670
0.037119,-0.159784,0.568474,0.111214,0.121832,0.986300
0.100220,-0.085126,-0.991835,0.418273,-0.215178,0.882466
0.113267,-0.280104,0.339773,0.584691,0.032702,0.810597
0.292110,0.297484,-0.156509,0.900017,-0.424158,0.100299
0.003824,0.110428,0.913094,-0.227129,0.884220,-0.408126
0.237952,0.159113,0.850335,0.050035,0.721446,0.690661
0.011249,-0.001441,0.883625,-0.236278,-0.454894,-0.858630
0.145886,-0.280680,0.807794,0.840755,-0.441379,-0.313554
-0.041505,0.277272,0.535693,0.519306,0.200648,-0.830700
-0.004498,-0.110956,0.662084,0.183354,-0.540478,0.821136
-0.627186,-0.111245,0.629625,-0.741019,0.631254,-0.228930
0.030370,-0.355532,0.587432,0.431480,0.734491,0.523782
0.232664,-0.079172,-0.218666,0.787431,0.607008,-0.107212
0.310724,0.319810,-0.992331,-0.135836,-0.028875,0.990310
-0.227321,-0.019301,0.519672,0.200378,-0.967582,0.153735
-0.761655,-0.288075,0.484370,0.127119,0.839734,0.527909
-0.628029,-0.270406,0.631113,0.193117,0.953714,0.230513
-0.544850,-0.125601,0.522863,0.132684,0.364066,0.921874
0.388054,0.403256,0.243938,-0.333322,-0.143340,0.931853
0.424274,0.297100,0.743640,0.800983,0.186984,-0.568738
-0.201056,0.262723,0.846675,0.992892,0.007655,0.118771
-0.547325,-0.630498,0.415605,0.635362,0.060008,-0.769879
-0.399189,-0.000480,0.640109,0.343975,0.087486,0.934894
-0.061975,-0.165402,0.793354,-0.245266,0.853136,-0.460439
-0.641583,-0.042683,0.506452,-0.562202,0.769440,-0.303136
0.370227,0.220569,0.754862,-0.156416,0.933938,-0.321394
-0.184298,-0.491887,0.187990,0.306070,-0.115330,-0.944997
-0.041617,-0.145910,0.766191,0.742051,0.566280,0.358730
0.079805,0.745439,0.423998,0.186556,-0.733572,0.653506
0.259773,-0.113837,0.855644,-0.076805,-0.500184,0.862506
-0.090940,0.270789,0.820826,0.455935,-0.684850,0.568422
-0.106744,0.361725,0.796719,0.723159,0.683282,-0.100833
-0.114391,0.156952,0.784706,0.949625,-0.094741,-0.298725
-0.469208,0.064097,0.590046,0.802599,0.577051,0.151151
-0.120409,-0.326052,0.616311,-0.753989,0.564633,-0.335692
-0.274337,-0.471864,0.674338,-0.353932,-0.817525,-0.454296
-0.494685,-0.643893,0.395695,-0.684509,-0.279462,-0.673311
-0.127102,0.557567,0.529687,0.880096,0.359122,0.310584
0.189866,0.483052,0.715217,0.193385,-0.876329,0.441191
0.308420,0.176973,0.835426,-0.684443,0.294240,0.667054
-0.244249,-0.499904,0.684407,0.849365,0.504640,-0.154651
0.487600,0.015028,0.648462,0.106946,-0.678012,0.727230
-0.057702,-0.335174,0.439108,0.906019,-0.319110,-0.278025
0.106238,-0.026696,0.527300,-0.426679,-0.761743,-0.487537
-0.017997,-0.352266,0.808612,0.473239,-0.865817,-0.162500
0.485913,0.261091,0.739993,-0.322683,-0.415186,0.850586
0.320961,-0.112733,0.761968,0.096023,0.512626,0.853226
-0.603903,-0.404696,0.447286,-0.460949,0.268564,-0.845813
-0.366853,0.458421,0.477157,-0.153512,0.915368,-0.372202
-0.156571,-0.535482,0.098081,0.094642,-0.223660,0.970061
0.045836,-0.234445,0.724763,-0.679931,-0.536023,-0.500373
0.054834,0.523382,0.362928,-0.437571,0.341372,-0.831863
-0.334289,0.235548,0.643247,0.086441,0.094613,0.991754
0.604353,-0.347945,0.494185,-0.008880,0.885071,0.465371
-0.157865,0.229451,0.859921,0.521994,0.847706,0.094428
0.028458,0.300076,0.805219,0.715162,0.515429,-0.472098
0.624655,0.734589,0.557856,0.744265,0.116378,0.657667
0.005118,-0.368159,0.778030,0.831483,-0.264416,-0.488590
0.872336,0.416794,-0.960207,0.200464,-0.082039,-0.976260
0.038131,-0.468073,0.594967,-0.346256,-0.431710,0.832906
0.173669,-0.386883,0.458441,-0.641495,0.193014,-0.742448
0.553399,0.342184,-0.984059,-0.237227,-0.029446,0.971008
0.506326,-0.126272,0.515556,-0.480794,-0.728727,-0.487642
0.292110,-0.272565,0.757208,0.082314,0.979886,0.181789
-0.574039,-0.459815,0.221682,-0.424652,-0.431707,0.795801
0.607278,0.311024,0.550629,-0.642857,-0.473381,-0.602201
-0.069512,0.169196,0.771607,0.573832,0.608739,-0.547863
-0.273156,-0.560833,0.514577,-0.477664,-0.852630,-0.211797
-0.183286,-0.400519,0.094166,0.158343,-0.182141,0.970439
0.817221,0.519541,-0.967876,0.251917,-0.081184,-0.964338
0.029414,-0.142309,0.247129,0.155061,-0.064955,0.985767
-0.053597,0.096456,0.874589,0.856454,0.503546,0.113703
0.607278,0.199539,0.562293,0.914561,0.154737,0.373676
-0.178168,0.301325,0.736454,0.854274,0.517571,-0.048336
0.258254,0.470569,0.687624,0.810500,-0.370143,0.453964
-0.087396,-0.359756,0.371052,0.450273,-0.061013,-0.890804
-0.321691,-0.673565,0.529124,0.858639,0.248077,-0.448550
0.358924,-0.474458,-0.997466,-0.096764,-0.083460,0.991802
-0.717620,-0.314145,0.482775,-0.483200,0.787390,0.382799
0.105563,0.389091,0.312543,0.737417,0.647044,-0.193779
0.755920,0.373872,0.467665,0.365872,0.630023,-0.684989
-0.373601,-0.234732,0.646746,-0.180535,-0.014040,0.983468
0.398009,-0.148167,0.708017,-0.155235,0.463821,0.872223
-0.107811,0.309199,0.776220,0.099577,-0.594584,0.797843
0.231878,-0.111677,0.864131,-0.646014,0.763287,0.007617
0.314156,-0.157433,-0.997184,0.017695,-0.151825,0.988249
-0.296553,-0.473306,0.686592,0.521779,0.807995,-0.273663
0.121197,0.245438,0.313790,0.987516,-0.121032,0.100813
-0.224396,-0.295804,0.023644,0.437321,-0.785304,-0.438234
0.045273,0.021654,0.085840,-0.590658,0.580956,-0.560011
0.449750,-0.578692,0.487267,-0.645309,0.004249,0.763910
-0.067768,0.378290,0.562629,0.813474,0.157539,-0.559858
-0.456049,-0.161465,0.690266,-0.600190,-0.674134,-0.430483
0.281873,-0.209239,-0.999061,-0.039175,-0.048968,0.998032
-0.559811,0.334213,0.398242,0.322465,-0.758071,0.566873
-0.389630,0.327060,0.513893,-0.148011,-0.730881,0.666263
0.667623,0.354811,0.590221,-0.603933,0.277851,0.747037
-0.969687,-0.422701,0.130017,-0.217843,-0.969904,0.108773
0.069850,0.937680,0.441199,0.221438,0.938032,0.266574
-0.902704,-0.357116,0.486114,0.878815,0.333540,0.341227
0.103200,-0.255617,0.666293,0.287236,0.310705,0.906067
-0.588492,-0.778137,0.213544,0.486950,0.097167,-0.868008
0.932906,0.469224,0.475964,-0.646258,0.538374,-0.540837
0.308138,0.256770,0.044184,0.792511,-0.544308,0.275055
-0.614532,-0.848137,0.097116,-0.337537,0.188240,0.922299
-0.353467,-0.144949,0.635296,0.578393,-0.290354,-0.762336
-0.515606,-0.560784,0.414009,-0.584083,0.009676,-0.811636
-0.665541,-0.250769,0.593827,-0.482351,0.872543,0.077503
-0.265227,-0.507538,0.677797,0.749129,0.662381,-0.007536
0.280806,-0.276647,0.743975,-0.194914,-0.943529,-0.267883
0.289410,0.415739,0.496598,0.309296,-0.232751,0.922043
-0.175075,-0.651383,0.561744,0.276058,0.537903,0.796525
0.112311,-0.274918,0.798020,0.729462,-0.374440,-0.572434
0.071930,0.035049,-0.417294,-0.192745,-0.952556,-0.235556
-0.348236,-0.560496,0.314165,0.153622,0.569037,0.807835
0.241101,0.426302,0.671241,0.970664,0.113111,0.212171
-0.239582,-0.250480,0.621996,0.522857,0.264836,0.810236
0.006580,0.623776,0.362499,-0.695029,0.619928,-0.364175
-0.214780,-0.159160,0.771594,0.182420,0.966440,0.180875
0.212643,0.478874,0.687745,0.070206,0.962035,-0.263743
0.661549,-0.266372,0.407936,0.138361,0.040387,-0.989558
-0.406276,-0.026071,0.647349,0.135245,0.225996,0.964694
0.713065,0.741455,0.551474,0.130415,-0.599321,0.789814
-0.398908,-0.541339,0.614367,-0.502550,-0.778036,-0.376966
0.067995,0.032552,0.461994,-0.606935,0.743140,-0.281730
-0.513131,-0.037594,0.475937,0.027655,-0.658709,0.751889
-0.409875,-0.180431,0.270873,0.236978,-0.091568,0.967190
-0.271244,-0.293836,0.649534,0.299864,-0.154327,0.941417
0.081042,-0.057807,0.881480,0.918790,0.059355,0.390259
-0.239525,-0.635348,0.568434,0.296027,0.954934,0.021659
-0.282943,0.178654,0.720084,0.240448,0.910854,0.335456
-0.404700,-0.618783,0.096995,-0.142570,-0.107831,-0.983893
0.278949,-0.150710,0.563460,0.075981,0.649168,0.756840
0.071594,0.686625,0.625723,-0.298940,0.811651,0.501854
-0.234407,-0.100874,0.659376,-0.225272,-0.974226,-0.011656
-0.837748,0.122383,0.368492,0.458205,0.627508,-0.629509
-0.309655,-0.029912,0.228989,0.558431,-0.428515,0.710303
0.524548,-0.369167,0.493139,0.525315,-0.498599,-0.689523
-0.153365,0.464807,0.795660,0.875945,0.482374,0.005938
-0.137618,-0.496111,-0.053823,0.801648,-0.353673,0.481951
0.215286,0.439505,0.499387,-0.199348,0.561228,-0.803296
0.623025,0.791148,0.365113,0.806349,-0.336459,-0.486412
-0.067318,-0.109901,0.752918,-0.087809,0.963214,0.253985
-0.125302,-0.243662,0.097236,-0.273490,0.107679,0.955828
0.147573,-0.336614,0.474932,0.593745,0.385236,0.706442
-0.109666,0.251969,0.814229,0.253760,-0.723287,0.642232
0.723469,0.245487,0.560363,-0.282441,-0.551073,0.785204
0.267252,-0.621856,0.416114,0.148058,0.707789,-0.690734
0.591192,-0.194594,0.564680,0.956315,0.225609,-0.185910
0.379056,-0.320482,0.458092,0.414987,0.448032,-0.791867
-0.545751,0.090022,0.612276,-0.175556,0.952121,-0.250290
-0.362745,0.227866,0.695012,0.021724,-0.841539,0.539760
-0.009730,0.329076,0.895826,0.920730,0.221615,0.321159
-0.052191,-0.388899,0.375142,-0.027101,0.448520,0.893362
0.427310,-0.015317,0.736802,0.150416,-0.908348,0.390230
0.485856,-0.313760,0.607757,0.060492,0.318976,0.945830
0.408188,0.213847,0.572711,-0.712780,0.667178,0.216374
-0.281762,-0.555215,0.545306,0.781229,0.282633,0.556596
0.297566,0.326435,0.458870,0.953013,-0.289019,0.090745
-0.766998,0.239725,0.578851,0.500229,0.786494,-0.362212
-0.001124,0.360813,0.560430,-0.707484,0.108827,0.698300
0.479219,0.430431,0.457435,-0.287111,0.751993,-0.593358
-0.267307,-0.794507,0.299914,-0.588456,-0.265041,-0.763854
-0.011698,-0.072595,0.869722,0.413780,0.490218,-0.767120
0.097913,-0.083013,0.890583,0.979707,0.156972,-0.124637
0.117205,0.077827,0.298372,0.967680,0.231197,-0.100719
-0.040549,0.756001,0.600142,-0.612497,-0.337126,0.714978
0.395872,-0.656569,0.437981,0.767874,0.092639,-0.633867
-0.128620,-0.160602,0.776743,0.002954,-0.997545,0.069960
0.027839,0.182399,0.882767,-0.568271,-0.732062,0.375704
-0.246106,0.338822,-0.157260,0.558641,0.588373,0.584584
0.395872,0.052573,0.752408,-0.095474,-0.901072,0.423030
-0.198526,0.333494,0.549101,-0.047713,0.211586,0.976194
-0.091390,0.267380,0.550053,-0.735871,0.255483,0.627075
0.509026,-0.392693,0.573220,-0.779636,0.597672,0.186967
0.544346,0.651191,0.559371,0.912824,-0.283902,0.293515
0.116529,0.227914,0.900719,0.697173,0.683022,-0.217787
-0.087114,-0.094921,0.807204,-0.534369,0.820710,-0.202199
0.253079,0.142885,0.850456,-0.603174,0.797427,0.017069
-0.349755,-0.031496,0.639104,0.119690,0.222554,0.967545
0.158878,0.108604,0.962272,0.964445,-0.225805,0.137323
-0.389291,-0.386211,0.584791,0.855498,0.150795,0.495362
-0.424723,0.535001,0.621862,-0.227368,0.906834,-0.354904
-0.169112,-0.779240,0.571544,0.103608,0.951319,0.290272
0.078792,-0.333110,0.742929,0.308928,-0.948396,0.071472
0.076767,0.087095,0.693202,0.947236,0.320272,-0.013058
-0.136605,0.358748,0.742849,0.508319,-0.203079,0.836882
0.074912,-0.319378,0.811011,-0.051311,0.902822,0.426942
0.395198,0.436720,0.500982,-0.162237,-0.611324,0.774572
-0.361283,-0.271943,0.643783,0.137515,-0.174165,0.975067
-0.789044,-0.027175,0.504709,0.858824,0.487681,0.156805
0.521849,0.304686,0.525879,-0.654961,0.755267,0.024442
-0.236263,0.147589,0.660998,0.878097,0.477199,-0.035039
0.683202,0.784185,0.595731,-0.438652,0.684086,-0.582761
-0.035093,-0.782601,0.619824,-0.496881,0.855887,0.143408
0.458749,-0.593097,0.478605,0.726686,0.254638,-0.638033
-0.139643,-0.373488,0.626300,0.994555,-0.083818,0.061930
-0.136776,0.263012,0.770669,-0.427730,-0.048176,0.902622
-0.332039,0.123967,0.648020,0.882339,0.309430,0.354586
0.068331,0.098185,0.846782,0.762014,-0.069035,0.643870
0.127720,0.380882,0.690293,0.442005,0.164200,-0.881856
-0.677014,-0.439408,0.291038,-0.205614,-0.307487,0.929072
-0.619762,-0.463992,0.055526,0.004925,0.778329,0.627837
-0.557505,-0.062081,0.625683,-0.630509,0.641575,-0.436852
-0.106968,0.787690,0.447675,0.210028,-0.255808,0.943637
0.595917,-0.241838,0.553579,-0.745580,0.037306,0.665371
-0.328833,-0.095401,0.219792,-0.357890,0.426099,-0.830875
0.915922,0.390196,0.444484,0.490056,-0.682294,0.542513
-0.112929,-0.471145,0.280728,-0.235796,-0.112007,-0.965326
-0.663236,-0.102171,0.599914,0.700414,0.708947,0.082547
-0.529666,-0.460582,0.438330,-0.622173,0.565279,-0.541627
0.144255,0.094680,-0.813210,-0.556235,0.828798,-0.060808
0.431978,0.059871,0.763215,0.438979,-0.894505,0.084610
-0.093751,-0.237804,0.098845,-0.064530,0.128111,0.989658
0.562793,-0.001969,0.316364,0.741414,0.388132,0.547412
0.530736,-0.376801,0.495726,-0.303422,0.474260,0.826446
0.322366,0.711734,0.120994,0.985114,0.171442,0.012580
0.037963,0.752305,0.434241,-0.428250,0.477803,-0.767011
0.341714,-0.021318,0.763510,-0.916545,0.356595,-0.181064
-0.961138,-0.230267,0.302085,0.863022,-0.320639,-0.390365
-0.261008,-0.102843,0.725057,0.896371,0.203087,0.394048
0.627298,0.248175,0.549744,-0.924045,0.245586,-0.292965
-0.563354,-0.143797,0.575245,0.558789,0.382282,-0.735945
-0.064282,-0.584310,0.557641,0.218867,0.477271,0.851064
-0.586580,-0.603371,0.401179,0.236272,0.954751,-0.180629
0.249367,-0.210293,0.796022,-0.439049,0.728675,0.525613
-0.030931,0.464135,0.618778,0.711457,-0.680789,-0.174226
-0.126989,0.324563,0.744150,-0.103810,-0.163733,0.981028
-0.876835,-0.356732,0.494144,0.567535,0.672687,-0.474760
-0.137675,-0.399607,0.564050,0.365662,0.491245,0.790550
-0.226027,-0.684272,0.426813,-0.472965,-0.777620,-0.414260
-0.243124,-0.659209,0.459540,-0.713629,0.558612,0.422714
-0.016310,0.311168,0.840789,0.442357,0.895966,0.039558
-0.749114,0.076868,0.523841,0.012411,0.508333,0.861071
0.941960,0.457605,0.480938,-0.659407,0.574350,-0.485081
-0.127382,-0.622913,0.570123,-0.099869,0.445438,0.889725
0.104156,-0.110045,0.836405,0.661142,-0.625674,-0.414032
0.318711,0.170971,0.387852,-0.120373,-0.387878,0.913817
0.204264,0.585223,0.337186,-0.653589,0.342918,-0.674706
0.503965,0.656088,0.567777,-0.703468,0.285239,-0.650977
-0.627411,0.079892,0.519350,-0.173184,-0.286730,0.942228
-0.408413,0.288602,0.639224,-0.101887,-0.177316,0.978866
0.489062,0.575716,0.498488,0.668246,0.157335,-0.727112
0.361060,0.168042,-0.989435,-0.332823,-0.041242,0.942087
0.238007,-0.229787,0.808799,-0.635224,-0.771722,0.030591
-0.482761,0.071923,0.566919,0.915486,0.314617,0.250803
0.076655,0.108172,0.927802,0.508517,0.628977,-0.588046
0.278218,-0.273910,0.761646,0.991595,0.081029,0.100865
-0.250436,-0.488237,0.646290,0.059384,0.974644,-0.215739
-0.120409,-0.158249,0.795700,-0.344549,-0.901735,-0.261073
-0.118553,-0.635635,0.568541,0.608324,0.550300,-0.571936
-0.498059,0.030055,0.493380,-0.368431,0.727680,-0.578567
-0.428209,0.379441,0.518050,-0.568994,0.152699,-0.808040
-0.128565,-0.352122,0.616030,0.804070,-0.398902,0.440850
-0.134807,-0.076484,0.820973,-0.667515,0.708205,-0.229932
0.090266,-0.787786,0.250830,0.246245,0.319136,-0.915159
-0.105899,-0.793356,0.518800,0.254404,0.362267,0.896684
0.502446,0.084358,0.755800,0.591596,0.553875,-0.585864
0.132727,0.086230,0.091471,-0.676420,0.642326,-0.360380
0.088072,0.039946,0.262333,0.948058,0.241677,-0.206830
0.406614,-0.495343,0.464045,-0.437528,0.158034,0.885209
0.366178,-0.378193,-0.996890,-0.339387,-0.119353,0.933044
-0.304033,0.127088,0.570713,0.614623,0.486143,0.621211
-0.022777,-0.705541,0.242115,0.564550,-0.007611,-0.825364
0.362298,-0.148694,0.589014,0.748628,0.202479,-0.631314
0.170745,0.892309,0.426827,0.451839,-0.664283,0.595458
0.473370,-0.330948,0.601617,0.529885,0.069954,-0.845179
-0.853663,-0.014788,0.579079,0.920097,-0.070539,0.385286
0.175693,-0.331334,0.455625,-0.541832,0.173787,-0.822324
0.858331,0.450308,0.498435,0.177110,-0.732307,0.657539
0.259097,0.265796,0.470280,0.941284,-0.206991,-0.266718
-0.326978,-0.617055,0.563446,-0.688422,-0.684409,0.240122
-0.094371,-0.007394,0.875889,0.370210,-0.318431,0.872666
0.523031,-0.174525,0.534366,-0.251831,0.817493,0.517963
-0.293458,-0.329508,0.597085,0.298462,0.859837,-0.414247
0.667623,0.663914,0.542169,-0.206580,0.586090,-0.783469
-0.366683,0.256722,0.702895,0.590800,-0.671960,0.446570
-0.112030,-0.799790,0.485309,0.320932,0.935970,0.144787
0.327598,0.031592,0.757959,0.999782,-0.011695,-0.017286
0.072607,0.043739,-0.422040,0.328752,0.911070,0.248743
-0.397952,0.192242,0.651867,0.094375,0.183289,0.978519
-0.457679,-0.439600,0.410845,-0.491681,0.176489,-0.852702
-0.124627,-0.026502,0.874012,0.279181,-0.642809,0.713340
-0.377988,0.296139,0.517808,-0.099130,-0.611861,0.784729
-0.770879,-0.446995,0.442902,-0.392468,0.294604,-0.871308
-0.618974,-0.104811,0.626796,-0.725298,0.656804,-0.206281
-0.183847,-0.466248,0.658236,0.280461,-0.038358,-0.959099
-0.368765,0.030247,0.634478,-0.500322,-0.125383,0.856713
0.109219,0.085461,-0.019715,-0.643614,0.763942,-0.046416
0.029639,0.086134,0.970491,-0.076519,0.891992,-0.445528
0.502109,-0.168523,0.484907,0.060632,0.226445,-0.972135
-0.312636,-0.037258,0.789895,0.104857,0.908181,0.405231
0.135200,-0.549022,0.375530,0.500594,-0.289172,-0.815956
0.261909,-0.111820,0.742085,0.338676,-0.655397,-0.675095
-0.337214,-0.075956,0.414371,-0.478006,0.344606,-0.807933
0.588719,0.019541,-0.979393,-0.042630,0.085086,0.995461
0.579101,-0.000240,0.668626,-0.310955,-0.394775,0.864558
-0.265170,-0.238525,0.667125,-0.711139,-0.358463,-0.604802
0.057645,0.550125,0.614086,-0.639882,-0.759498,0.117112
0.051628,-0.519877,0.594471,0.165986,0.969477,0.180450
0.066644,0.160409,0.860189,0.802969,0.563744,-0.193480
-0.050840,-0.115182,0.782226,-0.276274,0.796783,0.537409
0.074294,0.869792,0.444953,-0.256803,0.563742,-0.785015
-0.488667,-0.666651,0.419305,0.915147,-0.113044,0.386946
0.227884,0.348713,0.693644,0.427200,0.493781,0.757417
0.444013,-0.667804,0.239956,0.141171,0.184603,0.972621
-0.126426,0.688304,0.256809,0.254235,0.727130,0.637689
0.526405,0.296525,0.577618,-0.182618,-0.033285,0.982620
-0.373769,-0.387507,0.201652,-0.519516,0.144665,-0.842125
0.047523,0.020693,0.524699,0.737622,-0.671050,-0.074870
0.279119,0.441570,-0.992680,0.046245,0.037459,0.998228
0.319162,0.266949,0.776501,-0.301116,0.780989,-0.547162
0.608122,-0.373296,0.615440,-0.388507,0.850951,0.353477
-0.417018,-0.632851,0.097947,0.230413,0.184324,0.955476
0.103481,0.028280,0.834246,-0.102809,-0.012030,0.994628
0.660593,0.315970,0.541097,0.107619,0.829512,0.548021
-0.540239,0.008259,0.258727,-0.554276,0.185727,-0.811347
-0.136830,0.269925,0.539823,0.018526,0.116675,0.992997
0.434285,0.577300,0.523935,0.437157,0.247109,-0.864772
0.169226,-0.057903,0.810784,0.990425,0.039038,-0.132416
0.117711,0.093240,-0.928727,0.595135,0.803623,-0.002139
