0.327122,0.347177,0.595660,0.810808,-0.491394,-0.317999
-0.726097,0.410708,0.135984,-0.031763,-0.986768,0.158995
0.137022,-0.393578,-0.988779,-0.148171,-0.052941,0.987544
-0.263987,-0.027838,0.847827,0.040862,0.740141,0.671209
-0.212416,-0.098704,0.230474,0.228286,0.891948,0.390275
-0.236030,-0.741660,0.529229,-0.511519,0.849253,-0.130834
-0.146689,-0.013302,0.783116,-0.373622,-0.206341,0.904340
-0.115298,0.379557,-0.033586,0.247567,0.107300,-0.962911
0.602846,-0.069176,0.413402,-0.066384,0.796466,0.601029
0.355008,0.227060,0.317194,0.248057,-0.411107,0.877188
-0.500614,-0.094810,0.096327,0.914050,-0.258347,-0.312680
0.174020,-0.291240,0.583489,0.629751,0.280007,0.724576
-0.765056,0.429137,0.148952,-0.510578,-0.854785,-0.093018
-0.287179,-0.078195,0.166530,0.751474,-0.213121,-0.624393
-0.066740,0.887344,0.424315,0.606926,0.300959,-0.735570
-0.675228,-0.008177,0.488384,0.881398,0.024107,-0.471759
-0.683144,0.318430,0.167397,-0.237258,-0.290683,0.926937
-0.324107,-0.123363,0.466963,-0.098489,0.939740,-0.327398
-0.288721,-0.056716,0.976608,0.931867,-0.354608,0.076664
-0.031355,-0.059702,0.688794,0.812857,-0.483454,0.324863
-0.570403,0.326669,0.129375,0.758682,-0.430584,-0.488875
-0.547630,-0.400196,0.460898,-0.292362,0.956225,0.012584
-0.047262,-0.080532,0.285222,-0.223902,0.887551,0.402644
-0.016570,-0.098636,-0.134517,0.983731,-0.132482,0.121335
0.431104,0.257039,0.577173,0.207013,-0.662850,0.719566
0.548192,0.079558,0.386824,-0.001173,0.465981,0.884794
0.439795,0.241402,0.394188,0.729891,0.631228,0.262318
-0.891463,-0.340622,0.363754,-0.091558,0.952502,0.290442
0.653857,-0.041079,0.574308,-0.203427,-0.378210,0.903092
-0.741023,-0.161066,0.446114,-0.485512,-0.096505,0.868887
0.293697,0.332966,0.543999,0.857087,0.311700,-0.410177
0.362576,-0.475795,-0.980535,-0.235229,0.191875,0.952812
-0.028622,-0.109152,-0.549533,0.967372,0.251901,0.027134
0.067863,0.114923,-0.032747,0.511325,0.073617,-0.856229
-0.121044,0.006228,-0.046357,0.812157,0.435678,-0.388054
0.064711,-0.179753,0.517100,-0.358988,0.346026,-0.866830
-0.178923,-0.010058,0.305204,0.063819,-0.856480,-0.512220
-0.598431,0.747177,-0.026012,0.183673,0.918513,0.350140
0.099254,-0.466709,0.261663,0.849660,-0.065336,0.523267
-0.663386,0.537832,0.275259,0.984810,-0.164132,-0.056657
-0.655258,0.690004,0.445388,-0.427818,-0.900017,0.083314
-0.246399,-0.070670,0.218037,-0.022937,-0.963209,0.267773
0.102547,-0.611748,0.240046,0.317490,-0.436532,0.841808
0.350595,0.406747,0.595981,-0.044986,-0.726538,0.685652
0.457802,-0.465022,-0.973897,-0.146791,0.242270,0.959040
-0.076410,0.873914,0.416993,-0.764098,0.642473,-0.058154
-0.459762,0.368851,0.158524,0.421626,0.185837,-0.887523
-0.255649,-0.255613,0.835321,-0.583066,0.591720,0.556688
0.091126,-0.201818,-0.983176,-0.428224,0.248532,-0.868824
-0.158882,-0.117066,0.665234,0.100159,0.918605,0.382274
-0.263636,0.253795,-0.038840,-0.015496,0.175285,0.984396
0.641735,-0.082869,0.395670,0.111191,0.140141,0.983868
-0.135339,-0.107204,0.830738,-0.276025,-0.915195,0.293646
-0.277580,-0.141726,0.634423,0.915691,-0.364714,0.168803
0.028904,0.025957,0.523724,0.991046,0.082202,-0.105216
0.407841,-0.614211,-0.975155,0.144297,0.031371,-0.989037
-0.465508,-0.723425,0.513006,-0.426721,-0.233958,0.873598
0.792665,-0.054577,0.421982,0.919528,0.199206,-0.338799
0.222017,-0.132901,-0.987801,-0.026188,0.066985,0.997410
-0.891602,0.354445,0.258127,0.715436,-0.627597,-0.307040
-0.067651,0.089162,0.708161,-0.627256,0.344963,0.698248
-0.139333,-0.206749,0.714659,0.880487,-0.271275,-0.388783
-0.371686,0.504411,0.446520,0.414553,0.343658,-0.842641
-0.008092,0.006747,-0.996926,0.039915,0.158993,0.986473
0.128124,-0.185464,0.303779,-0.408486,-0.390318,-0.825101
-0.068282,-0.226022,0.763539,-0.407470,0.874853,-0.261916
-0.159092,0.009928,0.407519,0.364433,0.821213,0.439088
0.031357,-0.151006,0.075604,0.732275,0.636357,-0.242535
0.333567,-0.385593,0.415917,0.036292,-0.775365,0.630470
-0.517359,0.656195,0.415121,-0.109736,0.916597,0.384457
-0.058123,-0.116028,-0.054672,0.877317,-0.331257,0.347252
0.117612,-0.448022,0.247032,0.981934,-0.019715,0.188194
0.327892,0.256393,0.610682,0.808176,-0.586143,0.057344
0.068214,-0.110384,-0.790773,-0.116432,0.946370,-0.301375
0.597732,-0.514860,-0.969300,-0.107435,0.179668,0.977843
-0.178994,-0.079558,0.345966,-0.346799,0.777332,0.524867
-0.416529,0.249125,0.178967,0.435087,0.867729,-0.240302
-0.079143,-0.058209,0.241569,0.719088,0.213210,-0.661403
0.171007,0.166254,0.731874,-0.529992,0.556296,-0.640033
-0.153628,-0.124789,-0.029407,-0.077691,0.603080,0.793888
0.565568,0.508111,0.181636,-0.660528,0.749719,-0.040292
0.577411,-0.229721,-0.976301,-0.182803,0.126574,0.974968
-0.631573,-0.213823,0.458844,-0.832376,0.463597,-0.303690
-0.182075,-0.215898,0.516443,-0.012951,0.151682,0.988345
-0.206600,-0.671448,0.281142,-0.093826,-0.673970,0.732776
-0.342396,-0.022974,0.306574,0.478110,0.122854,0.869665
-0.301333,0.302140,-0.049529,-0.025158,-0.135120,0.990510
-0.422065,0.746528,0.412899,-0.566583,0.815142,0.120527
0.011528,-0.308437,-0.990372,-0.164049,-0.056681,0.984822
0.108505,0.615574,0.439267,0.808132,0.524422,-0.268150
-0.421364,0.502985,0.443306,-0.008488,-0.493088,0.869938
-0.531864,0.503635,-0.033013,0.780328,0.421714,-0.461785
0.248223,0.227642,0.581826,0.471667,0.334501,-0.815867
-0.380444,-0.159767,0.866119,0.972303,-0.233689,-0.004088
0.189294,0.197794,0.242435,0.874757,0.413245,0.253038
0.335740,-0.191952,0.431889,-0.636087,-0.390334,-0.665608
0.110327,0.264699,0.406806,0.100775,0.010982,0.994849
-0.303016,-0.699027,0.561047,0.136857,-0.558350,0.818239
0.169955,-0.592344,0.702278,0.921068,0.387227,0.041085
-0.410574,0.225697,0.563982,0.826625,0.557719,-0.075109
0.564728,-0.579234,-0.968671,-0.112872,0.125637,0.985634
-0.156291,-0.825501,-0.977698,0.078109,0.274320,0.958461
-0.029884,0.194094,0.174174,-0.694822,0.671720,0.256932
-0.302176,0.371318,0.549449,0.859511,0.496928,0.119597
0.299655,-0.207593,-0.985384,-0.099757,0.088264,0.991089
-0.064779,-0.458597,0.203099,-0.303918,0.502451,-0.809430
-0.864766,0.106617,0.296205,-0.698496,-0.236255,-0.675491
-0.462354,0.095456,0.104879,0.906406,-0.184394,-0.380035
-0.580003,-0.711745,0.521837,0.781806,-0.242856,0.574283
-0.835335,-0.138806,0.451997,-0.092929,-0.351623,0.931518
0.387593,0.419402,0.581071,0.488122,0.832466,0.262176
-0.141294,-0.103829,0.783591,0.960034,-0.115739,0.254830
-0.139333,-0.297601,0.364285,0.887630,0.285436,0.361440
-0.230915,-0.154055,0.896106,0.202092,0.707890,-0.676794
-0.304278,-0.252757,0.890992,0.970036,0.141507,-0.197500
-0.007953,-0.090719,-0.053973,0.850850,-0.352532,0.389584
-0.614896,0.407397,0.285935,-0.765869,0.058686,0.640313
0.018884,-0.053928,0.088488,0.791635,-0.610124,-0.032607
0.426340,0.548344,0.185828,0.989863,0.045826,0.134429
-0.419752,-0.789359,0.501701,0.826040,0.363447,-0.430771
0.164910,0.260219,0.744996,0.153822,0.944068,-0.291676
0.815716,-0.188126,0.356264,-0.086317,-0.989203,0.118432
0.021828,0.131471,0.704277,-0.515199,0.836813,0.185239
-0.385628,0.451916,-0.030972,0.409583,-0.077668,0.908961
-0.434327,0.432963,-0.027619,-0.435262,0.137247,-0.889781
-0.125599,-0.049773,0.803294,-0.690108,-0.199409,-0.695691
-0.400203,-0.076639,0.142342,-0.462612,-0.164645,0.871139
0.249414,0.378261,0.197719,-0.229283,0.105030,-0.967677
0.072627,-0.109671,-0.513216,0.781130,0.530470,-0.329299
0.058895,0.943995,0.421968,0.762427,-0.036636,0.646037
-0.427390,0.135757,0.440371,0.761563,-0.233656,-0.604506
-0.365728,-0.685984,0.544712,0.697007,0.250776,0.671783
-0.230073,-0.403571,0.305819,0.937978,0.208507,0.276987
-0.283957,-0.269242,0.808813,0.705487,0.367201,0.606178
-0.297410,-0.418170,0.717300,-0.581900,0.448130,0.678654
0.381075,-0.067101,0.555598,-0.393070,0.327674,-0.859143
-0.578461,0.792861,0.035095,-0.356739,0.837636,-0.413645
0.536070,0.523554,0.191389,0.766035,-0.588285,-0.259058
-0.004589,-0.082932,0.675854,0.386240,0.237280,-0.891357
-0.554286,0.576378,-0.034689,-0.639705,-0.280171,0.715739
0.394739,0.205062,0.641759,0.007717,-0.987088,0.159995
-0.362506,0.083970,0.604365,-0.236707,-0.914463,0.328219
0.036333,-0.572679,0.562263,-0.639306,-0.399571,0.656986
-0.838209,-0.376638,0.378286,-0.643881,0.718583,0.262785
0.125881,-0.049840,0.493205,-0.533759,0.557111,0.636183
-0.728901,0.657039,0.368701,0.950620,0.131274,-0.281228
0.154330,-0.773136,0.698659,0.915577,-0.250936,-0.314244
-0.639562,-0.180014,0.362622,0.638161,-0.585556,-0.499874
0.523107,0.349384,0.579702,0.885951,-0.462417,-0.035512
-0.720142,0.645358,0.463945,0.913015,0.215352,0.346450
-0.735346,0.698571,0.457097,0.854223,0.017988,0.519596
-0.428091,-0.158143,0.521488,-0.716252,0.021062,0.697524
0.161267,0.189033,0.596526,0.054953,-0.875472,0.480135
-0.641803,-0.354770,0.452947,-0.768088,-0.249318,0.589815
-0.258451,-0.191500,0.558141,-0.733470,0.620234,0.278085
-0.292925,-0.004022,0.697122,-0.595247,-0.740010,0.313154
0.024910,-0.055096,0.128662,0.243458,-0.688590,0.683060
0.006903,-0.143999,-0.157000,0.988046,0.143277,-0.056887
0.038223,0.239520,0.543594,0.006149,-0.941394,0.337253
0.147602,0.214861,0.750250,0.836577,-0.531086,-0.134482
0.005222,0.212199,0.673688,-0.161195,0.972302,-0.169250
0.562066,-0.509865,-0.971424,-0.135269,0.204922,0.969386
0.386119,-0.014601,0.286187,0.623637,0.628583,-0.464716
0.127844,0.131214,0.257918,0.223014,0.423462,0.878034
-0.090213,0.126995,-0.036366,0.026351,0.155970,0.987410
-0.304697,0.208567,0.556687,0.980451,-0.008428,-0.196583
-0.364888,0.172097,0.168864,-0.424676,0.111782,-0.898418
-0.340643,0.011809,0.986460,0.049135,0.933012,0.356474
-0.387311,-0.080469,0.460773,-0.015126,0.549397,0.835425
-0.606978,0.151394,0.139044,0.541121,0.603636,-0.585501
0.031708,0.359052,0.329686,-0.566468,-0.149492,0.810411
-0.291946,0.203763,0.556631,0.810181,0.218322,0.544005
-0.231475,-0.718300,-0.985887,0.178281,0.118001,0.976879
-0.050414,-0.135951,0.175306,0.807873,0.586063,-0.062218
-0.026661,-0.078975,0.605665,-0.674461,0.013273,-0.738191
-0.391795,0.355546,0.606028,0.328234,-0.841962,0.428208
0.488423,-0.402271,-0.977908,-0.157489,0.140024,0.977543
-0.316469,-0.260093,0.347027,0.977964,0.041056,0.204695
0.009075,-0.062039,-0.895142,0.731465,0.673883,0.104118
0.090987,-0.001947,-0.052576,-0.099364,0.519314,0.848787
-0.185439,-0.135238,0.884969,-0.058877,-0.951848,0.300863
-0.661844,-0.019081,0.443725,0.417680,0.876047,0.241008
0.164138,0.081114,-0.989869,-0.219550,-0.103319,0.970115
0.367762,-0.028230,-0.987340,-0.062816,0.073629,0.995305
0.143888,-0.537507,0.247480,0.967448,0.244392,-0.065695
-0.512524,-0.721480,0.505041,0.554341,0.412897,-0.722649
-0.113547,-0.094680,0.498194,0.715960,0.684452,0.137573
-0.381916,-0.443412,0.374555,-0.400188,0.288221,-0.869930
0.523738,0.309538,0.584215,0.537927,0.715269,-0.446121
-0.294187,-0.245295,0.965206,0.947424,0.008385,0.319872
0.242757,0.361194,0.421898,-0.376491,-0.614401,0.693372
-0.773744,-0.110190,0.456343,0.316620,-0.321743,0.892319
-0.171986,-0.148023,0.819433,0.919827,0.121153,-0.373150
-0.503765,0.331667,-0.012555,0.613853,0.600913,0.511945
-0.679992,-0.222778,0.452458,0.393926,0.382633,-0.835712
-0.269523,-0.595588,0.213048,0.369181,0.920653,-0.126901
0.489614,-0.370281,-0.979040,-0.198377,-0.015391,0.980005
0.253828,0.119339,0.409420,0.943399,0.038283,-0.329443
-0.577270,-0.107204,0.104054,0.881867,-0.359515,-0.305056
-0.217390,-0.156456,0.643939,0.124933,0.554262,0.822913
-0.132677,-0.818170,-0.987731,0.134183,0.397085,0.907920
-0.414917,-0.252369,0.387271,-0.306285,0.838380,-0.450898
-0.016151,-0.037249,0.668881,0.829584,-0.266764,-0.490538
0.344920,-0.416289,-0.981611,-0.119064,-0.014035,0.992787
-0.445538,0.372094,-0.036799,0.629559,0.640883,-0.439231
-0.172617,-0.828618,-0.977782,-0.029081,0.154897,0.987503
0.196092,-0.759052,0.211358,0.571298,-0.797529,0.193819
0.466490,0.418103,0.177486,0.759319,-0.282361,0.586266
-0.055809,0.277155,0.246082,-0.344073,-0.767375,0.541064
-0.200715,0.375988,0.182754,0.140033,0.035903,0.989496
-0.594086,0.787023,0.004241,0.228317,0.853513,-0.468388
0.016012,0.418364,0.325173,0.822771,0.148739,-0.548566
0.694569,-0.264438,0.415540,0.713157,0.699730,-0.042248
-0.103317,-0.830500,-0.984433,0.115756,-0.300437,-0.946751
-0.570823,0.499999,-0.059437,-0.348146,-0.922761,-0.165248
-0.211644,-0.115897,0.959030,0.935441,0.023060,0.352730
-0.114387,-0.091761,0.735214,-0.428824,-0.224717,-0.874993
-0.052448,0.148474,0.395935,0.888024,-0.323079,0.327159
-0.194548,0.095523,0.475068,-0.175069,-0.976957,-0.122089
-0.257681,-0.438675,0.543608,0.241901,0.543498,0.803800
0.485478,0.346465,0.592767,-0.411759,0.789022,0.455959
-0.337350,0.278391,0.572156,0.812873,0.528359,0.245101
-0.508391,-0.822776,0.452193,-0.001410,0.991729,0.128340
0.262306,0.192989,0.624599,-0.742579,-0.388867,0.545306
-0.279824,-0.118947,-0.033446,0.480802,0.753047,0.449165
-0.401535,0.345553,0.148057,0.642790,0.700629,-0.309741
-0.091056,-0.061001,0.704794,0.903718,-0.426898,0.032430
-0.665907,-0.824075,0.488454,0.839546,-0.446841,0.309025
-0.067651,-0.082481,0.819293,0.000156,-0.946983,0.321283
0.048453,-0.121221,-0.623314,-0.252119,-0.967624,-0.011829
0.123708,-0.650745,0.245090,0.868351,0.000664,0.495949
0.760503,-0.304932,0.426537,0.905979,0.363320,-0.217257
0.062819,0.039455,0.566371,-0.693862,-0.146622,-0.705023
-0.506498,0.539325,-0.025690,-0.514907,0.634337,-0.576618
0.449464,0.603307,0.182991,-0.340198,0.829458,0.443017
-0.388502,-0.250100,0.392959,-0.513998,0.794847,-0.322527
0.039485,-0.051721,-0.684015,0.501049,0.865391,-0.006977
-0.230704,-0.263986,0.692427,0.745923,-0.586931,0.314820
-0.715938,-0.200325,0.456427,0.617655,0.616440,-0.488368
-0.130994,0.197469,0.402475,0.142581,0.467638,0.872345
-0.162667,0.656132,0.398367,0.313010,0.790570,0.526331
-0.767930,-0.217911,0.432308,-0.213440,-0.012615,0.976875
0.092597,-0.618885,0.250400,0.992083,0.097187,0.079541
0.224258,0.336210,0.207040,0.188368,-0.020279,-0.981889
-0.303226,-0.228422,0.822200,0.569705,-0.201978,-0.796644
0.367060,0.620505,0.206537,0.264125,0.549701,0.792506
0.277371,0.467747,0.186401,0.080188,0.981142,0.175872
-0.166591,-0.216223,0.938726,0.878793,-0.473444,-0.059777
0.300985,0.130627,0.401790,0.434103,-0.166892,-0.885269
0.193428,0.347502,0.397332,-0.336034,0.311959,-0.888686
0.297901,0.422452,0.199830,0.229517,-0.303288,-0.924845
-0.044600,-0.199869,0.596303,0.865259,-0.485764,0.123939
-0.594787,-0.451072,0.437884,-0.735481,0.181309,-0.652836
0.086082,0.226216,0.695264,0.639388,0.651891,-0.407702
-0.007251,-0.071707,-0.955662,0.886514,-0.451968,0.099086
0.051958,-0.119403,0.086154,0.983981,0.137930,-0.112949
0.053429,-0.284035,0.235448,0.788681,0.518691,-0.330063
-0.150545,-0.220897,0.375981,0.616013,-0.589238,0.522806
0.047822,-0.069046,-0.704305,-0.603431,-0.797397,-0.005361
0.329994,0.597338,0.363013,0.901146,0.268958,0.339996
0.063729,0.244776,-0.030316,-0.011658,-0.980260,0.197369
-0.232876,-0.286503,0.681919,0.798059,-0.449993,0.400758
0.208633,0.102074,-0.990205,-0.100288,0.055277,0.993422
-0.294116,0.573392,0.451173,-0.519905,0.819128,0.242338
0.065971,0.211486,-0.064132,0.860539,0.302936,0.409514
-0.326560,-0.197212,0.386503,0.705436,-0.392819,-0.589960
0.154539,-0.379430,-0.987591,0.194000,0.062163,-0.979030
-0.745156,0.422127,0.281324,-0.651092,0.067977,0.755949
0.002068,-0.138676,0.057117,0.891526,0.452955,-0.003768
-0.070664,-0.156067,-0.918296,0.873860,0.442104,-0.202269
-0.338962,-0.053084,0.838242,0.914927,-0.343558,0.211841
-0.031917,-0.013821,0.537194,0.791838,-0.135443,0.595523
-0.659742,0.254769,0.306099,-0.710945,0.701666,0.047145
-0.228952,-0.197144,0.914887,0.831853,-0.545323,0.103164
-0.324597,-0.250357,0.812935,-0.841704,0.050908,-0.537534
0.371196,-0.391629,0.604952,-0.285921,0.676485,0.678688
-0.238061,0.466384,0.180728,0.098406,-0.038432,0.994404
0.287462,-0.763662,0.719172,0.510818,-0.823105,-0.248118
-0.338402,-0.030242,0.301781,-0.103682,-0.127581,-0.986394
-0.436358,0.216287,0.444759,-0.065264,-0.019140,0.997684
-0.038642,-0.153342,-0.837920,0.885979,0.437018,-0.155104
-0.440633,0.362165,0.199885,-0.642022,0.509002,-0.573345
-0.047893,-0.659962,0.178729,-0.296524,-0.746737,0.595363
0.025541,-0.043935,0.022113,-0.729171,-0.627977,-0.271947
-0.463825,0.235108,0.293229,-0.411892,0.075481,0.908101
0.286271,-0.277029,0.404878,0.490547,-0.427543,-0.759323
0.366641,0.195718,0.594961,0.055296,-0.203054,0.977605
-0.564378,-0.176121,0.497817,0.368456,0.639282,-0.674951
-0.369581,0.060998,0.559286,0.857703,0.366816,0.360264
-0.154398,-0.599350,0.216318,-0.629175,-0.759297,-0.166153
0.378342,0.123360,0.412061,-0.171439,-0.042842,-0.984263
-0.269243,-0.292408,0.540492,-0.642037,0.610501,-0.463764
0.040537,-0.262231,0.782543,-0.028994,0.909934,0.413738
-0.559542,-0.148217,0.098269,-0.765896,0.620302,0.169199
0.313668,0.452304,0.199215,0.059837,-0.281569,-0.957674
0.115651,0.288384,-0.998896,0.250182,-0.066267,-0.965929
0.061767,-0.144969,0.521697,-0.138615,-0.911560,0.387097
0.113620,0.765282,0.371845,0.778169,-0.227989,-0.585213
0.188873,0.495781,0.408875,0.882220,-0.145276,-0.447864
0.401535,0.039974,0.248542,0.958192,-0.280290,0.057490
0.671372,0.446335,0.602018,0.094720,0.559933,0.823106
-0.212346,-0.147306,0.868467,-0.579587,0.547338,0.603738
-0.053008,-0.055484,-0.015839,-0.296704,0.786330,0.541897
-0.368251,0.156004,0.594053,0.422048,-0.697725,0.578840
-0.634937,0.399804,0.440651,-0.057436,-0.866032,0.496678
0.005010,-0.054835,-0.449063,-0.563969,0.825793,0.002298
-0.058612,-0.036924,0.697555,0.641035,-0.630124,0.438200
-0.265809,0.274106,-0.043716,0.373467,-0.040407,-0.926763
-0.003537,0.044517,0.398017,0.928044,0.288310,-0.235820
-0.182006,-0.303051,0.598133,0.974293,0.070307,0.214034
-0.294328,-0.296040,0.881769,0.840833,0.470645,0.267382
-0.393617,0.637053,0.405186,-0.108772,0.965762,0.235527
0.017973,0.182478,0.570130,-0.113428,0.980569,0.160060
-0.612514,0.812003,0.006644,0.355851,0.836962,-0.415771
-0.060575,-0.163597,-0.895268,0.982165,-0.127194,0.138472
-0.487371,0.313044,0.435397,0.850060,0.476724,-0.223901
-0.363136,0.240170,0.443878,-0.187121,0.301421,0.934950
0.301616,0.263788,0.596848,0.958684,0.281840,-0.038631
-0.051746,-0.018689,0.608991,0.821283,-0.250803,0.512437
-0.084679,-0.103310,-0.921259,0.927327,-0.348029,-0.137621
-0.037171,-0.427188,0.372990,-0.322268,0.867324,0.379332
-0.351014,0.518171,0.466544,-0.711015,0.317969,0.627179
0.294399,0.282997,0.620435,-0.462267,0.805713,-0.370319
-0.743476,0.219923,0.290770,0.763967,-0.421323,-0.488714
-0.282557,-0.236665,0.705003,-0.815688,0.464738,-0.344488
0.389904,-0.226996,-0.979892,-0.123433,0.209099,0.970073
-0.048872,-0.078068,0.290882,-0.389416,0.895585,0.215133
-0.212835,-0.114472,0.352561,-0.397765,0.736151,0.547600
0.156432,-0.932382,0.083290,-0.641606,0.750838,-0.156790
0.217533,-0.334392,0.582902,-0.089105,0.262847,0.960714
0.074729,-0.132838,-0.313952,-0.804914,-0.568393,-0.170420
-0.170795,-0.450097,0.532583,-0.474510,-0.832677,-0.285462
0.035770,0.138093,0.588002,-0.383967,0.595544,0.705618
-0.167431,0.148669,-0.044373,0.078197,0.059977,0.995132
-0.323337,0.307008,0.169786,-0.622112,-0.122545,0.773278
-0.328240,-0.088968,0.942471,0.875163,0.066318,0.479261
-0.181235,-0.019794,-0.066354,-0.097138,0.654901,0.749445
-0.327261,-0.120896,0.251155,0.020917,0.814936,0.579173
-0.372246,-0.406359,0.377755,-0.614013,0.288435,-0.734706
-0.019232,-0.320573,0.753687,-0.002657,0.229587,0.973285
-0.493536,-0.057108,0.133078,0.343722,0.938201,0.040432
-0.930911,-0.359444,0.331139,-0.776697,0.251412,0.577523
0.055390,-0.126671,-0.601612,0.839901,-0.424973,0.337587
-0.403286,-0.721286,0.537963,-0.659500,0.651336,-0.375262
-0.046490,-0.133939,0.396424,0.442926,-0.837701,0.319491
0.055531,0.714664,0.406569,-0.246874,-0.842475,0.478841
0.244438,0.169760,-0.991881,-0.193442,0.111209,0.974789
-0.075640,-0.664243,0.535476,0.388734,0.568346,-0.725168
-0.674807,0.304607,0.143698,-0.144681,0.858021,-0.492816
0.277161,-0.705388,0.709181,-0.672665,-0.211572,-0.709055
0.667872,-0.103179,0.400518,-0.069060,0.166763,-0.983575
-0.456820,0.491499,0.152487,0.623517,-0.161221,-0.765006
-0.265879,-0.591564,0.720095,-0.451021,0.233871,0.861327
-0.667940,0.623749,0.437772,0.391538,0.482991,0.783210
-0.261395,-0.388710,0.745708,0.533397,0.474032,-0.700558
0.338054,-0.822649,0.047657,0.591261,-0.804800,0.052038
-0.870650,-0.121870,0.445681,0.888179,0.110754,-0.445950
-0.939741,-0.260869,0.428326,-0.116544,0.326961,0.937824
-0.102126,-0.148736,-0.991672,0.572571,-0.075241,-0.816395
0.201977,-0.648931,0.686726,0.961789,0.073834,-0.263648
-0.076410,-0.686828,-0.987466,-0.100624,0.114213,0.988347
-0.434536,0.465608,0.131736,0.893219,-0.096153,-0.439221
0.124831,-0.193706,0.583908,0.379656,0.519085,0.765776
-0.190274,0.049448,0.389731,-0.026735,0.951667,0.305966
-0.831692,-0.230371,0.445891,-0.132817,-0.327075,0.935618
0.410505,0.000648,0.571555,0.972955,-0.003941,-0.230963
-0.125389,-0.158404,0.840994,0.947289,0.147287,0.284517
-0.021337,-0.134458,0.049893,0.968179,0.185921,0.167517
-0.449603,0.205319,0.345714,-0.095919,0.973704,0.206642
-0.156150,-0.173071,0.778421,-0.333410,0.002672,-0.942778
-0.063868,-0.089099,-0.795538,0.077663,0.951793,-0.296746
0.742216,-0.273591,0.393671,0.622806,0.693956,0.361301
-0.696177,0.448474,0.266428,-0.084017,0.895299,0.437471
-0.506428,0.334459,0.443851,0.848570,0.389044,-0.358571
-0.753004,0.341403,0.274868,-0.140117,0.963715,0.227202
-0.130295,0.303375,0.379153,-0.655782,-0.271385,0.704485
-0.088603,-0.214797,0.861452,0.506802,0.853891,0.118418
-0.660862,0.306227,0.156679,0.142159,0.916971,0.372767
-0.482955,-0.822582,0.499969,-0.210377,-0.858480,0.467712
-0.751952,0.131796,0.293187,-0.410330,0.693162,-0.592584
-0.163646,-0.539912,0.533561,0.837900,-0.425749,-0.341557
0.159024,-0.590981,-0.981345,0.257752,-0.222716,-0.940192
-0.046561,-0.448153,-0.990302,0.028098,-0.008189,0.999572
-0.106681,-0.685010,0.166558,0.560618,0.441448,-0.700593
0.521356,0.240558,0.565714,-0.666066,0.709877,-0.228977
-0.256419,0.132057,0.515996,0.209542,0.748066,0.629674
-0.415058,-0.496624,0.310067,-0.276844,0.476064,0.834698
0.239255,-0.171190,0.662412,-0.260682,-0.958504,-0.115387
0.046492,-0.073007,-0.371523,0.731578,-0.649109,-0.208450
-0.247380,0.046656,0.165594,0.669549,0.130940,-0.731135
-0.394177,0.338804,0.168291,0.846875,0.109219,-0.520456
-0.306940,-0.490592,0.558252,-0.184478,-0.493341,0.850048
-0.275057,-0.182284,0.458565,-0.069454,0.264125,0.961985
-0.268963,0.436144,0.464979,0.786838,0.250931,-0.563844
-0.658130,0.223816,0.293956,-0.783736,0.136380,0.605935
-0.044739,-0.106879,-0.529634,0.989092,0.147093,0.007804
0.180606,0.597081,0.430450,-0.592726,-0.745644,-0.304450
0.249835,0.321805,0.201464,-0.235090,0.048123,-0.970781
0.173038,-0.712394,0.213118,0.545922,-0.752673,0.368040
0.056021,0.724918,0.404515,0.795826,0.509338,-0.327469
-0.058612,-0.129788,-0.829899,-0.801801,-0.595209,0.053310
-0.114879,-0.007397,0.807388,0.834465,-0.089536,0.543738
-0.098131,0.286827,0.249282,0.741712,0.469047,0.479434
0.689031,-0.025375,0.584159,0.415937,0.662280,0.623202
-0.527869,0.594807,-0.021484,0.437506,-0.311986,0.843359
0.164138,0.074238,0.458076,0.627232,0.678404,0.382554
0.449464,-0.238352,-0.980912,-0.093876,0.172171,0.980584
-0.100794,-0.035106,0.313547,0.378484,-0.575744,0.724755
0.164701,-0.728487,-0.979599,0.212615,-0.070101,-0.974618
-0.351155,-0.794354,0.548024,-0.187482,0.966999,-0.172523
0.374979,0.546981,0.176899,0.161693,-0.822722,0.544962
0.133239,-0.157430,-0.978383,-0.254621,-0.163205,-0.953170
-0.072416,-0.173202,0.830808,0.091146,0.369400,0.924790
0.615108,0.477482,0.583754,0.596928,-0.697526,-0.396401
0.131276,0.195457,-0.022952,0.649345,0.424130,-0.631240
0.210945,0.300908,0.390262,0.651368,0.206707,0.730063
-0.370144,-0.060609,0.145374,-0.647142,-0.054075,0.760449
-0.243598,-0.137963,0.974191,0.888044,-0.292321,0.354860
0.273167,0.197988,0.530417,0.958753,-0.243585,-0.146490
-0.077601,-0.060483,-0.865923,0.988010,-0.030454,-0.151353
-0.231125,-0.061390,0.242212,-0.301683,-0.027301,0.953017
-0.136740,0.005254,0.524367,0.640811,0.260849,0.722025
0.715307,-0.068139,0.390192,0.346128,0.248547,0.904666
-0.112777,0.415184,0.403774,-0.455940,0.317967,-0.831273
-0.127211,0.049186,0.645965,0.879774,-0.183218,0.438667
-0.223277,-0.206812,0.923564,0.155332,0.986494,0.051969
0.028834,-0.253668,-0.989115,-0.129712,-0.434687,0.891191
-0.269382,-0.032381,0.974400,-0.662104,-0.745743,0.074066
0.388153,-0.170021,-0.986096,-0.036205,0.090850,0.995206
-0.565006,-0.173590,0.505851,-0.201419,-0.013891,0.979407
-0.653085,0.244840,0.297002,-0.560735,-0.362869,0.744246
0.089446,-0.714537,0.278389,0.822656,0.378320,0.424395
0.062539,-0.082219,-0.083653,-0.668957,0.081330,0.738838
-0.017552,-0.111877,0.032580,0.849358,-0.500639,0.167191
0.624707,-0.067359,0.394775,0.032595,0.110064,0.993390
-0.162105,-0.142050,0.398353,-0.104198,0.733251,0.671927
0.267002,0.088450,0.237726,0.123508,0.880038,0.458562
0.406650,-0.387605,0.598133,0.935498,-0.353298,0.004976
0.065761,-0.249058,0.708133,-0.459130,-0.023744,0.888052
-0.239954,0.021933,0.609019,0.827644,0.388346,0.405207
0.262026,0.045360,0.265631,0.995182,0.064843,-0.073545
-0.449111,-0.048672,0.119593,-0.592845,0.702753,0.393284
0.270575,-0.029268,0.247675,0.843880,-0.137889,0.518511
-0.344007,-0.035043,0.976706,-0.191984,0.653784,0.731921
0.135409,-0.137183,0.511050,-0.525346,0.850226,-0.033595
-0.232316,-0.244519,0.686321,0.842582,-0.232586,0.485757
-0.663595,0.300647,0.265785,-0.559989,0.013352,0.828393
0.598711,0.367100,0.596442,0.562414,0.137518,-0.815340
0.468942,0.482932,0.190118,-0.071637,0.848134,0.524916
-0.482465,0.304476,-0.064830,0.185866,-0.442820,0.877134
-0.116350,0.298116,-0.037680,0.487526,0.667414,-0.562918
-0.159024,-0.161648,0.803447,-0.159328,0.986501,0.037828
0.560454,-0.191306,0.376861,0.617347,0.763801,-0.188390
0.246891,-0.135951,0.649905,-0.380191,-0.919268,-0.101989
0.039906,0.202531,0.357172,0.848348,0.343154,0.403175
-0.630662,-0.263142,0.379376,0.604686,0.205865,0.769399
-0.626249,-0.868464,0.498907,-0.590511,0.750329,-0.297158
-0.096521,-0.018301,0.787014,0.887053,-0.024602,-0.461012
-0.360053,-0.452890,0.338084,-0.747667,0.655065,-0.109013
-0.134428,0.385010,0.473489,-0.629197,0.008437,0.777200
-0.180253,0.156780,0.371439,-0.535857,0.746599,0.394267
-0.144027,-0.096823,0.853263,-0.019821,0.539659,0.841650
0.013698,-0.152562,-0.180532,0.968259,-0.108125,-0.225352
-0.509022,0.478064,0.155128,-0.202439,0.491981,0.846743
0.394179,-0.380012,0.593941,-0.260894,0.868097,0.422305
-0.319063,-0.439780,0.539206,-0.334061,-0.507350,0.794355
0.513576,-0.519339,-0.972220,-0.123889,0.164456,0.978573
-0.388711,-0.052953,0.494449,0.705709,-0.690759,0.157563
0.307152,0.275860,0.609633,0.362230,-0.926454,0.102331
0.276531,0.204024,0.314930,0.201667,-0.429773,0.880128
0.014261,-0.030242,0.323831,0.952484,-0.304348,-0.012119
-0.098411,-0.034262,0.467508,0.720389,-0.666670,0.191286
-0.431874,0.031601,0.318563,-0.702014,-0.679103,-0.214466
0.652805,-0.070345,0.582036,0.773959,0.482964,0.409552
-0.008162,0.217130,0.362217,0.014828,-0.789026,0.614181
-0.460042,-0.808827,0.481565,-0.671368,-0.504971,0.542466
-0.111306,-0.000327,0.216654,-0.614781,0.024124,-0.788329
-0.452475,0.541789,-0.043437,-0.701784,0.709065,0.068751
0.347161,0.193382,0.398772,-0.680015,0.715171,0.161587
-0.465579,0.365413,-0.034368,0.931795,-0.328337,-0.154771
-0.578600,-0.605450,0.533561,-0.640048,0.126293,-0.757884
-0.470903,-0.165347,0.471323,0.271757,-0.908437,0.317633
-0.082436,-0.869695,-0.980940,0.096849,-0.243216,-0.965125
-0.345059,-0.021026,0.144103,0.688435,-0.017278,-0.725093
0.122167,0.253795,-0.997946,0.281599,-0.083976,-0.955851
-0.588340,-0.071577,0.507361,-0.128169,0.593116,0.794850
-0.292156,-0.258987,0.949527,-0.414900,0.869721,-0.267288
0.323198,-0.651070,0.705898,0.891514,0.242171,0.382826
-0.430544,0.489681,0.443878,-0.417918,0.726808,-0.545064
-0.105911,0.596170,0.302004,0.909726,0.085090,-0.406396
0.149354,0.246852,0.206872,0.274946,0.145038,0.950457
0.129734,0.648083,0.463497,0.716682,0.695752,0.047915
0.282907,-0.288578,0.593620,0.558625,0.819642,-0.126985
-0.044179,0.039649,0.607118,0.929030,-0.332728,-0.161846
-0.166240,-0.072226,0.886954,0.661376,0.379660,-0.646869
0.046631,-0.151719,0.758354,0.869585,0.417038,0.264389
-0.174507,-0.028163,0.386098,0.051365,-0.427171,0.902711
-0.299723,0.498442,0.437325,-0.551723,0.340656,-0.761285
-0.435939,0.219855,0.189447,0.403472,0.806430,-0.432297
0.226151,0.483451,0.207235,0.423975,0.136293,-0.895360
0.029394,0.741078,0.383471,-0.930271,0.284671,-0.231425
-0.061206,-0.065414,-0.966561,0.634055,-0.746037,-0.203475
-0.589531,0.306750,0.143404,-0.419463,-0.893212,-0.161934
0.362157,0.164634,0.266987,0.418366,-0.889698,-0.182774
0.079354,0.160092,0.550343,0.783377,0.568571,0.251092
-0.270083,0.099155,0.746980,0.770065,-0.523398,0.364766
-0.284028,0.495781,0.457894,0.757732,-0.065193,-0.649301
0.039836,-0.443091,0.314287,0.282477,-0.564761,0.775404
-0.649232,-0.668656,0.524283,0.602365,-0.254945,0.756412
0.101777,0.516678,0.407980,-0.400717,-0.456245,0.794523
-0.210244,-0.090137,0.599866,0.780768,0.614052,0.115505
-0.154189,0.115703,0.433259,0.714098,0.613238,-0.337645
-0.028834,-0.774693,0.145402,-0.603104,-0.793511,0.081283
-0.254247,-0.040623,0.705129,0.728195,0.234673,-0.643941
-0.484146,0.378455,0.449258,0.752330,-0.060633,-0.655990
-0.034229,-0.100260,0.079545,0.889750,-0.398697,0.222229
-0.670042,-0.275797,0.451271,0.099875,-0.733920,0.671853
0.091686,-0.223103,0.469171,0.743447,0.385828,0.546281
-0.935116,-0.420832,0.427571,0.558527,-0.077250,-0.825881
-0.035069,0.126346,-0.049138,0.129811,-0.346332,0.929087
-0.094069,-0.101429,0.895002,0.929300,0.078888,-0.360801
-0.366500,0.131146,0.524870,-0.707155,0.063773,0.704177
0.170025,-0.287996,0.720514,-0.372074,0.174331,0.911685
0.252427,-0.220830,0.458243,0.437048,-0.898365,-0.043915
-0.410082,0.331148,0.573637,0.918787,0.290247,-0.267556
-0.554637,-0.639390,0.507542,0.866989,0.398658,0.299001
-0.352906,0.145813,0.520328,-0.637387,-0.115177,0.761887
-0.189923,0.135432,-0.046777,-0.597564,-0.447226,0.665512
-0.012507,-0.144062,-0.475095,0.976766,-0.199938,0.077150
-0.042216,-0.073914,-0.969440,-0.507957,0.820265,0.262954
-0.166450,-0.522258,0.542420,-0.317078,0.332072,-0.888363
0.364890,0.152887,0.263116,0.451435,-0.888716,-0.079945
0.375960,0.089487,0.403900,-0.355837,-0.257688,0.898319
0.241357,0.394485,0.181664,0.928996,0.080765,-0.361169
-0.455697,-0.469371,0.529970,-0.032647,-0.457534,0.888593
0.016431,-0.156717,-0.191976,0.955786,-0.193001,-0.221866
-0.670042,-0.196301,0.487686,0.767956,0.631791,0.105277
-0.068842,-0.112135,0.556995,0.911294,-0.408724,0.049889
0.026171,-0.054898,0.686614,0.445321,0.842959,-0.301843
-0.695617,0.330499,0.149986,-0.412478,0.111350,0.904137
-0.532565,-0.100973,0.451229,-0.661199,0.628574,0.409525
-0.435727,0.671967,0.390723,0.680109,-0.718308,0.146578
0.000456,-0.168461,-0.265338,0.967639,-0.177422,-0.179435
-0.459273,0.346266,0.562081,0.985447,-0.169616,-0.011202
-0.312686,-0.370538,0.328792,0.735430,-0.675587,0.052198
-0.000594,0.254900,0.695068,-0.481001,-0.398248,0.781048
-0.691062,0.491369,-0.036618,0.298847,-0.948168,0.108021
0.196372,-0.142763,0.665905,-0.206981,-0.978261,-0.012810
-0.019093,0.057690,0.659841,0.839586,-0.275787,-0.468013
-0.013138,-0.041661,-0.572198,0.942749,-0.333152,0.015281
-0.018672,0.170409,0.377183,0.830073,-0.233788,0.506283
0.448833,-0.462297,-0.973758,0.164047,-0.254304,-0.953110
0.133449,0.147176,0.587178,0.217728,-0.847652,0.483818
-0.033038,0.120896,0.662649,0.884025,-0.380732,-0.271190
0.202958,0.462166,0.407952,0.968532,-0.127619,-0.213680
0.307853,0.184359,0.419858,0.305480,0.351015,-0.885139
-0.026732,-0.050747,0.143264,0.826823,0.248233,0.504722
-0.106471,-0.117264,0.757698,0.893332,-0.417554,-0.166153
0.333287,-0.421220,0.588324,0.675668,0.009825,-0.737141
0.320955,0.263855,0.366171,0.939508,0.342407,0.009114
-0.347300,-0.081051,0.958890,0.994198,-0.002818,-0.107531
-0.304346,-0.041404,-0.044233,0.655867,-0.024010,-0.754495
0.436221,-0.650420,-0.973338,-0.128333,-0.063470,0.989698
-0.129384,0.153731,0.734404,0.386327,-0.814185,0.433423
-0.284167,0.133095,0.506858,-0.025385,0.808314,0.588204
-0.132116,0.719599,0.394119,0.902842,0.393893,-0.172409
-0.040325,-0.423818,-0.990861,0.014930,-0.093407,0.995516
-0.500682,0.018427,0.318451,-0.839927,-0.011541,0.542577
0.071716,-0.114016,-0.978844,0.259529,0.423225,0.868059
0.072627,0.812653,0.382115,0.931508,-0.021140,0.363106
-0.813894,0.253145,0.275511,-0.227971,-0.236731,0.944451
-0.207231,-0.302726,0.760367,0.997333,-0.071814,-0.012987
-0.740042,0.393249,0.124204,-0.677654,-0.664551,0.314892
0.018253,0.062685,-0.996954,-0.110267,-0.022882,0.993639
0.010686,-0.063140,-0.137381,-0.725401,0.685704,0.060033
-0.242056,0.020831,0.705968,-0.050004,-0.944255,0.325395
0.342676,-0.106297,0.407114,-0.028265,0.122037,0.992123
-0.569142,-0.799547,0.476451,-0.357055,0.870630,-0.338403
0.463898,-0.172160,-0.980814,0.253819,0.049963,-0.965961
-0.528361,0.593187,-0.075031,0.991053,-0.108971,-0.077063
0.067583,-0.170085,0.703187,0.219360,0.416569,-0.882242
0.363068,-0.421869,0.600760,-0.558189,0.270963,0.784222
-0.470553,-0.041336,0.515661,0.914237,0.405181,-0.000043
-0.703394,-0.139195,0.507109,-0.674127,0.716680,0.178670
-0.144728,-0.197014,0.569823,0.826107,-0.286747,-0.485101
-0.442876,0.303375,0.402880,-0.690269,-0.713156,0.122216
0.174719,-0.043479,-0.990009,-0.057623,0.069717,0.995901
0.619663,-0.529526,-0.968503,-0.129617,0.145795,0.980787
-0.905405,0.148736,0.287612,0.020129,0.834390,0.550806
0.543007,-0.497143,-0.972360,-0.163362,0.221753,0.961321
0.010826,-0.066907,-0.284957,0.902547,-0.411749,-0.125980
-0.140103,0.050747,0.801631,-0.715428,0.648448,0.260149
-0.027431,0.405840,0.396033,-0.156174,-0.026962,0.987361
-0.069193,-0.095135,0.567643,0.978461,0.000916,0.206429
-0.025609,-0.043285,-0.710495,0.864131,0.456647,0.211544
-0.195318,-0.246464,0.765257,-0.540364,0.841039,-0.025686
-0.477139,-0.097535,0.514836,-0.579921,-0.109157,0.807327
0.234910,-0.478975,0.695292,0.976058,-0.019010,0.216677
0.283818,0.321413,0.412382,-0.437124,-0.566408,0.698644
0.250676,0.503568,0.185856,-0.751278,0.641122,0.156665
0.030726,-0.261712,0.328037,0.809292,0.060114,-0.584322
0.427602,-0.080401,0.408483,0.119419,0.209682,0.970450
-0.158812,0.748021,0.393895,-0.640014,0.768075,-0.021034
0.495499,-0.121870,0.402405,-0.470412,-0.276465,-0.838022
-0.483306,-0.322193,0.466013,0.569551,-0.090288,-0.816982
0.595349,0.471058,0.592474,-0.415997,0.811774,0.409842
0.265110,0.291565,0.591621,-0.609498,0.792687,-0.012653
-0.097992,0.159117,0.388753,-0.753127,0.657758,-0.012391
-0.130083,-0.143738,0.864736,-0.620883,-0.234373,-0.748046
-0.423466,-0.414863,0.540967,0.585082,0.188122,-0.788853
-0.786848,0.421156,0.285334,-0.689864,0.083339,0.719126
-0.091406,0.766058,0.410803,-0.088486,-0.189539,0.977878
-0.056089,0.945682,0.438177,0.980722,-0.075696,-0.180151
-0.404757,-0.752564,0.505111,0.690025,0.256897,-0.676660
-0.020494,-0.100066,-0.480378,0.973321,-0.229232,0.009986
-0.106751,0.087931,0.401944,0.294725,-0.125505,-0.947304
-0.251794,-0.899029,-0.979976,-0.014288,0.137553,0.990391
-0.433206,0.309994,0.606950,-0.534341,0.349797,-0.769495
0.068423,-0.115315,-0.103328,0.592535,-0.799483,0.098636
-0.736047,0.674822,0.466795,0.104960,-0.968230,0.226967
0.035210,0.367033,0.403062,-0.486996,-0.755279,0.438622
-0.608870,0.645228,0.445737,0.176531,0.666841,0.723989
0.332167,-0.444711,0.445066,-0.059248,-0.838054,0.542361
0.393336,-0.025438,0.573945,-0.563418,0.496511,-0.660331
0.772136,0.367682,0.624096,-0.498919,0.841103,0.208870
-0.679851,0.701946,0.454499,0.697051,-0.665081,0.267931
0.016993,-0.070277,0.086671,0.891988,0.311753,0.327364
-0.097152,-0.150423,0.216724,0.204307,-0.316897,-0.926194
0.015172,-0.003052,-0.043716,-0.058167,-0.322950,0.944627
0.338054,-0.524595,0.592725,-0.648353,0.699327,0.300965
-0.179973,-0.281116,0.839918,0.091784,-0.993383,0.069034
0.159795,-0.429981,0.705073,0.469370,0.410552,0.781754
-0.039134,0.883582,0.441168,0.913978,0.265459,-0.306881
-0.171355,-0.037380,0.359646,-0.560098,0.355766,-0.748145
-0.043407,-0.337054,0.212546,0.490788,-0.019056,-0.871070
0.041448,-0.052110,-0.224730,0.951413,0.257706,-0.168526
-0.051817,0.004735,0.409951,0.952995,0.254377,0.164600
-0.249063,0.234977,0.442551,0.158262,0.176061,0.971574
0.044110,0.078781,0.491445,0.306082,-0.408348,0.859980
0.708794,0.406359,0.609354,0.730312,-0.046451,0.681533
-0.104018,-0.040493,0.424358,-0.596515,-0.767915,-0.233400
-0.264827,-0.020895,0.839373,0.175698,0.816819,-0.549488
-0.464527,0.242439,0.307510,0.815348,0.015656,-0.578760
-0.078863,-0.075339,-0.782585,0.838110,-0.545085,-0.021297
0.273798,0.430888,0.194869,0.436215,-0.383536,-0.814013
0.338334,0.282154,0.386978,0.497546,0.644804,0.580238
-0.572505,0.614536,0.442230,0.683599,0.491501,0.539555
-0.042356,-0.327774,0.785785,0.047572,0.968053,0.246192
-0.380232,-0.361519,0.710509,0.961181,-0.274869,-0.024065
-0.977859,0.033874,0.309383,0.491726,-0.405425,0.770608
-0.021475,-0.093056,-0.547563,0.674262,-0.726357,-0.133330
0.648041,0.362232,0.554270,-0.880067,0.337179,0.334353
-0.338261,0.356584,-0.039329,0.109863,-0.058231,0.992240
0.032197,0.081633,0.701202,-0.583100,0.762614,-0.280024
-0.644326,0.595393,0.452961,0.216987,0.685416,0.695069
-0.278701,-0.094680,0.899698,0.502027,0.768308,-0.397080
0.049225,-0.591306,0.569068,-0.442701,-0.621485,0.646354
-0.713485,0.547243,0.290113,-0.814235,0.571957,0.099428
0.032268,0.077094,0.685915,-0.041879,0.811328,0.583090
-0.011806,-0.085336,-0.014386,0.674090,-0.737954,-0.032036
0.236522,-0.494030,-0.982729,-0.102205,0.111965,0.988442
-0.026101,-0.133487,-0.023133,-0.711261,0.585736,0.388614
0.216130,0.090006,0.597393,-0.560907,0.318456,0.764179
-0.226921,-0.542830,0.203854,-0.576938,0.109649,-0.809395
-0.231054,-0.523102,0.560446,0.959278,-0.208095,0.191005
-0.225379,0.544581,0.455616,-0.435441,0.840608,0.322132
-0.494308,-0.054641,0.518120,-0.722256,-0.437341,0.535798
-0.825035,-0.077744,0.461373,-0.345388,0.524031,-0.778523
-0.061555,0.130303,-0.045002,-0.129572,0.364307,-0.922221
0.359704,-0.144256,0.580540,-0.376120,0.833582,0.404566
0.067444,-0.219467,0.326961,0.774583,0.319943,0.545581
0.073609,-0.195976,-0.981317,-0.172508,-0.333230,0.926930
-0.236800,0.421350,0.171477,0.194048,0.446714,-0.873380
-0.317801,0.495456,-0.046022,0.094127,-0.749278,0.655532
-0.065479,0.153406,0.646272,0.235367,-0.968306,0.083581
0.410854,-0.049448,0.567503,0.927240,-0.011586,-0.374287
-0.087200,-0.109346,0.279577,0.609964,-0.789575,-0.067204
-0.007112,-0.216611,0.451159,-0.013744,-0.952109,-0.305451
-0.031567,-0.535369,0.539681,-0.658064,0.308781,0.686736
0.047474,-0.614730,0.563968,-0.593236,-0.339097,0.730126
0.852787,-0.091175,0.383093,0.551139,0.720857,0.420252
0.392988,-0.100779,-0.982281,0.182554,0.179685,-0.966637
-0.129944,0.072745,0.808603,0.705943,-0.663699,0.247283
0.047333,-0.997794,0.071929,0.657305,-0.753319,0.021479
0.413657,0.025374,0.256381,0.993670,0.071967,0.086258
0.317871,0.008565,-0.986110,0.191920,0.123029,-0.973669
-0.682864,0.244063,0.286606,0.654145,0.434778,-0.618921
-0.160775,-0.063921,0.346217,-0.193865,0.828260,0.525739
0.424028,-0.308113,-0.972821,-0.040362,-0.018687,0.999010
0.107243,-0.578521,0.261523,0.723963,0.203721,0.659072
-0.489402,0.215962,0.154541,-0.380248,-0.772854,0.508043
-0.130575,-0.116939,0.857902,0.897849,0.170377,-0.406004
0.145781,0.191302,-0.029421,0.633358,0.252767,-0.731414
-0.072696,0.437118,0.180951,0.077452,-0.745657,0.661813
0.272819,-0.106035,0.290099,0.822196,-0.554621,-0.128017
-0.313807,-0.137507,0.521572,-0.089318,0.225666,0.970102
-0.831273,-0.071189,0.451871,-0.231576,0.335034,0.913305
-0.322285,0.495068,0.447274,0.362317,0.513672,-0.777732
0.568021,-0.170021,-0.978033,-0.087524,0.100656,0.991064
-0.656027,0.713432,0.465244,-0.460582,0.374550,-0.804722
-0.166170,-0.022325,0.844250,0.372023,-0.892850,-0.253808
-0.055529,-0.099936,0.835279,0.270148,0.711307,0.648894
-0.195038,-0.153081,0.687774,0.705754,0.512441,0.489199
-0.484217,0.474108,-0.079461,0.211372,0.390348,0.896075
0.233718,0.187801,0.608222,0.703848,0.481796,-0.521987
0.033949,0.083063,0.428927,0.217715,-0.961366,0.168452
0.175771,-0.727061,-0.977964,0.212615,-0.070101,-0.974618
0.992503,-0.155937,0.369595,0.525054,0.791917,-0.311747
0.293558,-0.008957,0.407519,0.005869,0.187177,0.982309
0.507131,0.619598,0.181580,-0.274279,0.439904,0.855135
-0.103178,0.066321,0.822018,0.710033,-0.527576,-0.466386
-0.359563,0.361646,0.559622,0.843270,-0.120645,0.523775
0.147883,-0.542050,0.247969,0.979060,0.203455,0.006966
-0.304697,0.080401,0.827482,0.576331,0.761970,0.295371
-0.225308,-0.032318,0.325368,-0.254830,0.891094,0.375517
-0.651402,-0.254837,0.449161,0.968485,-0.190981,0.159884
-0.792384,0.126607,0.293858,0.057427,-0.246540,0.967430
-0.232175,0.556780,0.455742,-0.290331,0.930052,0.225191
0.186422,-0.102922,-0.989869,-0.033706,0.089306,0.995434
-0.451564,-0.511485,0.507906,-0.780052,0.623779,0.049183
0.021617,-0.299545,0.311129,0.671293,0.086454,-0.736133
0.338054,0.346009,0.635988,-0.111405,0.881766,0.458342
-0.137792,-0.025438,0.895995,-0.424611,-0.808484,-0.407503
0.671586,0.544645,0.596386,0.792316,-0.083115,-0.604423
-0.501103,0.445036,0.118210,-0.577600,0.773394,0.261227
-0.490803,-0.066321,0.226645,0.056423,0.968849,0.241140
-0.714535,0.425826,0.286466,-0.323492,0.704250,0.631969
-0.168413,-0.013694,0.729150,0.637668,0.757836,0.138069
-0.042707,-0.040754,0.248346,0.454707,0.709068,-0.538947
-0.278141,0.486568,0.436696,0.019197,0.362223,0.931894
-0.048312,0.906811,0.402083,-0.649789,0.759338,-0.034368
0.607540,0.474820,0.582008,0.764208,-0.598223,-0.241073
-0.182917,-0.134069,0.669706,0.293550,0.951975,0.087023
-0.043548,-0.161391,-0.875188,0.961651,0.235987,-0.139779
0.025122,-0.119403,0.417846,0.398705,0.839567,0.369000
-0.114528,-0.361001,-0.989380,0.331374,0.100724,0.938108
-0.628139,0.287798,0.301907,0.794728,0.095094,-0.599470
0.283258,-0.403959,-0.984042,-0.085538,-0.024154,0.996042
0.309534,-0.366775,0.588296,0.782117,0.002424,-0.623127
-0.755247,0.165930,0.297966,0.299927,-0.227289,0.926490
0.344640,-0.128227,0.606392,-0.640033,-0.533702,-0.552738
0.017554,-0.205905,0.316761,0.987821,0.114443,0.105417
0.628701,0.454835,0.610262,0.172607,0.965854,-0.193215
-0.201485,0.074888,0.727389,0.398680,-0.825967,0.398537
0.205270,-0.717844,-0.979724,-0.113785,0.108119,0.987605
-0.032687,-0.128683,0.476800,0.575683,0.441343,-0.688335
-0.020706,-0.350683,0.315783,-0.032218,0.255515,0.966268
-0.064779,-0.371706,0.872938,0.868222,-0.269208,0.416794
-0.411414,0.673979,0.389200,0.772058,-0.611945,0.171609
0.022808,-0.236471,0.781425,0.642882,-0.577727,-0.502926
0.080616,-0.094291,-0.503448,-0.172071,0.959862,0.221486
0.154539,0.087606,-0.989324,-0.134441,-0.129626,0.982407
0.532777,0.638483,0.175823,0.897105,-0.382488,-0.221145
0.362576,0.303375,0.585012,-0.131022,0.179500,0.974994
-0.919210,-0.420764,0.437185,-0.518200,0.749612,0.411765
-0.275620,0.328356,0.434879,-0.152606,-0.029591,0.987844
0.666399,-0.041079,0.394622,-0.296631,0.143996,-0.944074
-0.077391,-0.068008,0.905790,0.979138,0.123358,0.161465
-0.497740,-0.029331,0.514585,0.870489,0.289458,-0.398075
-0.069193,0.024400,0.769743,0.986781,-0.044769,-0.155754
0.680974,-0.093448,0.398562,-0.139940,-0.188464,0.972059
-0.048804,-0.023945,0.174258,0.814184,0.381590,-0.437600
-0.580283,-0.164892,0.458481,0.450582,-0.559771,0.695437
0.330206,-0.385660,0.602800,0.371945,0.662916,0.649768
-0.259992,-0.318367,0.782724,0.652098,-0.673899,0.347315
-0.304768,-0.040299,0.305302,-0.003096,0.206130,0.978520
0.173599,0.669761,0.412704,-0.289632,-0.917638,-0.272129
-0.361385,-0.121803,0.352980,0.446609,0.827550,0.340149
-0.161264,-0.079431,0.785114,-0.274968,-0.056842,0.959772
-0.714255,0.661712,0.462869,0.918923,-0.285734,0.271912
-0.153487,-0.235690,0.785421,0.008079,-0.089512,0.995953
0.286831,0.271575,0.338084,0.284835,0.915113,-0.285373
-0.126931,-0.168461,0.891271,-0.272486,-0.431822,0.859815
-0.695266,-0.202400,0.505768,0.449776,0.814686,-0.366044
-0.288371,0.456977,0.173769,0.526191,-0.040914,-0.849381
-0.036401,-0.087087,0.432169,-0.675789,-0.687530,0.265729
-0.019795,-0.582351,0.564708,0.539908,0.575414,-0.614327
-0.241844,0.302013,-0.043116,-0.153031,0.116725,0.981304
-0.622744,0.733355,0.005443,-0.550306,0.597124,-0.583615
-0.703675,0.629005,0.375813,0.950620,0.131274,-0.281228
-0.456749,-0.046786,0.786483,-0.367237,-0.292006,0.883102
-0.082297,0.946593,0.425182,0.946221,-0.233019,0.224427
-0.661634,0.482607,0.259203,-0.065231,0.711487,0.699665
0.284870,-0.286439,-0.983162,0.042224,0.036693,0.998434
-0.356058,0.095717,0.510421,0.400712,0.590875,-0.700211
0.157552,-0.406034,0.702670,0.290411,0.326163,0.899599
-0.114387,0.727643,0.406331,0.686047,-0.003962,-0.727547
-0.270154,-0.249513,0.863534,0.862015,0.195264,0.467764
-0.757910,-0.214797,0.356907,-0.457554,0.702335,0.545317
0.106751,-0.390655,0.705395,0.475489,0.745855,-0.466488
-0.200925,0.164634,0.370797,-0.419855,0.796249,0.435557
0.183548,-0.365607,0.587723,-0.400301,0.073456,-0.913435
0.211157,0.141270,0.243679,0.532426,0.803611,0.265954
-0.048312,0.000972,0.733146,0.372429,0.083745,0.924275
0.255581,0.432381,0.199410,-0.382406,0.138772,0.913514
-0.256560,-0.098767,0.179847,0.688498,-0.635150,-0.350078
-0.314087,-0.495199,0.377210,-0.004781,0.111829,0.993716
-0.688680,-0.209217,0.447162,-0.386992,-0.211441,0.897513
-0.036190,-0.041728,-0.715777,0.300887,0.942153,0.147702
-0.037943,-0.118690,0.663963,-0.673107,0.722520,-0.157772
-0.174368,-0.091824,0.821096,0.571170,0.815664,-0.091964
0.416180,0.312006,0.596247,-0.528300,0.753294,0.391723
-0.384997,0.068982,0.513677,0.396587,0.915655,0.065535
0.402587,0.358271,0.581281,-0.560057,0.110873,0.821002
-0.478330,-0.180727,0.139659,-0.515722,0.422208,0.745501
-0.283326,0.383775,0.511623,-0.703079,-0.207347,-0.680211
-0.539992,0.378131,-0.018215,0.973132,0.224786,-0.049851
0.020006,-0.060934,0.095237,-0.565424,0.780219,0.267495
-0.463406,0.409797,0.154918,0.792964,0.295161,-0.532999
0.215010,-0.246464,0.457712,-0.352042,0.555946,-0.752988
0.282488,-0.700326,-0.976105,0.065543,-0.002037,-0.997848
0.173599,0.023101,0.468891,-0.859209,0.124275,-0.496302
-0.194268,-0.326281,0.597546,0.989202,0.049199,0.138057
-0.308411,-0.022974,-0.037931,-0.568106,-0.040855,0.821941
-0.112848,-0.119209,0.839779,-0.670926,-0.711533,-0.208753
-0.257610,-0.300132,0.770553,-0.656372,0.713300,-0.245721
-0.659881,0.345229,0.161640,0.210145,0.218178,0.953015
0.397472,-0.497211,0.586297,0.715011,0.029121,-0.698506
-0.071575,-0.412264,0.568677,0.319271,0.554851,-0.768249
-0.361034,0.323880,0.522801,0.996387,-0.070055,-0.048017
-0.165960,-0.028424,0.427543,0.181935,0.980154,-0.078721
-0.577900,0.321805,0.146003,0.647854,0.761527,-0.019028
-0.227340,0.634134,0.174984,0.885955,0.112711,0.449866
-0.544546,0.293509,0.161360,0.284071,-0.391762,-0.875115
-0.347300,-0.123558,0.287374,0.634313,-0.355584,0.686445
0.207864,0.177808,0.407938,-0.596926,-0.435271,0.673957
-0.714045,0.334067,0.287248,-0.062303,0.269957,0.960855
-0.656449,-0.286309,0.451550,0.662273,0.175419,-0.728438
0.359563,-0.002533,0.259636,0.114979,0.993334,-0.008165
-0.090564,0.338547,0.486861,0.807211,-0.066336,-0.586523
-0.148021,-0.694032,0.176508,0.493948,0.583358,-0.644755
-0.287179,-0.316030,0.780964,0.804612,-0.515526,0.294671
-0.339242,0.240689,0.304548,0.647771,0.742305,-0.171392
-0.711171,0.517003,0.265603,0.736204,-0.288860,-0.612015
-0.170303,-0.180402,0.649430,-0.477355,0.878711,-0.000382
-0.640052,-0.378455,0.447386,0.424966,0.433841,-0.794472
-0.717129,0.450811,0.292894,0.160543,0.035749,0.986381
0.065552,-0.132188,-0.139505,0.865612,-0.455927,-0.206992
-0.359702,0.139131,0.371691,0.486684,0.494716,0.719996
-0.010335,-0.111877,0.715274,-0.003488,0.507979,0.861362
-0.930841,-0.243152,0.426523,0.330961,-0.485166,-0.809369
-0.507129,-0.284879,0.458411,0.452843,-0.161154,-0.876905
0.360335,-0.181376,-0.986054,-0.076839,0.114905,0.990400
-0.754475,0.102399,0.290867,-0.187789,0.873098,-0.449927
0.380164,-0.461584,0.617696,0.517407,0.844199,0.140064
-0.196511,-0.413108,0.287682,0.712858,0.170451,0.680280
0.114879,0.683778,0.416770,-0.702759,-0.597691,0.385870
