0.157220,-0.557469,0.166600,0.884693,0.465280,0.028846
0.141740,-0.321005,0.494201,-0.451698,-0.678275,0.579579
-0.071174,0.479917,0.679695,-0.510745,0.632446,-0.582367
-0.673421,-0.434117,0.883560,-0.646100,0.762001,0.043704
0.050685,-0.033419,0.849603,-0.641104,-0.220540,0.735084
0.103574,-0.153359,0.778295,0.687073,0.664943,-0.292885
-0.486078,0.451260,0.772793,0.986996,-0.111771,0.115524
-0.209576,0.858548,0.786124,0.417897,0.842176,-0.340736
-0.393884,0.081360,0.671817,0.806795,0.535970,-0.248632
-0.488354,-0.637086,0.879610,0.342616,0.878381,0.333257
-0.411033,0.430306,0.741114,-0.330787,0.938336,-0.100524
0.375824,-0.456580,-0.967012,0.358055,-0.038263,-0.932916
0.086804,0.299968,0.599152,0.133082,-0.567976,0.812214
-0.163139,0.747500,0.770733,0.776104,0.225095,0.589063
-0.692844,-0.343865,0.851833,0.154044,0.438471,0.885446
-0.126643,0.742815,0.782294,-0.057396,-0.750273,0.658632
-0.454435,0.131846,0.801224,-0.429469,0.433466,-0.792252
-0.174217,0.537387,0.833145,0.805626,-0.592424,-0.000783
0.001972,0.814731,0.767388,0.884044,-0.029132,0.466494
0.306927,0.649704,0.773059,0.044273,-0.807957,0.587576
0.017375,-0.882520,0.713870,-0.098171,-0.659096,0.745624
-0.587755,0.074851,0.676762,0.290389,-0.760108,0.581300
-0.443207,0.158199,0.675138,-0.455097,0.635662,-0.623555
0.198952,-0.706224,-0.122438,0.404173,0.912888,-0.057262
-0.444344,-0.812430,0.923287,0.216215,0.970842,-0.103521
-0.172700,-0.430307,0.860583,-0.636573,-0.738710,-0.221547
0.162380,-0.622876,0.217039,0.610953,0.767474,0.194217
-0.241977,0.458881,0.839181,0.272615,-0.934282,0.229777
-0.278246,-0.307667,0.684712,0.196230,0.701602,-0.685018
0.465969,-0.479680,-0.964928,0.167284,-0.191731,-0.967086
0.158661,-0.441181,0.127116,-0.097719,-0.858936,0.502672
-0.197816,0.502143,0.838696,-0.777705,0.606521,-0.165247
0.341301,-0.771630,-0.548470,-0.147104,0.989052,-0.011667
0.167539,-0.690428,-0.991517,-0.413895,-0.123027,0.901973
0.372941,-0.838386,-0.709871,0.907486,-0.384212,0.169853
-0.338645,-0.263533,0.581555,0.622032,0.175606,-0.763046
-0.182412,-0.154549,0.519893,0.783678,0.548911,-0.290767
0.761211,0.404985,0.743271,0.204154,0.006907,0.978914
-0.388042,-0.411337,0.782149,0.330714,-0.385438,0.861432
-0.674255,-0.073187,0.711568,0.257820,0.662549,-0.703248
0.338038,0.349817,0.745961,0.908044,-0.417516,0.033718
0.107215,-0.241070,0.526850,-0.579388,0.581809,-0.570796
-0.274074,0.597237,0.821390,-0.717953,-0.607231,0.340314
-0.124820,-0.600651,0.620142,-0.748475,-0.501227,-0.434232
0.292131,-0.690348,-0.976053,-0.153414,0.040636,0.987326
-0.433189,-0.382362,0.944156,0.794216,0.607635,-0.000804
-0.217468,-0.234086,0.953729,-0.344722,0.885132,-0.312584
0.036952,0.225036,0.777156,0.819222,0.538643,-0.196822
-0.382049,-0.191302,0.718936,-0.069991,-0.030575,0.997079
-0.088930,0.757659,0.760310,0.326329,0.517156,-0.791239
-0.506411,0.706222,0.939672,-0.187943,0.689521,-0.699456
-0.645800,0.505159,0.806702,-0.049348,-0.834438,0.548888
0.303665,-0.363630,-0.979422,0.417810,0.039252,-0.907686
0.151452,0.073107,0.901981,0.800070,0.203019,-0.564510
0.079673,-0.815526,0.727637,0.881864,-0.203118,0.425509
0.034675,-0.584777,0.530582,-0.108142,0.993886,-0.022284
0.162833,-0.695428,-0.104284,-0.238487,-0.967838,0.080087
-0.587981,0.772184,0.929467,-0.118820,-0.675896,0.727356
0.217542,0.735354,0.799673,-0.067132,-0.876703,0.476324
-0.647394,0.521510,0.796498,0.406574,0.913221,0.026922
0.314590,-0.375456,0.641980,0.309998,-0.853158,0.419551
-0.835193,-0.505716,0.642392,-0.110701,0.978715,-0.172807
-0.531529,0.622399,0.897328,0.964173,0.155888,0.214639
-0.519768,-0.396492,0.612725,-0.035421,0.982356,0.183637
-0.269218,0.613826,0.833606,0.584276,0.727838,-0.358988
-0.407618,-0.448167,0.930728,0.935421,-0.331144,0.123821
-0.679263,0.528892,0.812761,0.696136,0.717231,-0.031212
-0.615373,-0.561836,0.865455,0.525764,0.216521,0.822612
-0.412020,0.116604,0.772381,0.495218,0.726427,-0.476512
-0.223917,0.857993,0.803793,-0.587867,0.333383,0.737067
0.223461,-0.269170,0.660062,0.572083,0.809621,0.131282
0.179603,0.107794,0.878131,0.712762,0.137842,0.687728
0.196070,-0.617082,-0.986790,-0.374183,0.186201,0.908469
0.160483,-0.348945,0.611731,0.051891,-0.827310,0.559343
-0.288565,-0.065566,0.789008,0.855851,0.331834,0.396744
0.255708,-0.000079,0.621596,0.560137,-0.306700,0.769534
0.213446,0.071360,0.435424,0.091709,-0.831914,0.547274
-0.449276,0.150816,0.673490,-0.416611,0.597697,-0.684977
-0.263602,0.593902,0.815549,0.713304,0.317942,-0.624588
-0.595266,0.231703,0.712464,0.937263,0.109865,-0.330860
-0.378483,0.596760,0.872750,0.296333,-0.027473,0.954689
-0.730633,0.546197,0.799624,-0.615469,-0.312268,-0.723662
-0.157751,-0.062390,0.699376,0.267579,-0.510725,0.817044
-0.777374,0.038021,0.699957,0.194412,0.506493,0.840041
0.334546,-0.626529,-0.971084,-0.437793,0.144169,0.887442
-0.166022,0.715746,0.770224,0.276848,-0.640715,0.716128
-0.052205,0.853388,0.786657,-0.328011,0.540082,-0.775062
-0.136961,0.169868,0.616700,0.914061,0.315462,0.254905
0.650656,0.474123,0.753936,0.061680,-0.384066,0.921243
-0.188787,0.527542,0.854790,-0.507865,-0.742235,0.437220
-0.466272,0.412603,0.777059,0.217601,0.957494,-0.189355
-0.451552,-0.302510,0.724899,0.895068,0.076313,-0.439352
-0.268305,-0.153279,0.883076,0.692953,-0.540767,0.476852
-0.601639,-0.800762,0.902999,0.109139,-0.417730,0.901992
-0.013279,0.013891,0.860098,0.350013,-0.931834,0.095796
0.302755,0.227020,0.798073,0.965192,0.011899,-0.261270
0.293270,-0.759963,-0.304951,-0.541451,-0.840339,-0.025711
0.382729,0.404111,0.691935,0.721994,0.157074,-0.673834
-0.641248,-0.329735,0.855008,0.402241,-0.746484,-0.530060
0.412020,-0.727338,-0.961971,-0.285601,0.200189,0.937207
0.025950,0.277346,0.703836,0.757087,0.269849,-0.594979
0.306321,0.640657,0.766782,0.227625,0.839875,-0.492744
-0.519918,-0.401572,0.866448,0.417137,-0.699243,0.580566
0.288792,0.198760,0.547525,0.195132,-0.976313,0.093464
-0.120798,0.815526,0.790535,-0.723677,-0.035283,-0.689236
-0.399728,-0.464519,0.922802,0.881568,-0.110151,0.459026
-0.531300,-0.847834,0.890274,0.164338,-0.315077,0.934729
-0.173383,0.003729,0.879004,-0.675963,-0.327211,-0.660308
-0.271418,-0.101365,0.730934,-0.504451,-0.003235,-0.863434
0.323317,-0.508652,-0.983058,-0.367992,0.023858,0.929523
-0.473405,0.615175,0.776768,0.241459,0.058019,0.968675
-0.667426,0.032704,0.718378,0.500991,-0.555430,-0.663706
-0.600046,0.491664,0.685802,0.394894,0.224651,0.890837
0.300782,-0.357518,-0.982743,0.403040,0.058297,-0.913324
-0.576297,0.168993,0.683791,0.234343,0.638943,-0.732691
-0.400335,-0.816718,0.873066,0.702892,-0.576046,0.417270
-0.368086,0.541435,0.786366,0.292623,-0.747331,-0.596547
-0.131802,0.036274,0.729286,0.781970,-0.622878,-0.023336
-0.388042,-0.376488,0.691498,-0.305699,0.949604,-0.069284
-0.283329,0.676852,0.835424,0.160781,-0.146417,-0.976069
-0.047502,-0.246707,0.386221,0.878251,-0.087808,0.470069
0.760528,0.440703,0.750082,0.049406,-0.436066,0.898558
0.244556,0.340449,0.764794,0.241170,-0.537726,0.807891
-0.273238,0.685345,0.770951,-0.461769,-0.072029,0.884071
0.263146,-0.727178,-0.292783,-0.446111,-0.892474,0.066890
-0.709158,-0.514050,0.883051,-0.200516,0.391542,-0.898047
-0.610061,-0.430544,0.893110,-0.293633,0.574910,-0.763713
-0.057970,0.648118,0.745501,0.328936,0.943280,0.044993
0.035662,0.243291,0.733139,0.619195,0.746531,0.243494
-0.782686,0.429909,0.725141,0.269430,0.919740,-0.285456
0.175734,-0.298302,0.206350,0.645526,0.696637,-0.313040
0.123150,-0.764248,-0.993383,0.398918,-0.024507,-0.916659
-0.592687,-0.243849,0.831255,-0.672753,0.072607,-0.736295
0.264663,-0.664629,-0.979979,-0.490703,-0.004110,0.871317
-0.286745,0.359977,0.744337,0.501901,-0.512130,0.697007
-0.093634,0.508969,0.840562,0.977573,-0.051695,0.204154
0.327870,0.203523,0.745670,0.702546,0.687734,0.182897
-0.079066,0.318781,0.626492,0.057567,-0.948022,0.312953
0.152665,0.792426,0.741186,0.324133,-0.588707,0.740514
0.173534,-0.140896,0.295910,0.670564,0.677096,-0.303126
-0.285379,0.866644,0.800836,-0.599478,-0.051885,-0.798708
-0.114879,-0.445706,0.803381,0.730006,0.655341,-0.193956
-0.123683,0.758691,0.760989,-0.006966,-0.429484,0.903047
0.110250,0.553896,0.861504,0.240043,0.930017,-0.278295
-0.080508,-0.585729,0.572368,-0.446330,0.876913,-0.178361
0.007131,0.318781,0.693583,0.231287,0.652919,0.721251
0.025267,0.297982,0.602206,0.013294,-0.838835,0.544224
0.264663,-0.359899,-0.982767,-0.207600,0.109702,0.972043
0.079747,-0.635022,0.667600,-0.149888,-0.970928,-0.186635
-0.174747,-0.077632,0.871563,0.669207,0.400466,0.625931
0.180059,0.134384,0.494952,-0.070272,-0.896612,0.437207
-0.683286,-0.031592,0.713482,-0.366572,-0.524260,0.768620
-0.316033,-0.770677,0.850379,0.702297,-0.475411,0.529871
0.227103,-0.695348,-0.308732,0.600798,0.794290,0.090250
0.015706,0.448404,0.802969,0.442271,0.885013,-0.145426
-0.489795,0.607079,0.882567,0.397732,-0.345031,0.850155
-0.513546,0.369264,0.694189,0.070096,-0.388135,0.918933
-0.157524,0.092157,0.784112,0.831261,-0.544598,0.111436
-0.437135,-0.454914,0.988293,-0.359237,0.274542,-0.891951
-0.499203,0.594934,0.853966,0.902201,0.054551,0.427853
0.265496,0.594379,0.644453,-0.398237,0.787301,-0.470707
-0.120344,-0.548341,0.664546,0.937051,0.267734,-0.224173
-0.142120,0.029291,0.753693,-0.087538,-0.861478,0.500193
0.235829,-0.711779,-0.984076,-0.452170,-0.064246,0.889615
-0.210336,-0.496984,0.646028,-0.231586,0.959021,0.163237
-0.130739,-0.445229,0.791408,0.654148,0.748974,-0.105495
0.056528,-0.278458,0.554772,-0.290136,0.865819,-0.407650
-0.880493,-0.505556,0.656547,-0.145392,0.950062,-0.276123
-0.390924,0.355929,0.736920,0.692015,0.668382,-0.272729
-0.496320,0.557866,0.844852,-0.620405,0.767872,-0.159594
0.526214,-0.598350,-0.954554,-0.099464,0.160196,0.982061
0.611200,-0.725829,-0.961219,0.055701,0.392121,0.918226
-0.268609,0.330052,0.715906,0.598226,0.676253,-0.429892
0.642612,0.239721,0.748361,0.571228,-0.338575,0.747707
0.059867,0.068979,0.672399,0.856357,-0.455614,0.243039
-0.027393,-0.295921,0.467709,0.937869,0.339629,0.071090
-0.073071,0.084773,0.869527,0.003271,-0.060460,0.998165
0.322634,0.607952,0.741914,-0.172860,-0.455063,0.873520
0.735336,-0.061676,0.664109,-0.094999,0.303572,-0.948061
-0.403445,-0.735117,0.879610,0.459530,0.416804,0.784287
-0.065559,-0.294729,0.705169,0.568014,0.798153,-0.200780
-0.484786,0.005079,0.698285,-0.359740,0.736893,0.572342
0.379770,0.343705,0.792159,-0.136955,0.256777,0.956718
-0.118825,0.014763,0.590983,0.872688,0.332207,-0.357848
0.990362,0.430781,0.717797,0.312137,-0.346479,0.884603
-0.054708,0.178361,0.938726,-0.017753,-0.871360,0.490322
0.210866,-0.657565,-0.984536,-0.259655,-0.061457,0.963744
-0.444344,-0.254963,0.936593,-0.215305,0.966535,-0.139476
0.168069,-0.723765,-0.042186,0.482030,-0.855626,0.188549
0.187722,0.407444,0.714646,0.860988,0.372032,-0.346831
-0.016542,0.743212,0.746179,-0.322439,0.819470,-0.473817
-0.502922,0.777424,0.910537,0.407921,-0.848640,0.336766
-0.147962,-0.200747,0.712198,-0.129438,-0.385738,0.913483
0.187798,0.730591,0.799745,0.115814,-0.954183,0.275902
-0.095152,0.701459,0.794534,0.432331,0.892804,0.126454
-0.622658,0.714557,0.795213,0.612119,0.739519,-0.280040
0.101905,-0.903239,-0.992389,-0.206660,0.069403,0.975948
-0.241597,-0.196699,0.876313,-0.612835,0.561364,-0.556151
-0.106761,-0.031752,0.603418,0.425932,0.605105,-0.672628
-0.637834,0.035162,0.727080,0.072681,-0.984342,-0.160589
0.356551,-0.539531,-0.960177,0.441308,-0.244088,-0.863521
-0.059640,-0.645262,0.620675,0.187424,0.933973,-0.304246
-0.245240,0.664312,0.789420,0.679239,0.437451,-0.589297
0.265193,-0.808542,-0.978646,0.313462,0.173353,-0.933644
0.190834,-0.045802,0.876410,0.489376,0.229072,-0.841450
-0.674407,-0.280204,0.836830,-0.341937,-0.394779,-0.852777
-0.501556,0.668834,0.888675,-0.408985,0.872772,-0.266457
-0.277943,0.124462,0.810483,-0.270262,0.904724,0.329292
-0.355338,0.268058,0.688178,0.383696,-0.377034,0.842984
0.011380,-0.495714,0.783627,0.622104,0.779109,0.077303
-0.171941,0.379901,0.778949,0.294293,0.740627,-0.604039
-0.607711,0.549530,0.808035,0.752806,0.138578,0.643490
-0.464223,-0.718051,0.910513,0.590970,-0.236146,0.771356
-0.020337,0.451658,0.827231,-0.068115,-0.746516,0.661872
0.218225,-0.717098,-0.162989,0.906961,0.381656,-0.178215
0.270202,0.749484,0.798388,0.649783,0.695189,0.307401
0.026406,-0.937134,0.699885,0.178865,-0.324929,0.928670
-0.487139,-0.035402,0.841726,0.140575,0.826444,-0.545187
0.158207,-0.578742,0.560371,-0.719474,0.615952,0.320875
-0.574324,-0.453484,0.820639,0.947550,0.145826,0.284401
0.117232,-0.325687,0.624093,0.307058,-0.949220,-0.068537
0.278397,-0.715829,-0.347537,-0.948911,-0.043948,-0.312468
0.180816,0.749484,0.810556,0.230048,0.522259,-0.821172
-0.367479,-0.330133,0.785954,0.901767,-0.235935,-0.362147
-0.519235,-0.261866,0.964734,-0.326284,-0.820731,0.468977
0.092723,0.369979,0.801685,0.742669,0.360967,-0.564044
-0.473634,-0.054137,0.743853,0.881859,-0.202747,-0.425698
-0.189317,0.747023,0.781155,-0.179316,0.096864,-0.979011
-0.252524,0.874979,0.811380,0.699699,-0.566581,0.435209
-0.335002,-0.115337,0.786851,0.130970,-0.816561,0.562206
-0.537825,0.562311,0.790923,0.035824,-0.036713,0.998684
-0.646180,-0.395460,0.878616,0.124336,-0.294635,-0.947487
-0.118218,0.071438,0.915264,0.282210,-0.113719,-0.952589
0.077699,0.561039,0.718936,0.389036,0.126403,0.912509
-0.000455,0.887202,0.782488,-0.007473,-0.575405,0.817834
-0.571365,0.488093,0.785590,0.545989,0.791103,-0.275777
0.103118,-0.573822,0.487584,0.541958,0.801632,-0.252326
0.529933,-0.789173,-0.927213,0.689259,-0.723981,0.027833
0.005387,0.464201,0.817415,0.672146,-0.365984,-0.643643
0.124591,-0.569535,0.410580,0.903821,-0.375956,-0.204363
-0.440627,0.681457,0.868024,0.566473,-0.699014,0.436450
-0.485622,-0.201541,0.968612,-0.620463,0.179628,-0.763387
-0.019425,-0.561994,0.537684,-0.238658,0.949944,0.201618
0.301236,0.212255,0.561558,-0.102007,-0.970143,0.220040
-0.390244,0.319653,0.694383,-0.094777,0.989127,-0.112454
0.141210,-0.126529,0.788378,0.629168,0.745713,-0.219225
-0.152441,0.014923,0.871345,0.156473,-0.519687,0.839906
-0.232872,-0.320290,0.676665,0.965171,-0.261300,0.012915
-0.416192,0.408238,0.726353,-0.317933,0.671060,-0.669774
-0.247212,0.644624,0.734157,0.356776,-0.473545,0.805274
-0.635482,0.512065,0.806023,0.042056,-0.966911,0.251623
-0.054101,-0.245913,0.505787,0.853447,-0.165102,0.494337
0.299339,0.380615,0.756335,0.846983,-0.383272,0.368406
0.436982,0.239084,0.656547,0.824403,-0.284343,-0.489397
0.134379,0.085093,0.456559,0.180657,-0.782099,0.596393
0.105394,-0.017385,0.633860,-0.270909,0.730290,-0.627125
-0.663404,-0.014129,0.727153,-0.179441,-0.594097,0.784123
0.871613,0.197888,0.723493,-0.381503,0.184602,-0.905747
0.036345,0.183283,0.528910,0.169919,0.899899,-0.401634
0.429167,0.545960,0.726571,-0.554801,0.567887,-0.608029
-0.664619,0.236147,0.675671,0.522453,-0.005008,-0.852653
-0.555961,0.270757,0.720148,-0.013847,-0.689156,0.724481
-0.116322,0.100570,0.871320,-0.479322,0.101994,-0.871693
-0.253282,0.534051,0.743028,-0.467013,0.248715,-0.848552
0.090294,-0.537864,0.560759,0.775142,0.572493,0.267221
-0.362926,0.425702,0.793177,0.067348,-0.415127,0.907267
0.153652,-0.630180,0.249179,0.325067,0.941728,-0.086485
0.279080,0.753134,0.802727,0.349167,-0.304360,0.886255
0.293800,0.381568,0.745428,0.746483,0.492515,0.447428
-0.585402,0.463169,0.792571,-0.609519,-0.685429,0.398339
0.112223,-0.600413,0.351294,0.687667,-0.637478,0.347472
-0.600729,0.469836,0.785930,-0.313730,0.874517,-0.369855
-0.144396,-0.181140,0.945125,0.042371,0.582708,0.811576
-0.320662,-0.096445,0.923359,-0.577500,-0.748739,-0.325396
-0.472951,0.580806,0.790656,0.849453,0.463989,-0.251285
-0.340618,0.629543,0.850330,0.277054,-0.884639,0.375041
-0.687306,0.245913,0.677101,0.234257,-0.101751,-0.966835
-0.369452,0.436656,0.683670,0.747924,0.267654,-0.607430
0.128083,0.766232,0.720487,0.098002,-0.612342,0.784496
-0.494803,-0.729164,0.932158,0.957744,-0.010281,0.287438
-0.175583,-0.416099,0.652354,0.742467,0.471450,-0.475897
0.052811,0.665344,0.795867,-0.778536,0.041303,-0.626239
-0.350559,-0.155818,0.915361,0.704486,0.671768,-0.228970
-0.137188,-0.056359,0.854160,0.352227,-0.625463,0.696227
0.296533,0.605176,0.639241,-0.398237,0.787301,-0.470707
0.123604,-0.059692,0.837266,-0.125984,0.987389,0.095870
0.243493,0.425224,0.762540,0.514482,-0.579134,-0.632386
0.194703,-0.493016,-0.992559,-0.199899,0.080183,0.976530
-0.189394,0.139704,0.670072,0.887635,0.448626,-0.104110
-0.360803,0.693761,0.868581,-0.514302,0.857609,0.000205
0.363229,-0.337594,-0.972175,-0.388562,-0.007977,0.921388
-0.298809,0.652643,0.770708,-0.297769,0.337264,0.893077
0.239698,-0.674711,-0.979785,0.385539,0.097051,-0.917573
-0.234615,0.465788,0.840708,-0.645515,0.693618,-0.319695
0.009257,0.584934,0.833897,-0.267922,-0.663922,0.698159
-0.065408,-0.074854,0.499000,-0.664146,0.561513,-0.493572
-0.491084,-0.876488,0.891704,-0.113483,-0.943935,0.310012
0.496774,0.413318,0.761692,0.992342,0.023236,-0.121315
0.471355,-0.793855,-0.954578,-0.358768,0.227338,0.905320
-0.387738,0.090093,0.782948,0.375820,0.831180,0.409755
-0.165642,-0.156375,0.730716,-0.435067,0.421515,0.795639
0.309734,-0.775203,-0.562092,-0.379985,0.899368,-0.216215
0.243644,0.514684,0.750615,-0.234402,0.108774,-0.966035
-0.040140,-0.720592,0.742762,-0.668308,-0.497430,-0.553108
-0.739435,0.431179,0.702527,0.206821,0.864932,0.457294
0.372182,-0.795127,-0.506247,0.217322,0.974475,-0.056294
-0.111846,0.474360,0.823911,0.427028,-0.826967,0.365749
0.179679,-0.006510,0.400085,0.380700,-0.848105,0.368491
-0.733593,-0.078902,0.730279,0.173606,0.826117,-0.536089
0.242657,-0.330290,0.644040,0.189408,0.855336,0.482208
-0.476440,0.748689,0.800739,-0.483564,-0.874549,0.036461
-0.671675,0.392045,0.696637,0.074270,0.452119,0.888860
0.186052,-0.040008,0.362492,-0.585212,0.772045,-0.247938
-0.713030,0.120494,0.701630,0.423944,0.439118,0.792116
-0.150392,0.424035,0.788863,0.328314,0.506705,-0.797157
0.007284,-0.740594,0.752287,-0.544599,0.000624,-0.838697
-0.071781,-0.547072,0.752772,0.871540,-0.291625,0.394175
-0.239473,0.485789,0.774707,0.557698,-0.585374,-0.588481
0.052205,-0.161218,0.788014,-0.491739,0.149284,-0.857850
-0.253131,-0.128115,0.888141,0.479378,-0.293617,0.827034
-0.114879,-0.094143,0.852463,0.755333,-0.280912,0.592082
-0.296686,-0.205352,0.889838,0.676070,-0.628536,0.384541
0.157977,-0.563343,0.515724,0.701983,0.699190,-0.135475
-0.514000,0.126449,0.806847,-0.384789,0.192034,0.902807
-0.048259,0.423320,0.786851,0.182042,0.753636,-0.631580
0.133469,-0.570092,0.148955,0.789733,0.556171,-0.258833
-0.166932,0.287665,0.789299,0.994613,0.102677,-0.014197
-0.137795,-0.480235,0.658971,0.106437,0.945591,0.307456
-0.072691,-0.222418,0.552493,0.652127,0.736394,-0.180150
-0.509371,0.767184,0.803018,0.259273,0.927986,-0.267617
-0.493817,-0.824654,0.876992,-0.612483,0.180356,-0.769633
0.391455,-0.443484,-0.962577,-0.297942,0.054538,0.953025
-0.195463,-0.335690,0.834624,-0.507925,-0.854776,0.106631
0.224904,-0.608826,0.175713,0.957431,0.214726,-0.192923
0.198269,0.392602,0.741017,-0.794457,0.481047,0.370718
0.733819,0.320447,0.726256,-0.403642,0.590506,-0.698839
0.248273,0.106922,0.476216,-0.277917,-0.892148,0.356138
-0.388498,0.071915,0.672399,0.804727,0.578274,-0.134214
-0.601185,0.140893,0.677198,-0.665784,0.745416,0.032949
-0.486305,-0.404271,0.783482,0.786802,0.188686,0.587657
0.176644,-0.595731,0.080555,0.969393,0.186706,0.159432
0.080279,0.172884,0.693437,0.760042,0.534405,-0.369793
-0.014265,0.914905,0.803211,0.061310,-0.413470,0.908451
-0.640338,-0.502381,0.880943,0.248977,-0.311993,0.916881
0.293041,0.518017,0.750809,0.054243,-0.161670,0.985353
-0.119584,0.194475,0.591226,0.520226,-0.649275,0.554803
-0.535475,-0.725829,0.954457,0.793709,-0.018661,0.608011
0.137415,0.608191,0.795795,-0.403654,0.190805,0.894794
-0.496244,0.131846,0.789590,-0.440173,0.811641,0.384039
-0.000152,0.728210,0.773689,0.324134,-0.650651,-0.686725
0.272175,-0.291476,0.647240,0.847084,0.519913,0.110182
0.054631,0.574377,0.803890,0.282800,0.952260,0.114999
-0.306548,-0.266629,0.797806,0.899677,0.291737,-0.324762
-0.095076,0.570327,0.855493,0.622439,0.447560,0.642074
-0.161773,-0.592238,0.638296,-0.047840,-0.886277,0.460677
-0.307157,0.578265,0.803575,0.963728,0.013434,-0.266546
0.175961,-0.584697,0.156250,0.903759,0.425247,-0.048834
0.442141,-0.565090,-0.962916,-0.375695,0.142724,0.915687
-0.027393,0.826163,0.777010,0.173976,-0.311993,0.934020
-0.160559,0.458801,0.826456,-0.046597,-0.761499,0.646490
0.177176,0.006668,0.860025,0.155999,0.966105,-0.205681
-0.331286,-0.790125,0.847446,0.715641,-0.532411,0.452102
0.581834,-0.680663,-0.962722,0.181618,0.190417,0.964757
-0.275894,0.321400,0.682167,-0.515435,0.819595,0.250180
-0.513317,-0.298142,0.785275,0.832247,-0.121777,0.540865
0.107291,-0.559215,0.544422,0.548015,0.797550,0.252177
-0.270885,0.519367,0.855687,-0.498514,-0.643974,-0.580328
-0.254497,-0.297587,0.736775,-0.500984,0.857353,-0.118156
-0.763487,-0.024528,0.722644,-0.320207,-0.236657,-0.917312
-0.473937,-0.292508,0.572950,0.012240,0.405535,0.913997
-0.185598,0.729242,0.796207,0.625171,0.757060,0.189794
-0.176646,-0.451897,0.629982,0.002029,-0.996863,0.079124
-0.495790,-0.021592,0.840102,0.091386,-0.729123,0.678254
-0.268382,0.716541,0.853675,-0.711864,0.701446,-0.034983
-0.033235,-0.462374,0.768212,0.299511,0.938847,-0.169880
0.465286,0.013574,0.717651,0.659926,0.371451,-0.653086
0.194247,-0.610336,0.456123,0.944105,0.171282,-0.281654
-0.383945,0.636766,0.848100,-0.054356,-0.785246,0.616793
-0.527204,0.583742,0.879925,0.430883,-0.478522,0.765086
-0.060173,0.003492,0.871708,-0.281555,0.754789,-0.592469
0.160254,-0.308859,0.183324,-0.568470,-0.774419,0.277700
-0.650582,-0.246310,0.821705,0.217981,0.249818,0.943438
0.009333,0.044213,0.878349,-0.000289,-0.624176,0.781284
-0.372791,0.410857,0.733042,0.458066,-0.474898,0.751430
-0.294106,0.478886,0.790801,-0.126080,-0.178669,0.975798
-0.019198,0.871486,0.796570,0.905760,0.070469,0.417890
-0.402079,-0.308541,0.750688,0.269699,0.950260,-0.155782
-0.163973,0.130416,0.782706,0.895368,-0.408548,-0.177212
-0.617270,-0.608272,0.852705,0.326500,-0.177975,0.928290
-0.160407,-0.032704,0.881452,0.640277,0.705708,0.303350
-0.446316,-0.360454,0.804884,0.419444,-0.872259,0.251459
-0.106761,0.035482,0.914658,0.963368,0.109029,0.245018
-0.724335,-0.149389,0.841411,-0.488680,0.842576,0.226401
0.478716,-0.632481,-0.955135,-0.256628,0.092853,0.962040
-0.309810,-0.759406,0.857553,0.624160,-0.583660,0.519390
0.173077,-0.588905,-0.989747,-0.289045,0.072674,0.954553
-0.055620,0.078504,0.908938,0.410245,-0.747983,0.521748
-0.176493,0.280679,0.760480,0.864580,0.502251,-0.015680
0.273691,0.645974,0.763364,0.660865,0.724306,-0.196567
0.370815,0.434672,0.773399,-0.870664,0.355736,-0.339700
-0.198649,0.706459,0.777713,0.808042,0.143122,0.571475
-0.291221,-0.174393,0.725165,-0.117227,0.719209,0.684833
-0.449579,0.606048,0.793177,-0.076603,0.616683,0.783475
-0.849990,-0.426974,0.640017,-0.085749,0.261358,0.961425
0.485316,0.464358,0.719178,-0.657734,0.612145,0.438936
0.001365,-0.617479,0.692492,0.891440,0.328911,0.311691
-0.660748,0.441261,0.774829,0.016886,-0.979972,0.198416
0.054404,0.185902,0.654948,0.874937,0.106266,0.472432
0.303361,0.745753,0.791238,-0.369522,-0.855525,0.362671
-0.454664,0.602475,0.837266,0.861446,0.444967,0.244775
-0.427727,-0.787189,0.925226,0.550449,0.742527,-0.381654
-0.410200,0.502380,0.781349,0.180153,-0.921477,0.344130
-0.427196,0.658595,0.851833,0.028980,0.941939,-0.334531
0.286288,-0.328783,0.565752,0.083890,-0.907592,0.411386
0.135062,-0.209797,0.537393,0.666445,-0.494318,0.558122
-0.472874,0.652723,0.884724,-0.193773,0.308866,-0.931157
0.448440,0.679234,0.752457,-0.292395,0.514305,-0.806223
-0.541317,0.477296,0.795092,-0.589379,0.581035,-0.561275
0.131269,-0.721384,0.062158,-0.431917,0.900578,0.049055
-0.141210,0.860769,0.797200,-0.606392,0.438692,0.663203
-0.584946,0.461740,0.749500,0.468096,0.877771,-0.101998
-0.575310,0.556517,0.888408,0.221387,-0.943099,0.248098
-0.018971,-0.514367,0.608144,0.390162,-0.616283,0.684082
-0.582746,-0.073187,0.805587,0.593536,-0.092599,-0.799462
-0.432052,-0.842357,0.893159,0.797057,-0.603866,0.006805
-0.639198,-0.623433,0.887414,-0.626957,-0.478775,-0.614573
-0.412020,-0.362995,0.946482,0.643656,0.717633,0.265912
0.246224,0.123750,0.838647,0.014545,-0.999051,0.041056
0.287502,-0.792188,-0.473114,-0.555085,-0.763612,-0.329814
-0.639198,0.444514,0.781276,0.372980,0.872129,-0.316666
-0.607785,0.114383,0.681488,0.385860,-0.546369,0.743366
0.337582,0.513969,0.761861,0.265051,-0.924772,-0.273027
0.220578,0.065009,0.443810,0.021262,-0.836490,0.547570
0.225510,-0.768773,-0.218639,0.540114,-0.840897,0.034185
0.124820,-0.571441,0.633448,0.892297,0.356523,-0.276943
-0.376660,0.602952,0.841653,-0.154932,0.742636,-0.651528
0.067455,-0.651851,0.676350,-0.611647,-0.356117,-0.706448
-0.516732,0.576996,0.856341,0.575681,-0.757776,-0.307192
0.241444,-0.346484,0.645373,0.151126,0.390708,0.908024
0.120874,-0.890856,-0.993940,0.355067,-0.158661,-0.921279
0.121557,0.795919,0.741865,0.170632,0.875862,-0.451388
-0.120571,0.117796,0.768454,0.749740,-0.454866,0.480610
-0.026786,0.728687,0.751948,-0.470051,0.879108,-0.078870
0.352606,-0.826323,-0.970405,-0.243601,0.003814,0.969868
-0.351696,0.488251,0.773593,-0.352374,0.477472,-0.804893
-0.095532,-0.625815,0.521202,0.779866,-0.608144,0.148222
0.206085,-0.660661,0.475707,0.541643,-0.840356,0.020611
0.127476,-0.561359,0.639677,0.886476,0.405581,-0.222856
0.059110,0.107002,0.895389,-0.377961,0.840350,-0.388532
-0.661053,0.583027,0.810289,0.670607,-0.238699,-0.702359
-0.126187,0.781471,0.788911,-0.192995,-0.455825,-0.868894
-0.526671,0.569535,0.928061,0.741884,-0.544168,0.391776
0.092420,-0.042546,0.880531,0.958336,-0.212380,0.191016
0.331587,-0.801159,-0.611222,0.749736,-0.646397,0.141654
-0.453145,-0.146851,0.785784,-0.233957,-0.887423,0.397172
-0.720845,0.534846,0.738908,0.963674,-0.232854,0.130812
0.033006,0.741943,0.747367,0.460156,-0.759853,0.459216
-0.499432,0.510873,0.746567,0.846779,0.401701,-0.348714
-0.015632,0.514367,0.827062,-0.395224,0.363225,0.843721
0.190984,0.512858,0.759413,-0.208729,-0.234367,-0.949476
-0.147205,0.422288,0.756069,0.780670,-0.024420,-0.624466
0.200089,-0.056439,0.853530,0.883877,0.045038,-0.465546
0.013279,-0.582473,0.532740,-0.263876,0.959163,-0.101860
0.011230,-0.095968,0.902369,-0.340682,-0.315393,0.885699
-0.663860,-0.251310,0.726716,-0.168973,-0.741786,0.649000
-0.430533,-0.508652,0.788257,-0.753116,-0.220546,-0.619819
0.144017,-0.638356,0.312682,0.529412,0.828054,-0.184522
-0.564156,0.044610,0.889911,0.538919,-0.042191,0.841300
-0.922072,-0.592475,0.610737,0.331834,-0.190233,-0.923957
0.303741,0.371488,0.786705,0.258705,-0.350050,-0.900298
-0.117081,0.058660,0.941271,-0.349533,0.907552,-0.232758
0.134988,-0.585886,0.533224,0.768267,-0.313021,0.558376
-0.012749,0.408476,0.727395,-0.052158,0.396089,0.916730
-0.649823,-0.014686,0.718427,-0.469355,-0.245993,0.848053
-0.550422,0.378472,0.700636,0.436682,0.581008,0.686833
0.136884,-0.606048,0.567085,0.832943,0.043260,-0.551664
0.188254,-0.781632,-0.198449,0.434104,0.896752,-0.085962
0.129979,-0.729005,-0.995734,-0.095064,0.075359,0.992615
0.401092,-0.826400,-0.697073,0.925924,-0.349970,0.142077
-0.230746,0.837751,0.767339,0.590143,0.048535,-0.805839
-0.151908,0.602397,0.874908,0.989919,-0.099082,0.101210
0.478943,-0.555327,-0.959838,-0.010873,-0.032280,0.999420
0.386068,0.159946,0.698164,-0.667724,0.743660,0.033378
-0.154791,0.518414,0.864776,0.190148,-0.975168,-0.113541
0.099703,-0.854025,-0.983785,-0.422228,0.104555,0.900440
0.263526,-0.374504,-0.986281,0.239905,0.179628,-0.954033
-0.113742,0.039213,0.920257,0.977726,0.198615,-0.067856
-0.389257,0.090570,0.786924,0.442077,0.434297,0.784827
0.095379,0.316320,0.683645,0.429386,-0.832275,0.350637
0.060247,0.781471,0.773932,0.911035,0.409304,-0.049845
0.023674,-0.649707,0.723783,0.465500,-0.875522,-0.129502
0.020865,0.548816,0.849385,0.394815,-0.088529,0.914485
0.038848,-0.515241,0.414991,0.965323,0.027609,0.259595
-0.197589,0.527702,0.842041,0.871376,0.450275,0.194822
-0.581153,-0.043975,0.868630,-0.539616,0.325354,-0.776504
-0.092800,-0.484523,0.757474,0.593783,0.742703,-0.309537
0.088171,-0.082077,0.904551,0.173201,-0.045692,0.983826
0.251915,-0.188841,0.775774,-0.172766,0.969006,0.176579
0.304045,-0.370933,-0.982839,0.551180,0.048256,-0.832990
-0.347296,0.097157,0.778876,0.388297,0.841920,0.374696
-0.501102,-0.210589,0.977580,0.427634,0.135056,0.893806
-0.929510,-0.511588,0.628940,0.005462,0.998549,0.053568
0.512710,0.515399,0.726886,0.871134,0.093699,-0.482023
-0.331362,-0.354342,0.841580,-0.134302,0.897943,-0.419121
-0.142576,0.106604,0.774199,-0.620886,0.535040,-0.572916
-0.356477,0.612080,0.844222,0.238497,-0.383917,0.892035
0.305031,0.182726,0.597770,0.843849,-0.505189,0.180839
-0.420442,-0.705510,0.893498,0.867407,0.113593,0.484461
0.122847,-0.717893,0.599758,0.968194,0.137938,0.208744
-0.109720,0.494285,0.835981,-0.583511,0.781045,-0.222450
-0.511723,0.100173,0.802024,0.832724,-0.409099,-0.373108
-0.104257,0.001745,0.748021,0.818285,0.544318,-0.184739
-0.111616,-0.186617,0.724220,0.083653,-0.197251,0.976778
-0.255028,-0.473091,0.678749,-0.571535,-0.798345,0.189720
0.111843,-0.017782,0.862498,0.526188,0.571603,0.629600
0.205022,0.100650,0.449942,-0.046733,-0.863067,0.502922
0.131876,-0.541277,0.683064,-0.584100,0.706600,-0.399429
0.018892,0.170343,0.945537,-0.099482,0.818871,-0.565291
0.017148,-0.829339,0.724050,0.824831,-0.514114,0.235245
0.255558,-0.365774,0.612604,-0.390617,0.244788,0.887410
-0.433722,0.429749,0.741065,-0.657674,0.739137,-0.145404
0.249486,0.174153,0.705532,-0.424089,-0.879283,-0.216816
-0.543290,-0.045802,0.871466,-0.348310,0.648771,-0.676591
-0.311177,0.596046,0.836151,-0.517624,0.781667,-0.347940
0.277183,-0.806795,-0.500576,0.985255,0.140043,0.098289
-0.190304,-0.428640,0.653930,0.526800,0.242444,-0.814680
0.134152,-0.587235,0.137539,-0.694251,-0.507341,0.510509
-0.602019,0.554453,0.800012,0.722374,-0.411988,-0.555376
0.608012,0.416177,0.751657,0.847385,-0.338515,0.409079
-0.182109,-0.200269,0.841847,-0.450137,0.460556,-0.765026
-0.296686,0.845053,0.804714,-0.628130,-0.264415,-0.731805
0.076484,-0.623988,0.635993,0.848893,-0.476582,0.228582
-0.444193,0.035242,0.831715,0.012625,0.974077,0.225865
-0.550195,-0.708763,0.950676,0.613675,0.303141,0.729046
-0.432735,-0.387522,0.601188,-0.406177,0.213243,-0.888565
0.055087,-0.424115,0.348409,0.919645,0.378843,0.103593
0.199408,0.763216,0.827716,-0.692768,0.211814,-0.689352
-0.677670,0.030797,0.723153,0.016909,-0.393394,0.919214
0.175051,-0.537387,-0.989166,-0.319995,0.044353,0.946380
0.522648,0.318224,0.769181,0.957395,0.288608,-0.009983
-0.047805,0.776472,0.770442,-0.099577,-0.519064,0.848915
-0.673572,0.525241,0.700345,0.189954,0.273597,0.942901
-0.499736,0.510873,0.813949,-0.342737,-0.613112,0.711776
-0.316565,0.346721,0.745113,0.209885,-0.693922,0.688782
-0.442903,0.575329,0.821293,0.737483,0.588705,-0.330976
0.110174,-0.607477,0.295667,-0.559211,-0.827987,-0.041476
-0.159270,0.904983,0.806338,0.086040,0.122846,-0.988689
0.511798,0.080408,0.733503,-0.694340,-0.386177,0.607256
-0.066774,0.145181,0.803454,-0.523633,-0.777513,-0.348257
0.134305,0.069694,0.452463,0.403938,-0.578677,0.708496
0.243340,-0.257899,0.751997,0.182368,0.976175,0.117580
-0.502695,0.339497,0.704902,0.883079,0.420035,0.209146
0.254268,-0.311240,0.665394,0.805692,-0.541543,0.239982
0.193717,0.185585,0.560928,-0.115503,-0.993122,0.019175
-0.087261,0.509842,0.828540,0.869041,-0.088465,0.486766
-0.122241,0.769883,0.762710,0.002308,-0.419882,0.907576
0.236361,0.717096,0.774126,0.493162,0.808786,-0.320399
0.180893,0.794015,0.785784,0.186660,0.864577,-0.466546
0.280217,-0.823384,-0.979567,-0.280517,-0.093038,0.955329
0.277487,0.612080,0.749137,0.385702,-0.083195,-0.918865
-0.375218,0.438720,0.766248,-0.105911,0.010870,0.994316
-0.381593,-0.386808,0.624504,-0.213127,0.888839,-0.405638
-0.608394,-0.384269,0.895849,0.716669,-0.170983,-0.676129
-0.016162,-0.922051,0.707786,0.131113,-0.215551,0.967650
0.143637,-0.861884,-0.986039,0.339788,0.026322,-0.940134
0.399270,0.479600,0.741841,-0.064066,0.829374,0.555008
-0.443584,-0.479363,0.982888,-0.389914,0.611543,-0.688464
0.423704,0.381090,0.740459,0.358109,0.858967,-0.365970
-0.110023,0.919193,0.755778,0.514642,-0.695667,-0.501190
0.039911,0.565882,0.823620,-0.477699,0.386975,0.788704
-0.098642,0.683916,0.775798,0.403691,0.914327,-0.032253
0.077547,-0.099223,0.776695,-0.536166,-0.748488,0.390246
-0.340770,-0.261866,0.748967,-0.466317,0.606981,-0.643523
0.110630,-0.618908,0.350639,0.769531,-0.549497,0.325385
0.187268,-0.438880,0.706793,0.258434,-0.382585,0.887040
0.313756,0.280836,0.718766,0.999038,0.016003,-0.040833
-0.680326,-0.510479,0.884966,0.391188,-0.199076,0.898521
-0.507551,0.656293,0.880797,-0.317060,0.642405,-0.697702
-0.474011,-0.764011,0.906393,0.640812,-0.396531,0.657361
-0.184232,0.511428,0.873890,0.091131,-0.992245,0.084527
-0.519692,0.467614,0.676422,-0.347645,-0.263627,-0.899802
-0.412020,0.675343,0.885427,0.748517,-0.589161,0.304322
0.396083,0.653755,0.762879,0.167773,-0.686384,0.707622
-0.502845,-0.213287,0.738666,-0.710030,-0.535279,-0.457530
0.323621,-0.427925,-0.978598,-0.563528,0.243402,0.789425
0.129143,-0.016352,0.898539,-0.260916,0.604233,0.752878
-0.346156,0.488093,0.778949,-0.436361,0.588579,-0.680561
0.055314,-0.772504,0.705048,0.877470,0.185667,0.442237
0.139768,0.183601,0.750542,0.282872,0.476966,-0.832158
0.338948,-0.786554,-0.561171,-0.379985,0.899368,-0.216215
0.207830,0.223924,0.758662,-0.454658,0.814545,0.360281
-0.117461,-0.248531,0.509689,0.813130,-0.159840,0.559706
0.563850,-0.586998,-0.959401,-0.076761,0.079811,0.993850
-0.422794,0.720432,0.918463,0.815642,-0.338658,0.469084
0.108201,-0.257661,0.196170,0.636590,0.692105,-0.340211
-0.092193,0.678362,0.819499,0.132318,0.987968,-0.080069
0.328553,0.741625,0.801515,0.066174,-0.658177,0.749949
0.113133,0.414270,0.701339,0.127116,0.694662,-0.708015
-0.139314,0.572868,0.887414,0.784611,-0.326661,0.526952
0.241064,0.667168,0.763413,-0.641200,-0.697505,0.319921
-0.867820,-0.494840,0.655554,-0.164047,0.961271,-0.221465
0.073221,0.192728,0.556056,-0.241472,-0.905170,0.349796
0.097655,0.114937,0.474956,-0.272165,0.891801,-0.361409
-0.393657,0.257739,0.719808,0.090036,-0.989822,-0.110208
0.286061,0.625732,0.648767,-0.398237,0.787301,-0.470707
0.382273,0.639387,0.749670,0.127415,-0.771458,0.623392
-0.119205,-0.419035,0.809538,-0.492533,-0.862277,0.117855
0.261780,-0.622956,-0.972611,-0.361387,0.256423,0.896464
-0.184232,-0.479441,0.831328,-0.674339,-0.599394,-0.431270
-0.334016,-0.186062,0.927965,0.570877,0.399350,-0.717369
-0.237501,0.509524,0.811574,-0.518929,0.854816,-0.001303
-0.381062,-0.192174,0.894371,0.058020,-0.148901,0.987148
-0.475377,0.702254,0.879561,-0.454184,0.190449,-0.870314
-0.817816,-0.536752,0.639556,0.106568,-0.985339,0.133230
-0.196373,0.502301,0.853627,0.008171,0.910565,-0.413284
0.238788,-0.450468,-0.985118,-0.287054,0.074183,0.955037
-0.407544,-0.151056,0.948785,-0.666119,0.715241,-0.211463
-0.443281,0.170343,0.736896,-0.575500,0.694577,0.431697
-0.087108,0.398476,0.634636,-0.183922,0.811398,-0.554802
-0.449732,0.543816,0.793759,-0.654350,-0.386168,0.650154
0.039608,0.351961,0.785324,0.819798,0.570602,-0.048428
-0.661660,-0.010398,0.726183,-0.194082,-0.296056,0.935245
-0.156841,-0.480712,0.593407,0.355862,0.902898,-0.241117
-0.071174,0.034133,0.845992,-0.341557,-0.473577,0.811827
-0.479856,-0.156533,0.631412,0.990751,0.027564,0.132864
-0.120041,-0.017862,0.872265,-0.765317,0.185465,-0.616354
-0.122847,0.545165,0.866521,-0.747078,0.298051,-0.594171
-0.400942,-0.795682,0.896479,0.939562,-0.206532,0.273071
0.528037,-0.786394,-0.922269,-0.775977,0.627709,-0.061975
0.195233,-0.645182,-0.983033,-0.399052,-0.048145,0.915664
-0.349496,0.276074,0.686796,0.383696,-0.377034,0.842984
0.147735,-0.222735,0.282143,0.936290,-0.347813,0.048854
0.344640,-0.431418,-0.975907,-0.348027,0.162452,0.923302
0.434782,-0.796794,-0.962189,0.410875,0.072986,-0.908766
-0.042720,0.892442,0.795649,0.200484,-0.286410,0.936897
-0.338341,0.306158,0.709362,0.022637,-0.768591,0.639340
0.033235,-0.484600,0.586402,-0.721455,-0.659274,0.211802
-0.642007,-0.189952,0.800327,0.078866,-0.995921,0.043845
0.261627,0.493570,0.745452,-0.524127,0.246639,-0.815144
-0.437438,-0.231625,0.941174,0.999736,-0.004465,-0.022545
-0.502542,0.550245,0.722838,0.516642,0.764048,0.386408
-0.006753,0.175265,0.682846,-0.195279,-0.716801,0.669375
0.292207,-0.358867,0.628019,0.897646,0.406320,-0.170691
0.202745,-0.508018,-0.991492,0.244131,-0.035678,-0.969086
-0.594507,0.368629,0.706890,-0.078589,-0.563930,0.822074
-0.196299,0.076440,0.932255,-0.485858,0.398093,0.778116
-0.714090,0.598507,0.796691,0.359794,0.346056,0.866483
-0.202141,0.807745,0.785057,-0.378396,0.601349,-0.703702
0.022308,0.135179,0.759753,0.761829,-0.018759,0.647507
-0.043479,0.079854,0.902321,-0.549492,0.735710,-0.395966
0.015252,-0.132720,0.789808,-0.505840,0.616501,-0.603367
-0.170348,0.259405,0.715300,0.825635,0.542103,-0.156370
0.207604,0.228449,0.662316,0.863009,0.411379,-0.293226
0.280446,-0.319576,0.694698,-0.245828,-0.967644,-0.056873
0.106608,-0.388791,0.471587,0.220310,0.822617,-0.524180
0.151985,-0.639942,0.179276,0.889606,0.452938,-0.058726
-0.595950,0.005873,0.821875,0.905487,-0.051817,-0.421198
-0.100008,-0.000476,0.604605,0.894188,0.432165,-0.116878
-0.101451,-0.556437,0.597334,0.922939,0.273001,0.271394
-0.050459,0.650736,0.887051,0.176157,0.970616,-0.163928
-0.635558,0.041671,0.724777,0.045758,0.992831,0.110424
0.095606,-0.120892,0.773205,-0.628682,-0.690186,0.358332
0.233249,-0.581363,-0.987978,0.304605,-0.069158,-0.949965
-0.529630,-0.695905,0.954529,0.788396,0.011588,0.615059
0.222248,0.042626,0.870496,0.686521,0.727078,-0.006804
-0.417712,0.118350,0.781834,0.715294,0.639458,-0.281865
-0.504439,-0.515399,0.803187,-0.735730,-0.217648,-0.641350
0.248273,0.544371,0.654608,-0.551040,0.734251,-0.396523
-0.130283,0.054135,0.869212,-0.171674,0.092773,-0.980776
-0.003718,0.513415,0.812180,-0.698482,-0.188942,0.690235
0.251005,-0.154469,0.788402,-0.293491,-0.193525,0.936168
-0.365506,0.343863,0.684566,0.861152,0.141172,0.488352
-0.314136,-0.478568,0.728777,0.499813,-0.857106,0.124727
0.067075,0.571599,0.804908,0.325420,0.934969,-0.141193
-0.344487,0.130497,0.775750,-0.740850,0.034699,-0.670773
0.560817,-0.564692,-0.960128,0.004658,0.187221,0.982307
0.113133,0.443959,0.822553,-0.185596,0.250326,-0.950206
-0.225740,0.700904,0.798776,-0.638031,-0.477676,0.603939
-0.134305,0.147482,0.592995,-0.396696,-0.785868,0.474388
-0.404735,0.584139,0.795964,0.095072,-0.979555,-0.177294
-0.462403,-0.843626,0.902684,-0.068688,-0.664415,0.744201
0.229153,-0.332989,0.649082,0.729244,-0.639116,-0.244403
0.284315,-0.529926,-0.978501,-0.313052,0.067597,0.947327
0.060020,0.184075,0.531794,0.182737,0.893483,-0.410239
-0.638061,-0.234007,0.699570,-0.633338,-0.069661,-0.770733
-0.150392,-0.404113,0.802412,-0.199746,-0.907631,0.369198
-0.212687,0.254643,0.642562,0.163901,-0.218717,0.961925
-0.047879,0.754721,0.776041,0.473438,0.471574,-0.743958
-0.489871,0.637878,0.788523,0.397472,-0.119024,-0.909862
-0.147129,-0.037149,0.810822,0.897100,0.441762,-0.007630
-0.391230,-0.322829,0.872217,0.008536,-0.967288,0.253538
0.146066,-0.017622,0.839617,-0.292420,0.813556,-0.502610
0.147506,-0.257027,0.235024,0.956017,0.291484,-0.032701
-0.259200,0.402284,0.767485,-0.112903,-0.774151,0.622851
-0.073300,-0.277823,0.689390,0.571110,0.796423,-0.198855
0.159800,-0.587315,0.518051,0.941354,0.336744,0.021373
-0.874954,-0.427448,0.630225,0.432484,-0.031101,-0.901105
-0.371198,0.706936,0.809077,0.490484,-0.742099,-0.456852
-0.595797,0.354977,0.712901,-0.023224,-0.946063,0.323149
-0.061462,-0.353153,0.737963,0.920065,0.008527,-0.391673
-0.119584,-0.057311,0.874980,0.941606,-0.228316,0.247489
-0.116475,0.440943,0.791965,-0.572074,0.716027,0.400046
0.114879,-0.074457,0.353354,-0.166337,-0.925936,0.339078
-0.345703,0.364581,0.765449,-0.172829,-0.736687,0.653775
0.299036,0.031672,0.887463,0.561610,-0.821291,0.100374
0.348433,-0.779728,-0.973241,-0.258511,-0.018168,0.965837
-0.639731,-0.558263,0.874447,-0.480898,-0.364691,-0.797331
0.020411,-0.875774,0.708707,0.024324,-0.736965,0.675493
-0.546097,0.190187,0.694965,0.366981,0.713443,-0.596928
-0.179302,0.433005,0.748215,0.838617,-0.434753,-0.328194
-0.690038,-0.221463,0.824953,-0.436764,-0.754087,-0.490500
-0.042417,0.665581,0.812180,0.377625,0.891614,0.249847
-0.156614,0.505794,0.854766,-0.360358,-0.777708,0.515085
-0.366492,-0.380458,0.783457,0.859367,-0.408728,-0.307294
-0.438578,-0.261866,0.586111,-0.592053,-0.219481,0.775436
0.142194,-0.484443,0.399964,-0.103971,-0.870599,0.480882
0.012596,0.104143,0.897619,0.299234,-0.838297,0.455760
0.390468,0.574057,0.750348,0.360186,-0.564904,-0.742395
0.125577,-0.616925,0.619948,0.956248,-0.260765,0.132630
-0.451401,-0.030560,0.822553,-0.309522,0.526732,-0.791676
0.220045,-0.302747,0.631097,0.754934,0.617664,0.220378
-0.431976,-0.148595,0.941901,-0.630135,0.770014,-0.100039
-0.203354,0.124782,0.878931,0.013834,-0.750742,0.660451
0.116396,0.161215,0.662049,-0.601974,0.471831,-0.644207
-0.452538,0.553818,0.787530,-0.748213,-0.555222,0.363189
0.310720,-0.336721,-0.977968,-0.385848,-0.217966,0.896444
0.345626,0.523891,0.748603,0.672852,-0.541923,0.503576
-0.270051,0.496349,0.801466,0.666384,0.741763,-0.075623
-0.014265,0.654309,0.718572,0.849162,-0.429483,0.307359
0.472115,-0.679948,-0.955644,-0.379869,0.038176,0.924252
-0.294257,0.098983,0.805563,0.217510,-0.858312,-0.464748
-0.380759,0.851959,0.873332,0.278733,0.798493,0.533589
0.314590,-0.703446,-0.975714,-0.259344,0.127887,0.957280
-0.497913,-0.077632,0.731055,0.187419,0.178280,0.965966
0.182486,0.013811,0.406920,-0.895332,0.324902,0.304663
-0.263906,0.454039,0.723177,-0.308248,0.655426,-0.689492
-0.084681,-0.370933,0.670266,-0.574257,0.679277,-0.456958
0.421505,-0.446975,-0.965146,-0.242412,-0.019829,0.969971
-0.311709,0.543101,0.793080,-0.088508,-0.941670,0.324691
-0.087641,0.108746,0.569266,0.649950,-0.335573,0.681877
0.218756,-0.778458,-0.982185,0.296623,-0.088755,-0.950861
0.288944,-0.760201,-0.534267,-0.025903,0.997812,0.060824
0.171105,-0.247897,0.828298,0.701710,-0.551709,0.450800
0.199559,-0.718528,-0.992801,-0.327039,-0.176699,0.928344
-0.422491,-0.066836,0.810410,-0.502856,0.319958,-0.802971
0.037028,0.436576,0.828492,-0.175414,-0.680956,0.711005
-0.790272,0.399348,0.700394,0.095452,0.310922,0.945630
-0.409287,0.341244,0.706623,-0.041520,-0.769976,0.636720
-0.455574,0.527385,0.784015,0.465482,0.757245,-0.458156
0.243873,0.081997,0.830625,0.817743,-0.462999,-0.341949
0.258137,-0.746151,-0.245325,0.876268,-0.481280,-0.022866
-0.419684,0.529131,0.808859,-0.023384,-0.999632,-0.013770
0.399499,0.487299,0.733358,0.291890,-0.803880,0.518244
-0.165339,0.381170,0.699158,0.199836,-0.190429,0.961146
-0.029972,-0.364027,0.757644,0.988649,-0.087368,0.122228
-0.161013,0.204714,0.799261,0.964829,0.195908,0.175284
-0.574398,0.208365,0.697388,0.171621,0.778381,-0.603879
0.240154,-0.602317,-0.985748,0.346207,-0.238749,-0.907270
0.035585,-0.570567,0.700879,0.904838,-0.415294,-0.093800
-0.472038,0.675660,0.777980,0.409114,0.102354,-0.906725
-0.704228,0.411731,0.768551,0.007735,-0.995326,0.096263
-0.562943,0.179076,0.780307,0.619062,-0.284423,-0.732029
-0.062979,-0.008812,0.685487,-0.621173,0.721773,-0.305267
0.070718,-0.775203,0.720123,0.896810,0.087716,0.433634
0.327337,-0.787029,-0.483439,-0.789811,-0.544508,-0.282329
-0.035057,-0.495794,0.743077,0.590278,-0.453438,0.667807
-0.198802,-0.378314,0.655554,-0.446423,-0.584688,0.677382
0.155171,-0.600333,0.518633,0.935161,0.351713,0.042098
-0.127856,0.725591,0.775338,-0.211031,0.833082,0.511313
-0.274453,0.529606,0.848852,-0.200206,-0.580588,0.789199
-0.097352,0.891173,0.803623,-0.104905,0.086207,-0.990739
0.114196,0.234798,0.772163,-0.536629,0.403933,-0.740856
0.967447,0.427368,0.728389,0.312137,-0.346479,0.884603
-0.497536,0.552786,0.827207,0.580689,-0.376918,0.721618
0.342741,0.334180,0.786293,-0.523162,0.330448,0.785561
0.061386,0.229719,0.550870,-0.001272,-0.850137,0.526560
-0.580773,0.548816,0.791553,-0.422279,-0.159661,-0.892294
0.475225,0.300286,0.704126,0.948679,-0.306605,-0.077469
-0.493361,0.662325,0.803236,0.870695,-0.231577,-0.433892
-0.303211,-0.373075,0.665224,0.065333,0.941955,-0.329321
-0.568859,0.149784,0.683815,-0.185306,-0.628900,0.755080
0.185445,-0.686140,0.066691,0.450732,-0.880164,0.148834
-0.257531,0.719477,0.866812,0.633155,0.710751,0.306508
0.129979,0.513415,0.816979,0.308923,-0.552797,0.773939
-0.110556,-0.464756,0.652087,0.008620,-0.994075,0.108358
-0.410806,0.119065,0.802048,0.527801,-0.050593,0.847860
-0.378177,-0.332514,0.667236,0.266756,-0.926070,0.266899
-0.107824,-1.000000,0.683791,0.123409,-0.129972,0.983808
0.213900,-0.137960,0.771751,0.177234,0.728837,-0.661350
0.120798,-0.641292,0.530485,0.659982,-0.513723,0.548190
0.222171,-0.385696,0.562625,-0.287287,0.905395,-0.312611
0.122164,-0.016830,0.885742,0.956391,0.217435,-0.195035
-0.372638,-0.440943,0.602472,-0.023512,-0.683149,0.729900
-0.432052,-0.510319,0.924329,0.848724,-0.201792,0.488822
-0.154414,0.110255,0.882736,-0.297612,-0.376958,0.877115
0.447074,-0.442610,-0.960783,0.076093,0.068198,-0.994766
0.021018,-0.573583,0.487123,0.143409,-0.968975,0.201299
-0.126034,0.150658,0.926122,0.442946,0.606477,-0.660291
0.411033,-0.509207,-0.959523,-0.246526,0.156137,0.956476
0.140374,-0.605890,0.328946,0.375248,0.907479,-0.188867
0.290234,0.179550,0.757111,-0.211545,-0.936770,-0.278766
-0.322028,-0.267106,0.699449,0.639116,-0.587050,0.496893
-0.379923,0.643593,0.850063,0.068879,-0.808109,0.584992
0.225890,-0.769011,-0.219197,0.540114,-0.840897,0.034185
-0.229306,-0.464121,0.652596,-0.474865,0.872318,0.116463
-0.146825,-0.278378,0.711228,-0.057079,-0.601116,0.797120
-0.096289,0.064454,0.927480,-0.686720,0.726634,0.020483
-0.246453,0.235196,0.692007,0.428763,0.585643,-0.687884
-0.682526,0.257104,0.687305,-0.342002,0.359293,0.868299
-0.133622,0.541037,0.863467,0.479436,-0.818990,-0.315272
0.110857,0.273218,0.752191,0.049681,-0.778325,0.625893
0.055618,-0.495634,0.724753,0.717284,-0.359822,0.596685
-0.635253,0.732575,0.788208,0.514627,0.648378,-0.561039
-0.119508,-0.475950,0.643095,-0.140013,-0.982297,0.124453
0.373775,0.525241,0.773471,0.882521,-0.277019,-0.380023
-0.419988,-0.714557,0.885160,0.823613,0.530888,0.199550
0.498216,-0.718845,-0.956032,0.381418,-0.031790,-0.923856
0.361560,-0.482219,-0.970115,0.308350,0.149683,-0.939423
-0.268458,0.388474,0.770563,-0.061637,-0.839755,0.539456
-0.268685,0.054690,0.869696,0.970740,-0.136958,0.197244
-0.095683,-0.559215,0.591977,0.279624,-0.338329,0.898523
0.441535,0.161375,0.741259,0.623463,0.294935,-0.724091
-0.574551,0.458484,0.790850,-0.567564,-0.746961,0.346295
-0.547993,-0.230751,0.809538,0.837146,-0.546932,-0.007158
-0.423781,-0.727575,0.897061,0.845455,0.118997,0.520620
-0.227636,-0.278220,0.719615,-0.439464,0.727352,-0.527096
-0.642461,0.129782,0.679598,0.562945,0.061301,-0.824218
-0.196676,0.857119,0.778149,0.238113,-0.886628,-0.396476
-0.146369,0.848228,0.780743,-0.302673,0.158500,-0.939823
-0.329313,0.656531,0.837969,-0.166931,0.231970,-0.958292
-0.615602,-0.577236,0.849239,0.496326,-0.063466,0.865813
-0.461493,0.649467,0.860098,-0.549365,0.834241,-0.047326
-0.173383,0.505714,0.840635,0.460574,0.778139,0.427050
0.309657,-0.742500,-0.496601,0.337406,0.937495,-0.085202
0.383792,-0.628353,-0.968297,0.183243,-0.143194,-0.972583
0.366492,-0.779965,-0.428128,0.881808,0.408840,-0.235083
-0.125656,0.685902,0.753063,0.380308,-0.851628,0.360687
-0.128613,0.371328,0.780791,-0.256829,0.866190,-0.428665
0.231656,0.398079,0.767024,0.862437,0.034362,-0.504997
-0.120798,0.078027,0.933273,0.896113,-0.430394,-0.108360
0.150542,-0.779648,-0.991056,-0.279983,-0.004488,0.959994
0.582896,0.299331,0.714427,-0.444887,0.173085,0.878702
-0.551863,0.412683,0.709604,0.541244,0.706935,0.455300
-0.273694,-0.439752,0.741283,0.260367,-0.888591,0.377645
-0.298733,0.653832,0.766685,-0.297769,0.337264,0.893077
0.284089,0.762024,0.802896,0.584809,-0.145430,0.798028
-0.052508,0.715589,0.775653,-0.318246,-0.057026,0.946291
-0.564383,0.561754,0.683258,-0.213996,0.466629,0.858174
-0.742621,0.537544,0.769860,0.982013,-0.184568,0.039823
