0.098669,0.327265,0.903676,0.719057,0.647133,-0.253329
-0.162199,-0.521980,0.055458,-0.552748,-0.238748,0.798416
-0.286581,0.489509,0.732611,-0.686589,-0.067092,-0.723943
-0.422054,0.376102,0.132741,0.097897,-0.072196,0.992574
-0.096061,0.049047,0.572254,0.064352,-0.987653,-0.142828
0.125760,0.240979,-0.156232,0.931829,-0.349862,0.096390
-0.242684,0.194975,0.725492,-0.035607,0.654421,0.755291
0.100477,0.219051,-0.225929,0.975564,0.126189,-0.179863
-0.096494,0.297577,0.607498,0.855232,-0.025153,-0.517635
-0.404301,0.115035,0.505989,-0.211084,-0.095701,0.972772
0.209359,0.253043,0.151585,0.977279,0.148034,-0.151698
-0.430963,-0.122431,-0.952481,-0.185299,0.193218,0.963499
0.584324,0.205256,0.160399,0.376566,-0.055524,-0.924724
0.009420,0.350138,0.874237,0.763809,-0.525473,0.374800
-0.365113,-0.249633,-0.943892,-0.261045,0.278746,0.924206
-0.299404,-0.802142,-0.909552,0.194426,-0.248479,-0.948924
0.008695,0.116924,0.423918,0.276257,0.524429,0.805392
-0.230728,0.063838,-0.024777,-0.593010,0.449170,0.668271
0.317881,0.473354,0.643293,-0.418159,0.182959,-0.889758
-0.328674,0.662664,0.425430,0.305558,-0.035915,0.951496
-0.163503,0.428083,0.694810,-0.183074,0.871002,0.455894
0.656475,0.500209,0.624647,-0.650064,0.027840,-0.759369
-0.220298,-0.365399,0.054159,0.539304,-0.603490,0.587325
-0.028106,0.253411,0.951831,0.889394,0.157926,0.428997
0.156043,0.557280,0.850054,0.829692,-0.182445,-0.527565
-0.457404,0.300935,-0.132882,0.226158,0.342117,0.912035
-0.788685,0.769722,-0.170005,0.245187,0.424652,0.871524
0.238483,0.316252,0.368022,0.998151,-0.057813,0.018790
-0.354390,-0.812159,-0.909764,-0.209464,0.253262,0.944448
-0.327441,0.541596,0.723359,-0.540865,0.769665,-0.339235
-0.220514,0.624949,0.714897,0.764627,-0.631406,-0.129119
0.014633,0.256715,-0.580857,-0.690654,0.710303,-0.135892
-0.253115,0.640631,0.675105,0.617876,-0.716029,0.324857
-0.180526,0.454154,-0.025879,-0.221885,0.122899,0.967297
0.127936,-0.011066,0.592016,0.436168,0.477533,0.762705
0.201028,0.297996,0.876653,-0.352313,-0.553095,0.754958
-0.042379,0.329366,0.685487,0.319492,0.848705,0.421455
-0.546653,0.598722,0.749548,-0.107385,-0.895659,0.431582
0.045783,0.227026,-0.430783,0.974531,0.160404,0.156714
-0.345118,0.253725,0.606382,0.006555,0.592892,0.805255
-0.455304,0.165076,0.697932,0.402990,0.577218,0.710224
-0.487104,0.311110,0.580673,0.344962,0.861510,0.372560
0.697265,0.151437,0.745028,-0.700921,-0.123760,-0.702420
-0.118589,-0.121905,-0.934060,-0.279825,0.176673,0.943655
0.698348,0.174729,0.694655,0.885035,0.323927,0.334343
-0.016879,0.703107,0.803057,0.891178,-0.435901,-0.125668
0.012462,0.521560,-0.020977,-0.090665,-0.126868,0.987767
-0.338451,0.593004,-0.140666,0.024773,0.170594,0.985030
-0.108591,-0.520142,-0.915810,-0.298804,0.296725,0.907012
0.140683,0.284358,-0.268251,0.817408,-0.576010,0.007558
-0.059693,0.224875,-0.691053,0.933825,-0.337898,-0.117454
0.172704,0.638953,0.160414,0.198104,-0.898218,0.392377
0.026589,0.205048,0.459332,-0.535955,0.581458,-0.612094
-0.158144,-0.241975,-0.860436,0.772747,0.629012,0.084886
0.454870,0.596414,0.449062,-0.013184,0.756449,0.653920
0.090918,-0.327003,0.441519,0.407513,0.138564,0.902626
-0.144017,-0.013323,0.721254,0.884242,-0.331039,-0.329439
0.113592,0.400492,0.943256,-0.078677,0.946011,0.314440
-0.223702,0.537873,0.734998,-0.609439,-0.134051,-0.781418
0.306580,0.298259,0.612329,-0.647414,-0.245924,0.721371
-0.767532,0.307700,0.605040,-0.590465,-0.729923,0.344331
0.504564,0.159934,0.575291,0.833782,0.084358,-0.545611
-0.022022,-0.188681,0.033704,-0.145406,0.534391,0.832636
-0.020863,-0.270354,-0.759507,0.993026,-0.110779,-0.040338
0.000723,-0.010753,0.400130,0.364926,-0.427816,-0.826923
-0.161111,0.535618,0.422039,0.212467,-0.338163,0.916790
-0.161549,-0.111939,0.756470,0.793491,0.406642,0.452785
0.468343,0.542697,0.775568,0.538600,-0.590609,0.600909
0.356491,0.290914,0.729857,0.484756,0.728967,0.483341
-0.737541,0.260070,0.558453,0.726650,0.663664,-0.177564
-0.126556,0.109842,-0.889790,-0.662470,-0.745328,0.074962
0.447769,0.539448,0.851466,-0.403476,-0.903736,-0.143067
0.371413,0.345364,0.874788,0.300790,0.233598,0.924639
0.122356,0.614195,0.847695,-0.107304,0.619628,0.777526
0.895395,0.410721,0.212510,0.896098,-0.359676,0.260080
0.310851,-0.659514,-0.882529,-0.229511,0.198685,0.952811
-0.807229,0.526279,-0.141570,0.456316,-0.008315,-0.889779
0.219285,0.078316,0.455052,-0.149607,0.658606,-0.737466
0.388657,0.515842,0.855450,-0.042554,0.996843,-0.067038
-0.255432,0.308959,0.793691,-0.410771,-0.522268,-0.747331
0.347072,0.207564,0.776274,0.167928,-0.954233,-0.247467
-0.614170,0.583245,0.615592,0.300305,-0.929077,-0.215945
0.123010,0.404901,0.442804,-0.112721,0.585374,0.802889
0.189656,0.808961,0.770906,0.624052,0.466342,-0.626965
0.357795,0.538503,-0.040019,0.725488,-0.635962,-0.263095
-0.169587,0.211287,0.728543,0.711850,-0.352431,-0.607505
0.409956,0.526542,0.844149,-0.696996,-0.653233,0.295776
-0.237900,0.246435,-0.018053,0.178983,0.249575,0.951671
-0.093235,0.114404,-0.878645,0.414696,0.877139,-0.242186
-0.144304,0.127310,0.867528,0.180291,0.183381,0.966368
-0.312156,-0.941513,-0.900158,-0.175180,0.208229,0.962264
-0.339972,0.314049,0.716451,0.278809,0.955155,0.099723
-0.160390,0.018779,0.745042,-0.610886,0.411646,0.676288
-0.789698,0.310848,0.549695,0.964280,0.025609,-0.263643
0.092656,0.076638,0.571350,-0.445022,-0.709125,0.546899
-0.457041,-0.031838,0.218457,0.971954,-0.194116,0.132758
-0.079904,-0.841585,-0.890863,0.243233,-0.404017,-0.881821
-0.213634,-0.675986,0.029128,-0.521129,0.756124,0.395855
0.452332,0.516262,0.630693,0.960211,0.027927,0.277875
-0.155606,0.318403,0.866638,-0.435949,0.887971,0.146476
-0.118735,-0.218213,0.062154,0.763068,0.048799,0.644473
0.754926,0.612831,0.366666,0.568960,0.821930,0.026738
-0.186902,-0.006293,-0.936801,0.265474,-0.043175,-0.963151
-0.681904,0.627466,-0.144183,0.064348,0.483412,0.873025
0.167486,0.452528,0.899720,0.023953,-0.989539,0.142265
-0.024630,0.299466,0.458286,-0.277147,0.524561,0.805000
0.554625,0.594995,0.627868,-0.244507,0.893503,-0.376654
-0.497463,-0.136226,0.246327,0.840260,0.316431,-0.440267
-0.068895,0.197809,-0.741383,0.974152,-0.222461,-0.039241
-0.039482,0.074013,0.701802,0.199776,-0.642816,0.739511
-0.279631,0.098876,-0.952255,0.459503,-0.115035,-0.880695
0.096857,0.228810,-0.543352,-0.729158,-0.092293,0.678093
0.063027,0.371380,0.889578,0.784445,0.398093,-0.475570
-0.792815,0.278694,0.577353,0.375033,0.918094,-0.128272
-0.071791,-0.367080,-0.919850,-0.182616,0.023792,0.982896
-0.133003,0.179710,0.293437,0.372773,0.052733,-0.926423
-0.094756,0.101867,0.439499,0.843154,0.274823,0.462130
-0.512386,-0.164551,0.171361,0.102373,-0.989225,0.104663
-0.236454,0.391995,-0.027235,-0.146896,-0.181501,0.972357
-0.054259,0.117500,0.375848,0.019204,-0.997519,0.067727
0.513695,0.290076,0.709091,0.801475,0.595452,-0.055458
0.121268,0.032469,0.575460,0.376269,0.781444,0.497763
0.845842,0.441408,0.131088,-0.711744,0.165200,0.682737
0.333746,0.541545,0.785753,-0.126553,0.983434,-0.129778
0.878226,0.566357,0.324288,-0.667078,0.714542,-0.210801
-0.311506,-0.442510,-0.927040,0.184434,-0.117843,-0.975755
0.246522,0.367237,0.541135,-0.114135,-0.993465,0.000240
-0.445452,-0.238146,0.235154,0.849767,0.476682,-0.225101
-0.587654,0.244334,0.079712,-0.314911,0.489040,-0.813431
-0.013908,0.124476,0.380241,0.470071,0.882168,0.028492
0.731744,0.370541,0.195022,-0.384432,0.911729,-0.144782
0.193786,0.327582,0.659947,0.865094,0.045091,0.499578
-0.664156,0.227026,0.523463,0.881990,-0.133707,-0.451903
-0.572227,0.551249,-0.991652,-0.362199,0.157441,0.918708
-0.454649,-0.072124,-0.956337,-0.239470,0.202643,0.949521
-0.221023,-0.579416,0.047293,-0.389251,0.653891,-0.648776
0.224065,0.432806,0.734165,0.457236,-0.515042,0.725029
-0.121051,0.384599,-0.004859,-0.069681,0.986838,0.145927
-0.582149,0.629880,0.750014,-0.208086,-0.913217,0.350335
-0.500651,-0.241136,-0.947056,-0.253452,0.212923,0.943624
0.180671,0.293748,-0.101424,0.952658,-0.303717,-0.014072
-0.184293,-0.134283,0.684371,0.273202,-0.893200,-0.357148
0.190089,0.377886,0.633433,-0.681785,0.651846,0.332063
-0.458416,0.562160,0.421940,0.587686,0.786091,-0.191537
0.302521,0.417752,0.445432,0.529254,0.071845,-0.845416
0.546003,-0.057806,0.285075,-0.544924,-0.331121,-0.770335
0.924228,0.474561,0.228274,0.872272,-0.021478,0.488550
-0.061285,0.374162,0.986905,0.638487,-0.172351,-0.750087
0.218635,0.230119,0.834303,0.892886,0.082277,-0.442703
0.105912,0.412348,0.967708,0.509885,-0.735694,-0.445839
-0.195161,0.502886,0.733798,0.292926,0.202313,0.934486
-0.617067,0.720469,0.450828,-0.250261,-0.449309,0.857607
-0.487033,0.582198,0.745098,-0.328572,0.047322,-0.943293
0.213201,0.320814,0.531628,0.099228,-0.951244,0.292042
-0.328312,-0.300567,-0.936433,-0.086952,0.346674,0.933947
-0.093160,0.096571,0.245268,-0.480060,0.590362,-0.648857
0.139741,0.293537,0.679950,0.839509,-0.475657,0.262632
0.115692,0.589751,0.711366,0.811323,0.115490,0.573076
0.454145,0.618655,0.647686,-0.197985,0.490311,-0.848762
0.515070,0.146980,0.846692,0.336284,0.731066,0.593680
-0.076933,-0.100189,0.407673,0.894370,-0.249664,-0.371175
-0.387278,0.120279,0.540923,0.623257,0.433343,0.650972
-0.363154,0.031630,0.766005,-0.416740,-0.251561,-0.873525
0.515649,0.220470,0.671700,-0.015546,-0.285142,0.958359
0.089322,0.094577,0.433170,0.608786,0.358769,0.707577
0.483990,0.188627,0.626879,0.368785,0.854082,0.366800
0.264270,0.117446,-0.038408,-0.641822,0.141397,-0.753705
-0.042524,0.068192,0.438100,0.952902,-0.173818,0.248525
0.084976,0.215959,0.713640,-0.699313,0.693364,-0.173804
0.013837,0.498269,0.787377,0.785954,0.012764,0.618153
-0.436397,0.507765,0.763518,0.241079,-0.123491,0.962617
-0.564039,0.234525,0.345477,-0.436380,0.599568,-0.670887
-0.811867,0.279638,0.412787,0.484295,0.451661,0.749307
-0.559546,0.242445,0.082057,-0.302110,0.661898,-0.686017
0.465301,0.102866,0.842666,0.351896,0.487137,0.799291
0.320198,0.701480,0.246553,-0.186310,-0.972565,-0.139305
-0.375760,-0.282363,-0.940685,0.199254,-0.441561,-0.874827
-0.434801,0.010596,0.691787,-0.105783,-0.806891,0.581151
-0.296220,0.429659,0.444062,0.389953,0.592040,0.705284
-0.705303,0.393884,0.515764,-0.653816,0.719835,-0.233157
0.139454,0.459084,0.963612,-0.015658,-0.165424,0.986098
0.122139,-0.353230,0.047223,0.013488,0.091753,0.995690
-0.130686,-0.039919,0.720957,0.891261,-0.378811,0.249313
0.224719,0.026543,0.793663,0.261370,-0.760476,-0.594443
-0.514416,0.782628,-0.135891,0.370922,0.545923,-0.751255
0.053534,0.409149,0.933453,0.884821,-0.335321,-0.323499
0.183280,0.042173,0.151232,0.173191,0.098332,0.979967
0.583020,0.291545,0.599545,0.950891,-0.141803,-0.275134
0.126994,0.312317,0.527150,-0.294701,0.903011,0.312605
0.851856,0.420899,0.372373,0.965709,0.199227,-0.166476
0.057376,0.192510,-0.633080,0.946513,-0.277034,0.165423
0.231891,0.106640,0.814612,-0.409607,-0.756659,0.509597
-0.526009,0.312788,0.584332,-0.577518,-0.493585,-0.650266
-0.238842,0.094000,-0.947000,0.378737,-0.140615,-0.914760
-0.751738,0.367186,0.522234,0.335606,-0.460276,0.821897
0.330195,0.422052,0.450941,-0.575341,-0.069951,0.814917
-0.180742,0.263166,0.541841,0.762272,0.586144,-0.274549
0.012024,0.027276,0.232696,0.038992,-0.164147,0.985665
-0.303971,0.002624,0.699514,0.156975,0.784390,-0.600076
0.690526,0.715484,0.348048,0.595104,0.660566,-0.457717
0.443785,0.700849,0.467991,0.693305,-0.321506,0.644951
-0.038903,-0.775491,-0.544920,0.972796,-0.226340,-0.049371
-0.135178,-0.812787,-0.900610,0.303889,-0.299814,-0.904302
0.144813,0.063105,0.528365,0.788277,0.515472,-0.336018
-0.414298,0.582355,0.406628,0.544194,0.131741,-0.828551
-0.308101,-0.048310,0.763674,0.389850,0.368725,0.843836
-0.463271,0.072755,0.564287,-0.273525,-0.841747,0.465453
0.354899,0.057230,0.152418,-0.132923,-0.002503,0.991123
0.658722,0.526491,0.071745,0.063197,-0.590209,0.804773
0.785713,0.519620,0.270257,0.827719,0.192740,-0.527004
-0.336280,0.041283,0.752543,0.488252,-0.871846,-0.038654
0.716242,0.730279,0.484998,-0.042089,-0.914669,0.402005
-0.071937,0.761856,0.849856,0.593748,0.602720,0.533097
0.723922,0.090853,0.157532,0.457512,0.369950,-0.808591
0.546799,0.470101,0.757755,0.535415,-0.437767,0.722281
0.327516,0.327685,0.708639,-0.071995,-0.927915,-0.365773
0.165386,-0.161772,0.450319,-0.660253,0.702077,-0.266747
0.104970,0.128254,0.232512,0.494595,-0.130332,0.859296
0.163432,0.806390,0.823977,-0.567325,-0.522072,-0.636854
0.069111,0.849141,0.792844,-0.216678,-0.953369,-0.210093
0.253915,-0.131610,0.556687,-0.564438,0.035586,0.824708
0.209217,-0.133182,0.150229,-0.618602,0.785477,0.018912
0.128802,0.265843,-0.100576,0.987308,-0.158630,0.007734
-0.794336,0.717635,-0.150342,0.304823,0.278067,0.910912
0.114317,0.079155,0.560106,-0.191778,-0.939884,-0.282559
-0.392712,0.096097,0.732117,0.130037,0.737280,0.662954
0.339397,0.498323,0.786699,-0.312769,0.137572,-0.939814
0.420170,0.152225,0.834289,-0.751358,-0.370499,-0.546069
0.448928,0.620121,-0.020356,-0.361561,0.444915,0.819344
-0.397854,-0.215328,0.268251,0.746300,0.001242,-0.665608
-0.117939,0.504563,0.605181,-0.173244,-0.292816,0.940343
0.135974,0.218161,-0.132685,0.961525,-0.234676,-0.142820
-0.208850,0.239721,0.722737,0.393752,-0.087214,-0.915070
-0.454362,0.235418,0.811815,-0.229758,0.318710,0.919584
0.384528,0.122011,0.664016,0.213492,0.242162,0.946456
0.164736,0.321025,0.719064,0.875879,-0.454606,0.161768
-0.098957,0.109842,0.383871,-0.507457,0.687969,0.518832
-0.679371,0.221465,0.582326,-0.619662,-0.760915,0.192428
-0.040062,0.470364,0.973090,0.610589,-0.756766,-0.233424
-0.016663,0.225294,-0.701718,0.803944,-0.573352,0.157933
0.179367,0.374425,0.712581,0.897935,-0.019025,0.439716
-0.355619,-0.506241,-0.926334,-0.160100,0.171539,0.972082
0.231816,0.302821,0.098076,0.875121,-0.373844,0.307251
-0.562084,0.652121,0.763504,0.532399,-0.197714,0.823080
-0.320269,0.560796,0.138631,0.446615,0.534441,0.717570
-0.261228,0.037348,-0.945460,-0.410598,0.039360,0.910966
0.288177,0.147243,0.449698,0.831119,0.017223,-0.555828
-0.373730,0.254038,0.520327,-0.767040,0.444718,-0.462466
0.185743,0.266262,0.050528,0.993669,0.068406,-0.089121
0.241525,0.288923,0.342468,0.959301,-0.281624,-0.020705
0.448132,0.627834,0.645412,-0.015091,-0.697744,0.716189
-0.411619,0.534306,0.757360,-0.507574,-0.104314,-0.855270
-0.688497,0.546318,0.729122,-0.704359,0.385432,-0.596088
-0.134670,-0.116396,0.434611,-0.212011,-0.512738,0.831956
-0.184872,0.569661,0.680345,-0.637545,0.551757,0.537682
0.526079,0.273815,0.666022,-0.537958,-0.161346,0.827387
-0.278468,-0.022554,-0.948624,-0.380911,0.267067,0.885202
-0.722981,0.310534,0.385100,-0.325054,-0.253773,-0.911010
0.313535,0.020930,0.332637,0.413978,0.295872,0.860861
0.143004,0.377047,0.825856,-0.561233,-0.768934,-0.306199
-0.041508,0.235524,-0.738021,0.946590,-0.319832,0.040913
-0.037599,0.215277,-0.663027,0.966237,-0.256653,-0.022699
-0.041366,0.226239,-0.685897,0.869340,-0.434231,-0.235990
0.002319,0.250421,0.529509,-0.404766,0.468333,0.785384
0.007970,0.379931,0.872203,0.921185,0.326242,0.212097
-0.342001,0.479335,0.413550,0.366696,0.132250,-0.920893
-0.288686,0.508447,0.694810,-0.448477,-0.459208,-0.766809
-0.388220,0.371380,0.635637,0.073232,-0.789071,0.609922
-0.458854,0.585397,0.428636,0.376961,0.674527,-0.634755
0.200595,0.013900,0.577014,0.233018,0.320449,0.918159
0.377573,0.329679,0.686179,-0.550367,-0.778794,0.300959
-0.908651,0.478022,0.623898,-0.883925,0.400944,-0.240667
-0.046942,0.177664,-0.940742,-0.273108,0.587277,0.761917
-0.054692,-0.105068,0.435883,0.568452,0.364899,0.737368
0.297162,0.003831,0.320276,0.227838,0.212245,0.950285
0.262607,0.377623,0.725421,-0.550249,-0.568074,0.611979
0.400901,-0.143046,0.293635,0.503567,-0.049370,0.862545
0.306505,0.614563,0.843824,0.775972,-0.565551,0.279320
0.140320,0.376365,0.780823,0.956689,0.150881,0.248959
0.094031,0.325588,0.870353,-0.566210,0.274402,-0.777245
-0.421253,-0.194921,0.177788,0.102373,-0.989225,0.104663
0.402926,0.638848,0.733105,0.803078,0.570574,0.171786
0.271442,0.676722,0.740451,-0.686566,0.721151,-0.092567
0.345989,0.177981,0.847073,-0.412808,-0.872558,-0.261213
-0.105620,0.191828,0.451760,-0.161842,-0.881442,0.443697
-0.148943,0.395354,0.512925,-0.057551,-0.619767,0.782673
-0.047521,-0.534463,-0.911374,-0.251876,0.278571,0.926799
0.299771,0.113354,0.821251,-0.253166,-0.808965,0.530549
0.175167,0.079785,0.148647,0.020131,-0.146521,0.989003
-0.469864,0.583457,0.441886,0.051294,-0.889710,0.453635
-0.206896,-0.280003,-0.931108,-0.305867,0.389949,0.868554
-0.647783,0.105068,0.400624,-0.752327,-0.382864,-0.536115
-0.788977,0.461236,-0.177492,-0.674763,-0.736118,0.053156
0.262099,0.365979,0.577636,0.599829,-0.760412,0.248957
-0.130036,0.006661,0.720858,-0.540358,-0.242083,-0.805859
-0.322082,0.577582,0.433552,-0.381648,-0.193700,0.903784
-0.554258,0.241398,0.574571,-0.426492,0.815567,0.391095
-0.378222,-0.131296,0.147347,0.841511,-0.244304,0.481846
0.241017,0.264636,0.905950,0.976135,-0.022072,0.216038
0.283977,0.540130,0.803029,-0.412425,0.502854,-0.759634
0.040278,0.740508,0.819542,0.444567,-0.891628,-0.085787
0.234424,-0.050619,0.562535,0.114652,0.986272,-0.118838
-0.001811,-0.871171,-0.876794,0.361642,-0.291287,-0.885645
0.126339,0.253987,-0.138335,0.963057,-0.253364,-0.091255
-0.056651,-0.623845,-0.907419,-0.184753,0.163440,0.969099
0.029702,0.215590,0.541827,-0.125595,0.547812,0.827120
-0.422270,0.373900,0.135114,0.239294,-0.148820,0.959474
-0.246955,-0.222042,0.753645,0.435612,-0.810987,0.390567
-0.177338,-0.002832,0.262289,0.822976,-0.360320,0.439181
0.035569,0.209139,-0.502444,0.988113,0.150870,0.029504
0.094177,-0.043799,0.425966,0.443626,0.759519,-0.475737
0.140249,0.141733,0.641598,0.762600,-0.598899,0.244460
-0.265429,-0.501467,-0.922731,0.211319,-0.163495,-0.963646
0.202045,0.332878,0.315502,0.943080,-0.297966,0.147700
-0.732323,0.418799,0.586267,0.841841,0.529799,0.103044
0.185381,0.256715,0.941010,0.176549,0.708368,0.683407
-0.822081,0.767574,-0.169666,0.236200,0.445616,0.863502
-0.013112,0.472358,0.902503,0.432135,0.889125,-0.150716
-0.235075,0.382134,0.318313,0.020145,-0.641910,0.766516
0.199145,0.295899,0.183961,-0.670103,-0.741417,0.035534
-0.021155,0.210606,-0.626752,0.968018,-0.075962,-0.239106
-0.262462,-0.525284,0.056009,-0.295191,-0.250058,0.922135
-0.400896,0.183696,0.869307,0.815349,-0.195189,0.545075
0.335267,0.458037,0.457227,0.320811,0.691543,-0.647185
0.295641,0.038712,0.569782,-0.415193,0.297403,0.859748
-0.193207,0.541545,0.438665,-0.530392,-0.828074,-0.181600
-0.071861,-0.331882,-0.669610,0.810839,-0.010213,-0.585180
-0.531947,0.503724,0.609800,0.882722,0.266940,-0.386709
-0.537527,-0.209555,-0.951421,-0.258413,0.235218,0.936961
0.272242,0.469157,0.438553,0.489623,-0.188935,-0.851218
0.210376,0.301512,0.248022,0.958323,-0.150927,-0.242565
0.258982,0.315413,0.229320,0.744100,0.667954,-0.012367
0.074545,0.238828,-0.312069,0.843274,-0.534700,0.054624
-0.504710,0.283256,0.074910,0.475426,-0.647792,0.595261
-0.096277,-0.502991,-0.916262,-0.227038,0.221275,0.948415
-0.654522,0.386959,0.374068,-0.536795,0.112927,-0.836121
0.407856,0.424779,0.455165,0.013309,-0.827167,0.561798
0.564330,0.722829,0.339332,-0.479362,-0.764172,0.431571
0.561797,0.688786,0.650384,-0.428451,0.082385,-0.899801
0.025572,0.527486,0.877712,0.700043,0.694579,0.165829
-0.408577,0.019567,0.692917,-0.124929,-0.624756,0.770761
0.179005,0.593792,0.852413,-0.580526,0.534116,0.614581
-0.525208,0.102235,-0.970717,-0.182209,0.203580,0.961954
-0.400609,0.601395,0.047435,0.984311,0.059876,0.165974
-0.755939,0.312423,0.651825,0.870297,0.489796,0.051797
0.658072,0.114299,0.692988,0.055100,-0.016819,0.998339
-0.515503,0.739666,0.459487,-0.160041,-0.527666,0.834240
0.201607,-0.116293,0.145737,-0.749637,0.598614,0.282323
0.308967,0.069450,0.860917,-0.486998,-0.709780,0.508965
-0.003623,0.424152,0.981651,-0.671117,-0.740725,-0.030486
-0.278034,0.165863,-0.072847,-0.714997,0.442665,0.541136
0.329979,0.257291,0.586917,0.925986,0.373616,-0.054422
-0.062444,-0.015894,0.245268,-0.449120,0.421016,-0.788059
0.073674,0.632973,0.723076,0.932611,-0.324672,0.157561
-0.564330,0.220521,0.060713,-0.450219,0.558791,-0.696460
0.733990,-0.008444,0.477822,-0.043246,0.993730,-0.103106
-0.153722,0.056807,0.549285,-0.576929,0.324637,0.749509
-0.352723,-0.006136,0.521881,-0.256229,0.114235,0.959842
0.233629,0.349926,0.327763,0.959354,-0.271849,-0.075754
-0.175167,0.161458,0.290047,0.361218,0.268334,-0.893039
0.245217,0.467060,0.446548,-0.469208,0.081841,0.879287
-0.350406,-0.512116,-0.925514,-0.164424,0.156520,0.973892
0.157348,0.281105,0.859716,-0.156296,0.673301,0.722659
-0.367721,0.630405,0.437380,0.737185,0.167221,0.654672
-0.357287,-0.462494,0.044313,0.069955,0.997277,-0.023323
-0.296870,0.774233,0.266033,-0.015598,0.791702,0.610709
0.047162,-0.020457,0.241101,-0.047606,0.052023,0.997511
-0.420170,0.551774,0.726975,-0.645311,-0.308380,0.698910
0.024051,0.225714,0.298847,-0.658919,0.249038,0.709793
-0.198999,-0.040390,0.675938,-0.053279,-0.185586,0.981183
-0.843596,0.261697,0.264691,-0.721187,-0.056270,-0.690452
-0.760214,0.176092,-0.159312,-0.046315,0.096175,0.994286
-0.048246,0.339594,0.676602,0.255929,0.966449,0.021843
-0.062227,0.196026,-0.699797,0.973070,-0.214939,0.083277
0.744350,0.614877,0.260397,0.815770,0.008815,-0.578309
0.100694,0.035094,0.561151,0.397811,0.906616,0.140694
0.195523,0.444607,0.783026,0.951153,-0.306256,0.038939
0.154885,0.297420,-0.308411,-0.317160,0.942356,0.106650
-0.332442,0.142626,0.700065,-0.138758,-0.339419,0.930344
-0.444873,0.470207,0.677068,-0.263411,-0.492099,0.829731
-0.056939,-0.350294,0.438454,-0.719024,-0.234832,0.654109
-0.398655,-0.157101,0.803184,0.947253,0.292341,0.131336
-0.071428,0.186635,-0.940784,-0.317835,0.724653,0.611440
-0.398580,-0.264056,0.267205,0.868686,0.136883,-0.476075
-0.519200,0.259548,0.073638,-0.443125,0.704239,-0.554696
0.710304,0.283519,0.711789,-0.546763,0.776666,-0.312794
-0.262170,0.055392,-0.028845,0.471444,0.877754,0.085372
-0.581787,0.238251,0.072466,-0.437419,0.602346,-0.667716
0.336063,0.643884,0.838824,0.992973,0.068622,0.096412
0.123010,0.369020,0.888956,0.180560,0.607502,0.773524
0.013112,0.658729,0.807478,0.954709,-0.264162,-0.136926
-0.553029,0.520197,0.627783,0.465852,-0.249202,0.849046
0.808462,0.593109,0.461083,-0.059842,-0.809973,0.583406
-0.116997,0.514898,0.709346,-0.110272,0.987879,-0.109244
0.432050,0.595364,0.102342,0.184904,0.698690,-0.691118
0.438351,0.169638,0.566971,0.505315,0.386441,-0.771570
0.687484,0.714962,0.658860,0.137825,0.913615,-0.382507
-0.390828,0.273501,0.690078,0.788388,-0.578380,-0.209574
-0.570561,0.193980,0.589643,-0.187918,-0.981393,-0.039414
0.430963,0.443717,0.457608,0.039682,-0.909608,0.413569
0.687192,0.608266,0.115959,0.902165,-0.283547,0.325114
0.179367,0.419849,0.777969,0.857560,-0.054913,0.511445
0.076429,0.823333,0.799695,0.540375,-0.767728,0.344367
0.534772,0.529007,0.102865,0.290599,0.557757,-0.777470
0.234137,0.334821,0.496582,0.944566,-0.314112,0.095541
0.513765,0.243127,0.591762,-0.911386,0.353330,0.211027
-0.155102,-0.598197,-0.908704,0.345177,-0.245517,-0.905855
-0.403072,-0.246851,-0.942762,0.179616,-0.261828,-0.948253
0.755726,0.086762,0.680967,-0.364575,0.724709,-0.584706
-0.267242,-0.459241,0.019324,-0.204209,0.741388,0.639252
0.408360,0.594051,0.152531,-0.390218,-0.793861,0.466385
0.062302,0.264530,-0.387078,0.957667,-0.281894,-0.058394
0.878226,0.309695,0.274833,0.122841,-0.419329,0.899485
-0.656043,0.667646,-0.153591,0.059744,-0.498016,-0.865107
-0.644016,0.280320,0.593768,-0.086665,0.826981,0.555510
0.361416,0.472880,0.762727,0.086144,0.761894,0.641948
-0.465372,-0.379983,0.004591,0.781890,0.614910,0.102638
-0.138799,0.183696,-0.945785,0.402973,-0.640913,-0.653333
0.076791,0.432073,0.854094,-0.308764,-0.942855,0.125253
-0.486962,-0.301143,-0.942296,-0.139324,0.411948,0.900493
-0.408652,0.601501,0.680345,-0.492474,0.476817,-0.728090
-0.608011,0.643621,0.431263,0.100863,0.985543,0.136132
-0.188715,-0.206620,-0.064824,0.210437,-0.291341,0.933186
0.923573,0.120017,0.607696,0.178999,0.943347,0.279385
-0.304475,0.595626,0.068355,0.988983,0.124184,0.080570
0.601493,0.164288,0.690135,-0.379788,0.537124,0.753166
0.287311,0.375472,0.554865,0.223058,0.949063,-0.222542
-0.281222,0.140263,-0.953455,-0.378565,0.165756,0.910612
0.302521,-0.040021,0.564358,0.761796,-0.297745,0.575339
0.104824,0.445289,0.829854,0.867127,0.213552,0.449984
-0.176688,-0.586079,0.050161,-0.217592,-0.266112,0.939062
-0.278614,0.105174,-0.953738,0.438809,-0.128956,-0.889279
-0.204504,0.427507,0.684329,-0.151557,-0.678887,0.718431
0.015066,-0.910563,-0.877613,-0.297091,0.141322,0.944333
0.281877,0.038763,0.549667,0.649861,0.614869,0.446785
0.216893,0.319556,0.163168,-0.792398,0.587132,0.165476
-0.171254,0.722620,0.284368,0.296497,-0.222086,-0.928853
0.030573,0.392834,0.935826,0.849344,0.455931,-0.265974
-0.138583,0.109262,-0.897559,0.815011,0.552215,-0.175546
0.037815,0.182701,0.663013,-0.728265,0.672275,0.132953
-0.231962,0.420742,-0.031049,-0.160704,0.229240,0.960012
-0.513328,0.582932,0.603063,-0.534189,0.251989,0.806935
0.875400,0.033100,0.279919,-0.594831,0.719236,-0.358993
0.082513,0.280423,-0.524155,0.530030,-0.846243,-0.054238
-0.038828,0.334402,0.917604,0.723362,-0.666443,-0.180555
-0.432409,0.195814,0.701110,0.081073,-0.351411,0.932704
0.672994,0.627677,0.239632,0.651899,0.642814,-0.402265
0.411764,0.463596,0.727724,-0.135745,0.801247,0.582732
0.007174,0.255194,-0.674313,-0.318504,0.947639,-0.023118
-0.705086,0.361625,0.147460,-0.739924,0.572889,-0.352577
0.150538,0.207878,0.001356,0.987308,-0.150592,0.050450
-0.410535,0.269355,-0.030116,0.020089,0.971667,0.235499
-0.418428,0.117919,0.729758,0.291966,0.811280,0.506539
0.610403,0.660301,0.151585,0.031499,0.992790,-0.115657
-0.067011,0.212181,-0.880608,-0.315021,0.944750,-0.090605
0.125398,0.291859,-0.313849,0.637376,-0.768326,-0.058537
0.074691,0.648238,0.797703,0.584998,0.430203,0.687534
-0.469355,0.505927,0.613629,0.514538,0.289488,0.807123
0.540861,0.279427,0.597285,-0.850087,0.485721,-0.203535
-0.286002,-0.524128,0.052379,-0.290996,-0.264359,0.919476
0.143221,-0.717792,-0.888589,0.224958,-0.196256,-0.954399
0.323386,0.594944,0.853147,0.254046,0.858515,0.445435
-0.841496,0.323017,0.387403,-0.146813,-0.908177,0.391995
-0.342076,0.164288,0.695065,-0.173779,-0.548057,0.818190
0.048467,0.183594,-0.468838,0.940610,0.290036,-0.176443
-0.152201,0.412665,0.700503,-0.448033,0.274072,0.850971
0.192627,0.574592,0.840378,-0.505540,0.362602,0.782911
0.068023,0.002150,0.497358,-0.688908,-0.645716,0.329328
0.612141,0.547631,0.752854,0.850404,-0.322891,0.415397
-0.511519,0.925095,0.546856,0.989221,0.034278,0.142360
-0.149522,0.170269,-0.907701,0.956379,-0.088504,-0.278398
-0.219502,0.206514,0.543324,0.508654,0.367031,-0.778819
0.082805,0.259129,-0.307845,-0.493224,0.853989,0.165631
0.288686,0.308437,0.520836,0.694165,0.618368,0.368451
-0.289407,-0.311161,0.076167,0.427368,-0.112293,0.897077
-0.226165,-0.110575,0.771528,-0.524428,-0.727436,-0.442506
-0.868949,0.741449,-0.151995,-0.407725,-0.239562,-0.881119
-0.017892,0.624162,0.846183,0.989238,0.133548,0.059776
0.144088,0.569187,-0.069344,-0.354829,0.779677,0.515946
-0.061577,0.621015,0.285710,0.757998,-0.132516,-0.638653
-0.096927,0.203210,-0.767502,0.869317,-0.457923,-0.185995
0.329979,0.498531,-0.016895,-0.524996,0.249177,0.813812
0.263620,-0.109211,0.556970,-0.171501,-0.177683,0.969029
0.023038,0.334504,0.841635,0.089688,0.957080,0.275597
-0.264633,-0.017258,0.505156,0.229225,-0.553307,-0.800817
0.764561,0.212181,0.167519,-0.511668,-0.308309,0.801961
-0.067515,0.178503,-0.740832,0.978902,-0.197453,-0.052569
0.337584,0.052559,0.571308,0.897603,0.361350,-0.252457
0.045133,0.263742,-0.471028,0.873674,-0.484974,-0.038650
0.093885,-0.039551,0.435219,0.485014,0.664381,-0.568647
0.091497,0.309119,0.951280,-0.625491,0.534253,-0.568626
0.333091,0.201900,0.586465,0.735724,0.556127,-0.386565
-0.178501,-0.042698,-0.941773,0.239256,-0.176884,-0.954709
-0.375110,0.497641,-0.971621,0.342942,-0.088912,-0.935139
-0.719717,0.267258,0.553085,0.457478,0.698902,-0.549772
-0.150897,-0.648708,-0.707170,0.998973,-0.044238,-0.009806
-0.072299,0.217950,-0.815177,0.839057,-0.537775,0.082348
-0.139379,0.022503,0.728529,-0.686173,-0.485105,-0.542070
-0.117863,-0.048416,0.242344,-0.510922,0.348956,-0.785613
0.209867,-0.747955,-0.881639,-0.209633,0.238220,0.948317
-0.038682,0.231275,-0.790358,0.165823,-0.977923,0.127157
-0.010358,0.320869,0.995127,-0.148971,-0.210435,0.966191
0.006086,0.127886,0.391005,-0.623426,-0.781590,-0.021383
0.172054,0.492711,0.877416,-0.156352,0.202765,0.966665
0.056359,0.268045,-0.605464,-0.485083,0.869512,0.092967
0.191756,0.236468,0.094417,0.795105,-0.605942,0.025351
0.025426,0.377780,0.976184,0.476989,-0.875350,0.079016
-0.531297,0.274970,0.711959,0.825760,0.039862,0.562612
0.354536,0.546107,0.089530,0.218636,0.362923,-0.905806
0.131486,-0.728284,-0.885538,-0.250499,0.180404,0.951160
0.491887,0.638377,0.157814,0.228791,-0.308062,0.923446
-0.721168,0.360523,0.523732,0.750547,-0.161236,0.640845
-0.643291,0.237621,0.605337,0.088433,0.877564,0.471234
-0.342943,0.464226,0.070997,0.874376,-0.263536,0.407450
0.140975,0.156210,0.422632,0.002718,-0.084032,0.996459
0.067157,0.269723,0.741468,-0.645159,0.510152,0.568784
0.053030,0.265788,-0.620833,-0.620250,0.782847,0.049402
0.068532,0.067142,0.549003,-0.663021,-0.649230,-0.372697
0.053896,0.206937,-0.400483,0.970230,0.132731,-0.202577
0.929370,0.225608,0.187112,0.910265,-0.035712,-0.412484
-0.053388,-0.448173,0.051348,0.268195,-0.279271,-0.921997
-0.568894,0.023658,-0.966917,-0.171109,0.165264,0.971293
-0.089972,0.282837,0.315191,0.754481,0.035354,-0.655370
0.466172,0.450642,0.637148,0.621964,0.460291,0.633477
0.591204,0.634705,0.120310,-0.148468,0.962099,-0.228740
0.133149,0.277957,0.446576,0.600193,0.245498,0.761249
0.440597,0.074695,0.554173,0.883385,-0.414467,-0.218741
0.025935,-0.445183,0.058156,-0.195826,0.224513,0.954592
-0.326353,-0.370698,-0.931263,-0.071534,0.196566,0.977878
-0.641120,0.068087,0.060247,0.586426,0.043276,0.808846
-0.837074,0.424309,0.411897,-0.362022,0.734120,-0.574463
0.104462,0.792332,0.491525,0.121981,-0.914485,0.385794
-0.117067,0.184746,-0.821322,0.890185,-0.455513,0.008857
0.153651,0.312266,0.443638,-0.489140,0.189645,-0.851338
-0.464938,0.549309,0.421093,0.587686,0.786091,-0.191537
-0.208780,0.045740,0.364123,0.947921,-0.204045,-0.244564
-0.500943,-0.095204,0.046234,0.947405,-0.305198,0.096319
0.011591,0.265580,-0.546545,0.872507,-0.389200,-0.295389
-0.722039,0.224718,0.333639,-0.305445,-0.830760,0.465341
-0.208780,0.290969,0.463216,0.607673,-0.390315,0.691656
0.247393,0.336079,0.838117,0.587059,0.762038,0.273239
0.161765,-0.737988,-0.885270,0.263224,-0.197126,-0.944381
0.263620,0.366450,0.436589,0.838352,-0.170952,-0.517631
0.141554,0.455310,0.546107,0.563794,0.643028,-0.518316
0.378877,0.125526,0.820516,-0.570230,0.678875,0.462564
0.089976,0.240925,0.454176,-0.270504,-0.289844,-0.918051
0.262895,-0.046578,0.440996,0.781089,0.224739,0.582574
-0.602219,0.318560,-0.983798,-0.275865,0.113623,0.954457
-0.254998,-0.767888,-0.909156,0.247946,-0.110936,-0.962401
-0.477907,0.136751,-0.968259,0.412109,-0.149510,-0.898784
-0.487179,0.557073,0.604715,-0.403612,0.022324,0.914658
0.190960,0.127832,0.431631,0.765713,-0.490646,-0.415874
0.551800,0.560220,0.729885,-0.546891,0.832546,-0.088190
0.180747,-0.140894,0.145031,-0.624128,0.780313,-0.039696
0.143075,-0.043223,0.429201,0.402915,-0.130655,-0.905863
-0.140250,-0.572440,-0.910258,-0.342175,0.291622,0.893237
0.167849,0.277119,0.705772,0.842997,-0.426804,0.327405
0.089901,0.243652,0.934414,0.445204,0.213568,0.869588
-0.758260,0.377780,-0.143152,0.779986,0.274497,0.562382
-0.347727,0.516630,0.425316,-0.421341,-0.545067,0.724827
-0.592509,-0.055863,-0.964346,-0.184189,0.213021,0.959529
0.079617,-0.583402,-0.901288,-0.313950,0.184487,0.931343
0.903796,0.517414,0.430713,0.925960,0.361773,0.108253
-0.670315,0.590801,0.630820,-0.328421,0.913208,-0.241227
0.376197,0.225400,0.744816,0.190115,0.665895,0.721415
0.048971,-0.730906,-0.892587,0.302412,-0.190256,-0.933996
-0.860765,0.353285,0.605181,0.904425,0.407396,0.126664
-0.718921,0.473354,0.133306,0.869497,0.403016,0.285577
0.213126,0.379880,0.648618,-0.435249,0.897678,0.068793
0.063894,0.419430,0.815050,-0.312904,0.857268,-0.408880
-0.594826,0.650914,0.279580,-0.011605,0.238520,0.971068
-0.218268,0.033990,0.763194,0.436537,-0.691495,0.575560
-0.219285,0.044481,0.727300,0.763455,0.491500,0.419003
0.515432,0.700379,0.323469,0.567461,0.742604,-0.355706
0.248914,0.275335,0.347624,0.995141,-0.098182,0.007430
0.213563,0.342899,0.386343,0.167236,-0.985545,-0.027069
-0.140467,0.087808,0.361468,0.980856,-0.176098,-0.083126
0.803391,0.167278,0.229277,0.835281,0.235089,-0.497030
-0.538685,0.443874,0.131244,-0.210966,0.947024,-0.242153
-0.336859,0.137328,0.801531,0.669886,-0.535623,0.514160
0.132065,-0.011066,0.151091,0.504033,0.636370,0.583938
0.161186,0.399496,-0.029283,0.683080,0.223605,0.695272
-0.270500,0.442142,0.329091,-0.299394,0.300960,-0.905421
-0.157564,0.142940,-0.894098,0.861937,0.496807,-0.101234
0.470155,0.271612,0.692663,0.896918,0.442084,0.009974
-0.486816,0.125472,0.510015,-0.190527,0.142834,0.971235
0.434005,0.062055,0.566731,0.894024,-0.408315,-0.184392
0.342509,0.542121,0.762007,-0.266726,0.110533,0.957413
0.043829,0.409412,0.894014,0.988651,0.065396,-0.135250
0.037886,0.208457,0.310021,0.208785,0.173349,-0.962475
-0.596422,-0.096097,-0.961874,-0.221990,0.236534,0.945924
0.289844,0.356903,0.525653,0.611488,0.719930,0.328305
0.611783,0.532052,0.740804,0.748000,-0.211205,0.629196
0.181397,0.278588,-0.020257,-0.115416,-0.987370,-0.108531
-0.590772,0.777697,-0.149749,0.502089,0.778196,-0.377249
0.176108,0.482165,0.792957,0.928910,0.360129,-0.086212
-0.276226,0.548050,0.628178,0.316493,0.939688,-0.129684
-0.352723,-0.236205,-0.057309,0.059937,-0.210449,0.975766
-0.420674,0.106852,-0.961903,-0.308472,0.017731,0.951068
0.931687,0.394252,0.391598,0.949049,0.262327,-0.174615
-0.090410,-0.009863,-0.935727,0.267515,0.028040,-0.963146
0.049408,0.144198,0.885481,-0.163928,-0.323539,0.931907
0.063969,0.232322,0.941250,0.495671,-0.266624,-0.826573
0.069040,-0.012430,0.401529,-0.580992,0.409577,0.703345
-0.805058,0.356589,0.154142,0.232016,-0.751775,0.617254
0.254565,0.626995,-0.074331,-0.635676,0.575138,0.514909
-0.254781,0.098931,0.568073,0.770015,0.626791,-0.119202
0.292378,0.674414,0.749308,-0.145381,0.909718,0.388945
0.058897,0.250053,-0.380114,0.992053,-0.117457,0.045103
0.064110,0.210241,-0.421954,0.996231,0.086120,-0.010313
0.847509,0.433645,0.246581,0.866601,-0.226863,0.444449
-0.678646,0.405845,0.148717,0.771032,0.045603,0.635161
0.133657,-0.011697,0.415654,-0.591275,0.179706,0.786193
0.176183,0.346571,0.528958,-0.572852,0.747781,0.335655
-0.478194,0.726869,0.275455,-0.000586,0.335479,0.942047
0.348235,0.463333,0.719474,0.110898,0.945675,0.305615
-0.509127,0.153483,0.735380,0.784937,0.558359,0.268530
0.393366,0.156630,0.833682,0.804446,0.229342,0.547967
-0.006374,0.332039,0.892177,0.085955,-0.449310,0.889231
0.262316,0.145299,0.933750,0.859537,-0.475986,0.186101
-0.593668,0.487620,-0.145341,0.777000,-0.486028,-0.400059
-0.365692,0.626051,-0.154678,0.099797,0.111378,0.988755
0.728631,0.226921,0.709233,0.932074,0.248551,-0.263554
-0.482978,0.565832,0.750198,0.020068,0.421647,0.906538
-0.011516,0.436321,0.715335,0.574000,0.764844,0.292466
-0.076066,-0.380927,-0.920485,-0.229253,0.245002,0.942028
-0.219285,0.099770,-0.947042,-0.399520,0.157643,0.903069
-0.815201,0.314939,0.390242,0.164321,-0.424417,0.890432
0.198203,0.288923,0.180091,0.917234,-0.384348,0.104681
-0.002390,0.205256,0.667152,0.750820,-0.659470,0.036993
-0.109533,-0.820919,-0.896457,-0.271617,0.322649,0.906709
0.472835,0.550778,0.842355,0.212664,0.974276,0.074563
-0.844105,0.342425,0.594460,0.810067,0.526389,0.258276
0.504639,0.431074,0.611016,0.181204,0.283197,-0.941788
-0.020717,0.190045,0.754393,0.365174,0.777363,0.512206
-0.026801,0.053138,0.475167,-0.509513,-0.612548,0.604303
-0.726531,0.372430,0.638095,-0.053228,-0.090291,0.994492
0.076575,0.464069,0.918367,0.932109,-0.362048,-0.009712
0.294045,0.466954,0.719785,-0.787181,0.605715,0.116001
0.193857,0.021299,0.789934,0.129008,0.484364,0.865303
-0.033540,0.239458,-0.676729,0.921501,-0.386027,-0.042658
0.040061,0.276805,-0.498135,0.592853,-0.805152,0.015981
0.527746,0.384756,0.732569,0.959512,0.042478,0.278446
0.121126,0.214960,-0.267742,0.930045,-0.361717,-0.064628
0.189223,0.221571,0.907151,0.889137,0.437740,0.133489
-0.271371,-0.382922,-0.926192,0.295908,0.000625,-0.955216
0.294987,0.326689,0.425740,0.990257,0.023889,-0.137190
-0.505144,0.232901,0.706506,-0.688196,0.416114,-0.594336
0.199870,0.267520,0.870028,0.053342,-0.844046,0.533612
0.011374,0.213439,-0.522008,0.982885,0.180968,-0.034475
0.056651,0.327057,0.656458,0.018669,0.919389,0.392906
-0.202041,-0.296421,-0.928693,-0.245093,0.440309,0.863746
0.572444,0.477865,0.634818,-0.203533,-0.177936,0.962763
0.073241,-0.069082,0.423423,0.676756,-0.004661,-0.736193
-0.262603,-0.309695,-0.931207,-0.288611,0.302619,0.908364
0.318385,0.617762,0.114533,0.298270,0.730565,-0.614255
0.674515,0.184064,0.739844,0.983258,0.048105,-0.175757
0.160315,0.285251,0.926320,-0.508720,-0.628017,-0.588896
-0.756085,0.478336,0.158704,-0.507199,-0.400397,-0.763172
0.100694,0.127518,0.242118,-0.566193,0.187817,-0.802590
-0.020717,0.156105,0.654664,0.896312,-0.368012,-0.247370
-0.640682,0.308120,0.573568,0.601562,-0.779565,0.174364
-0.312302,-0.268308,-0.939188,0.304564,-0.302052,-0.903330
-0.047017,-0.209034,0.038888,-0.252350,0.621745,0.741453
-0.510215,0.135230,-0.971409,-0.300074,0.173368,0.938029
0.212622,-0.056494,0.578653,0.541656,0.575001,-0.613174
0.080700,0.426460,0.744943,0.262114,0.963213,-0.059301
0.795206,0.316722,0.244081,0.625800,-0.698634,-0.346821
0.556217,-0.016996,0.281289,-0.426559,-0.515468,-0.743196
0.152347,0.264898,0.451322,-0.509443,-0.327842,-0.795605
-0.585337,0.184695,0.534001,-0.425752,0.212341,-0.879572
0.270283,0.590852,0.694231,0.971416,0.142902,0.189554
0.463200,0.303452,0.730379,0.074303,0.918832,0.387590
-0.512461,0.330835,0.581068,0.683269,0.521498,0.511061
0.127573,0.317247,0.873432,0.800124,-0.203817,0.564146
0.188714,0.305235,0.784312,-0.654202,0.066929,-0.753353
0.744642,0.542857,0.720336,-0.739768,0.647082,-0.184466
-0.137787,0.072127,0.286346,-0.726951,0.582751,-0.363241
-0.607794,0.694767,0.762798,0.860823,0.502490,-0.080540
0.215951,0.420163,0.827325,0.811791,0.579849,0.069064
-0.384236,-0.473719,0.062352,0.801689,0.557519,0.215565
-0.185235,-0.105171,0.718316,-0.614053,-0.759362,-0.215192
0.286510,0.580780,0.806334,0.257008,0.866099,-0.428741
0.300204,0.228967,0.584713,-0.203355,-0.860916,0.466337
-0.470081,0.325168,0.088117,0.237674,-0.393013,0.888286
0.042816,0.461710,0.943793,-0.108892,-0.991563,-0.070328
0.024993,0.327371,0.582891,0.267053,-0.079286,0.960415
-0.135612,0.177927,-0.831422,0.988633,-0.092468,-0.118549
-0.622934,0.388742,0.653859,0.347679,-0.073799,-0.934705
-0.883731,0.473040,0.440233,-0.764129,0.496738,-0.411531
0.073820,0.272819,-0.536332,-0.388893,0.894924,-0.218798
0.135395,-0.051509,0.727399,-0.617294,0.769525,0.163645
0.452841,0.238094,0.767036,-0.104364,-0.957193,-0.269982
0.120980,0.215536,0.585433,-0.176757,-0.042889,0.983320
-0.187264,0.032524,0.266273,0.704300,-0.457606,0.542732
0.381269,0.575274,0.741242,0.520728,-0.603686,-0.603661
0.881338,0.139322,0.288366,0.928906,0.203350,-0.309489
0.065994,0.272713,-0.538747,0.306985,-0.947546,0.088972
-0.193278,0.235312,0.833484,0.880141,-0.174526,0.441466
0.086572,0.306705,0.957199,0.703083,-0.581566,0.409213
-0.430746,-0.246694,0.079727,-0.452236,0.440678,0.775426
0.670023,0.659360,0.636301,0.479520,-0.439859,0.759331
-0.120180,-0.159515,0.750763,0.531264,0.227173,0.816181
-0.387132,-0.457826,-0.931941,-0.096095,0.142084,0.985179
-0.581787,0.380300,-0.985436,-0.308907,0.163160,0.936993
0.062952,0.456568,0.432379,-0.147122,0.807579,0.571114
0.193711,0.596414,0.829628,-0.307217,0.679920,0.665828
-0.052013,0.160094,0.425090,-0.302795,-0.952917,0.016231
0.085701,0.229857,-0.594248,-0.585241,0.810351,-0.028709
-0.182122,-0.399077,-0.923085,0.335355,0.002058,-0.942090
-0.652129,0.414499,-0.990409,-0.310697,0.163058,0.936418
0.887065,0.110786,0.183283,0.755927,0.184930,-0.627993
-0.504927,0.131296,-0.969771,0.346859,-0.199380,-0.916480
-0.509560,0.145405,0.515270,0.987401,0.056407,0.147841
0.142642,0.280477,0.084586,0.880206,-0.474517,0.008399
-0.186468,0.011489,0.729828,0.703170,0.460661,0.541612
-0.689005,0.280740,-0.155314,0.428160,0.128148,-0.894571
-0.661764,0.397556,0.522531,0.119857,-0.614582,0.779694
0.864532,0.537296,0.314796,0.872977,-0.478853,-0.092794
-0.563172,0.274183,0.274452,0.499805,-0.618608,-0.606234
0.025284,-0.424097,0.050938,0.101339,0.353289,0.930009
0.153218,0.276123,-0.010255,0.876319,-0.478862,-0.052499
0.959291,0.106957,0.249760,0.890648,-0.450128,-0.064276
0.029122,0.237934,-0.480379,0.935099,0.239497,-0.261212
-0.557159,0.199800,0.517333,-0.402051,0.106997,-0.909344
-0.291220,0.086656,0.490112,-0.436045,0.878217,0.196467
0.815488,0.354857,0.232710,0.784094,-0.393521,0.479934
-0.308897,-0.171421,0.770723,0.990617,-0.009792,0.136314
-0.672340,0.376365,0.655314,-0.572691,0.536077,-0.620198
-0.634019,0.443979,0.634888,0.968713,0.003270,0.248164
-0.050346,0.012273,0.663903,0.977140,-0.208039,0.043791
-0.323890,0.245333,0.594898,-0.128309,0.468112,0.874304
0.093522,0.182963,0.691236,-0.661828,0.142040,0.736076
0.160752,0.242289,0.006569,0.989077,-0.146723,-0.014139
-0.747246,0.678032,-0.159411,-0.157212,0.278522,0.947475
0.440164,0.501416,0.647107,0.994467,0.035875,0.098738
0.617429,0.769200,0.636371,0.752664,0.237965,0.613897
0.048825,0.138954,0.936038,-0.249490,-0.398954,0.882378
-0.042016,0.030580,0.447819,0.902356,0.306187,0.303321
-0.363300,0.081934,0.535583,0.929382,0.356315,-0.096372
0.114675,0.176512,0.630820,0.929696,-0.029154,0.367171
-0.737541,0.420742,0.155597,-0.699909,0.247641,-0.669926
-0.411114,0.491504,0.734334,0.789998,-0.465941,-0.398499
-0.197553,0.133706,0.632430,-0.711254,0.088724,0.697314
-0.446828,0.553138,0.738431,0.472403,-0.601003,0.644694
0.237466,0.360732,0.818157,0.199011,0.786488,0.584663
0.827585,0.663084,0.474432,0.798652,0.526192,-0.292022
0.679154,0.671369,0.351607,0.481905,0.859941,-0.168134
0.354753,0.460922,0.677153,0.970830,-0.163409,-0.175462
-0.642349,0.610261,0.747090,0.537691,-0.821120,0.191443
0.211605,0.312368,0.377910,-0.003349,-0.971933,0.235232
-0.044771,0.549571,0.631682,0.587367,-0.226964,0.776845
0.009274,0.731694,0.286120,0.006084,0.048810,0.998790
-0.751738,0.534937,0.616849,-0.055856,-0.229002,0.971822
-0.218847,0.058539,-0.054978,0.790340,0.345368,0.506047
0.187193,0.460503,0.820177,0.978412,-0.204747,-0.028079
-0.565560,-0.190464,-0.954642,-0.216299,0.203381,0.954909
0.082730,0.277381,-0.452325,0.146535,-0.982824,0.112181
-0.157127,-0.336864,-0.689414,0.985435,-0.131448,-0.107881
-0.607940,0.340433,-0.984786,-0.297067,0.153677,0.942409
-0.699798,0.455361,0.152616,0.859426,0.056397,0.508140
-0.048392,0.771611,0.843316,-0.741688,-0.169253,-0.649039
0.140249,0.423941,0.850365,0.290260,-0.877371,-0.382059
-0.221094,0.136015,-0.949726,-0.420919,0.043748,0.906043
-0.332659,-0.027590,0.744661,-0.432752,-0.831495,-0.348341
-0.223848,0.227235,0.284397,-0.374833,-0.139903,0.916476
-0.541294,0.604962,0.437253,0.356254,0.933238,0.046362
0.945380,0.391576,0.285188,-0.112681,0.139737,-0.983756
0.189364,0.375946,0.718754,0.981889,0.114662,-0.150817
-0.509560,-0.115557,0.256978,0.681575,0.352188,-0.641420
0.167270,0.601972,0.743078,0.969250,-0.197338,-0.147013
-0.007608,0.125526,0.392954,0.795307,0.555887,-0.241819
-0.531660,0.504982,0.766866,0.034910,0.070018,0.996935
-0.025280,0.208038,-0.825842,0.945990,-0.286220,0.152255
-0.495580,-0.230433,0.066519,-0.325578,0.588492,0.740051
0.572590,0.491241,0.633560,-0.236239,-0.283736,0.929347
-0.285498,0.083352,0.507487,0.301064,-0.945241,-0.126016
0.325340,0.622692,0.821308,0.884609,0.083495,-0.458797
-0.318240,-0.337965,-0.931687,-0.072139,0.367965,0.927037
-0.407564,0.436949,0.607682,0.750631,-0.223574,0.621746
-0.077225,0.371223,0.653393,-0.287567,0.805218,0.518583
0.456970,0.376890,0.791488,-0.523102,0.733973,-0.433183
-0.082584,0.237934,-0.744816,0.905462,-0.419831,-0.062295
-0.500289,0.488040,0.721621,0.739463,0.643567,0.197524
-0.257028,-0.097407,0.764804,0.534286,0.625811,0.568242
-0.110475,0.195184,0.694641,0.566470,-0.574226,0.591081
-0.057447,0.108740,0.718344,-0.321064,0.659423,0.679764
0.046291,0.865453,0.786572,0.222879,0.044694,0.973821
-0.769199,0.290389,0.616680,0.403750,0.743092,-0.533667
-0.124093,0.158676,-0.829967,0.983086,-0.148577,-0.107083
0.021880,0.240348,-0.455461,0.976239,-0.190926,-0.102496
0.209721,0.332564,0.374477,-0.040947,-0.999133,-0.007465
0.354682,0.144986,0.568256,-0.395040,-0.015280,-0.918537
0.133949,0.273133,-0.160809,0.936718,-0.349836,0.013174
-0.768691,0.378619,0.540541,0.243747,0.917483,0.314345
-0.539698,0.153640,-0.972624,-0.261540,0.158346,0.952115
-0.632281,0.304291,-0.984716,-0.277509,0.163004,0.946794
0.590121,0.589332,0.151034,-0.788093,0.354063,-0.503537
-0.782963,0.236311,-0.156190,0.142223,-0.133399,0.980804
-0.586062,0.596622,0.279114,-0.004773,0.268722,0.963206
-0.056722,0.186110,0.673861,0.078645,-0.964967,0.250306
-0.836354,0.282523,0.342002,0.793452,0.218583,0.568028
-0.056214,0.214854,-0.853642,0.422172,-0.901193,-0.098091
0.040424,0.231221,-0.472497,0.991477,0.046212,-0.121809
-0.028397,0.473248,0.713767,0.560907,0.502864,-0.657655
0.253552,0.540706,0.826350,0.766738,-0.375433,-0.520733
0.015504,-0.014373,0.450319,0.108587,0.705286,0.700558
-0.215589,0.189101,0.603147,-0.315561,-0.080593,0.945477
-0.295858,0.181756,0.534693,-0.072960,0.748115,0.659546
-0.094031,0.165287,-0.797294,0.985390,-0.086083,0.146954
-0.227253,0.325745,0.568906,0.197711,0.848342,-0.491147
-0.119530,0.422788,-0.014606,0.006369,0.701834,0.712312
0.739353,0.579314,0.257190,0.908509,0.030369,-0.416761
-0.007099,0.165550,0.653224,-0.670249,0.604650,-0.430308
-0.031656,0.171002,-0.925401,0.569578,0.636488,0.520061
-0.030065,-0.055706,0.407730,-0.448139,0.578291,0.681727
0.167416,0.426617,0.890115,-0.250841,0.943620,-0.216008
-0.243334,-0.031630,-0.049652,-0.210222,-0.139138,0.967702
-0.007678,0.203104,-0.568779,0.951876,0.306258,-0.011744
0.260578,0.350506,0.381795,-0.263703,0.962866,0.057885
-0.028977,0.191095,-0.676545,0.983723,-0.133039,-0.120788
0.065198,0.309538,0.319697,0.026515,0.277819,0.960267
-0.482978,0.298208,0.519706,-0.692334,0.256421,0.674479
0.267171,0.450901,0.632148,0.721216,-0.357909,0.593084
-0.356707,0.210292,0.611199,0.051008,0.014634,0.998591
-0.167633,-0.426092,0.038182,0.134124,0.134825,0.981750
0.142567,0.326689,0.631837,-0.458331,0.695963,0.552782
0.052884,0.425881,0.845025,-0.664528,-0.624809,0.409898
-0.425312,0.518202,0.763349,0.251681,-0.103745,0.962234
0.130907,0.437211,-0.012275,0.405351,0.140712,0.903267
-0.410027,-0.004458,0.759775,0.579472,0.782946,0.226291
0.000944,0.817564,0.790951,0.115131,0.820471,0.559975
-0.002027,0.159515,0.417279,-0.337565,-0.892975,0.297734
-0.127861,-0.026856,-0.938708,-0.326690,-0.047285,0.943948
0.301216,0.683801,0.735832,0.849336,-0.524633,0.058206
-0.144234,0.428346,-0.022220,0.267671,-0.338061,-0.902257
-0.039120,0.237883,-0.711380,-0.621568,0.746535,0.237360
0.132644,0.658518,0.729616,-0.486270,0.815922,0.312750
0.467476,0.583562,0.833993,0.195648,0.976127,0.094334
-0.390974,0.038187,0.516993,0.677592,-0.262227,-0.687100
-0.561505,0.040390,-0.107399,-0.469746,-0.158557,0.868446
0.232470,-0.173992,0.168932,0.888979,0.273414,0.367370
0.148292,0.368182,0.872062,0.933009,0.358770,-0.027904
-0.100770,0.515003,0.417646,0.015580,-0.000842,0.999878
0.282093,0.226710,0.787801,-0.260963,0.681743,-0.683466
-0.466893,-0.147557,0.160541,0.841511,-0.244304,0.481846
-0.052159,0.420793,0.978458,-0.712924,0.593096,0.374134
0.015066,0.675829,0.818157,0.989066,-0.098393,-0.109851
-0.138291,0.346728,-0.032263,0.127400,-0.358057,0.924967
-0.232687,-0.838230,-0.899071,0.292624,-0.270556,-0.917154
0.746379,0.631138,0.165273,0.545668,0.723314,-0.423159
0.528834,0.666964,0.439499,-0.163183,-0.142322,0.976277
0.837658,0.488251,0.243432,0.919848,0.011727,0.392100
0.119968,0.352234,0.887007,0.982375,0.109701,-0.151345
