-0.259292,0.000142,0.823115,0.469132,0.882499,0.033336
-0.232791,-0.063392,0.324035,-0.652311,0.559212,-0.511636
0.689650,0.519434,-0.965353,-0.647055,-0.037421,-0.761525
0.599485,0.340658,-0.959250,0.452475,0.866691,0.210028
-0.545433,0.240211,0.801629,-0.889123,0.021154,0.457178
0.132693,0.100756,-0.171362,0.655862,-0.429584,0.620727
-0.206411,-0.055034,0.441633,-0.222172,0.970926,0.089125
-0.215470,-0.007310,0.491900,0.063053,-0.928653,0.365550
-0.639140,-0.203292,0.562936,0.351868,-0.052314,-0.934587
0.790258,0.269237,-0.964436,0.215034,0.963900,0.157025
-0.407245,0.147697,0.864268,0.367443,0.929278,-0.037792
0.108944,0.036439,-0.166653,-0.648910,0.461223,-0.605136
-0.483652,0.101356,0.640601,-0.519933,0.669930,0.529966
0.179571,0.054822,-0.260147,-0.670870,0.728248,0.139960
0.823450,0.138032,-0.945875,-0.689897,0.055861,-0.721749
0.068712,-0.321873,0.316953,-0.272355,-0.956609,0.103542
0.639146,0.673561,-0.962470,-0.355804,-0.755214,0.550504
0.710000,0.303131,-0.974088,-0.509651,0.187184,0.839772
0.936709,-0.107553,-0.948756,0.816245,-0.198591,-0.542499
0.419977,0.271794,-0.729590,-0.604945,0.793773,0.062978
0.263860,-0.556316,0.539445,-0.627046,0.342189,-0.699801
-0.288852,0.043931,0.927167,0.417591,-0.465285,-0.780466
0.179786,0.103075,-0.213113,-0.287035,0.944877,0.157538
0.066389,-0.143102,0.243084,-0.783736,0.546878,-0.294418
0.188027,0.050316,-0.225395,0.595921,0.750002,0.287010
0.343109,-0.573907,0.408641,-0.590775,-0.696863,0.406653
-0.232663,0.010844,0.315661,-0.120129,0.853742,0.506649
-0.463942,0.062373,0.485693,-0.635590,0.083204,-0.767530
-0.193780,-0.127862,0.705619,0.380876,0.807762,0.449949
0.340238,-0.397026,0.436363,-0.705763,-0.551145,0.445127
0.059459,0.000380,0.014912,0.763158,0.451946,-0.461882
0.467379,0.563703,-0.977133,0.785679,-0.170961,-0.594543
0.053733,-0.300101,0.304306,0.194342,0.976913,-0.088728
-0.254604,0.098534,0.914954,-0.656789,0.753602,0.026696
0.073488,-0.194084,0.255780,0.844983,0.286987,-0.451267
-0.295906,0.327457,0.990762,-0.125057,-0.811873,0.570283
0.212037,0.061555,-0.255776,-0.665367,0.739283,-0.103667
-0.429587,-0.109855,0.589430,0.222130,-0.973245,0.058757
-0.670605,0.220482,0.608180,-0.500768,0.227677,0.835102
-0.487213,0.042083,0.732246,0.039195,0.966494,0.253677
-0.220925,-0.013408,0.344493,0.411546,-0.466014,-0.783237
0.113455,0.005686,-0.058978,0.777182,0.552161,-0.301837
0.064929,-0.070594,-0.036998,0.297891,-0.764621,0.571502
-0.773389,-0.377935,0.542822,-0.068771,-0.118917,0.990520
-0.359639,0.245802,0.796114,0.258905,-0.033822,0.965310
-0.888181,-0.142110,0.583378,-0.432703,0.554141,-0.711123
-0.294912,0.050386,0.866126,0.934098,0.160551,-0.318881
0.607871,0.454931,-0.957485,-0.247131,-0.085162,-0.965232
0.061207,0.064553,-0.104342,-0.484726,-0.392247,-0.781782
0.229229,0.086502,-0.312198,0.632893,0.728461,-0.262281
0.599552,0.623228,-0.970618,0.409148,0.874960,0.258924
-0.409910,0.357671,0.869465,0.665636,-0.741110,-0.087662
0.400068,0.172334,-0.410797,-0.608290,-0.759495,0.230545
0.132172,-0.000019,-0.197698,0.039310,0.922296,0.384479
0.908708,-0.165925,-0.956189,0.650796,-0.409756,-0.639191
0.289462,0.088285,-0.428171,0.065782,0.523539,0.849458
0.291876,-0.630944,0.379772,0.788763,-0.466553,-0.400226
-0.186932,0.737997,0.894131,-0.201401,-0.503631,0.840115
-0.483372,-0.040956,0.717936,-0.609896,-0.777218,0.154786
0.383565,-0.700355,0.394421,0.935389,0.347973,0.062949
0.034863,0.045052,-0.043658,-0.683210,0.724506,-0.091188
-0.286331,0.334928,0.948439,0.748085,-0.046759,-0.661954
0.018603,-0.271819,0.309343,0.520198,0.838580,0.161796
0.908190,-0.097033,-0.953110,0.770393,0.637491,0.010018
0.422188,0.455836,-0.979394,-0.331755,0.464297,0.821198
-0.010078,0.037855,-0.012760,-0.043553,0.586152,0.809030
0.608626,0.588785,-0.958505,0.006243,0.848536,0.529101
0.515596,0.904265,-0.961258,-0.365024,0.052843,0.929497
0.525838,0.518783,-0.952906,0.069899,0.411742,0.908616
0.506268,0.389350,-0.963476,0.939352,-0.136637,-0.314562
-0.247325,-0.042814,0.530300,0.817752,0.545682,-0.183066
-0.764733,-0.215300,0.540264,0.320604,-0.325568,0.889505
-0.225092,-0.086922,0.499424,0.544576,-0.727712,0.416981
-0.376684,0.124782,0.799135,0.863351,-0.442816,-0.241948
-0.529706,0.303029,0.862951,0.018772,-0.960168,-0.278792
0.440352,0.605227,-0.968720,0.090909,0.436752,0.894977
-0.615889,0.327598,0.588590,-0.524003,0.431760,-0.734168
0.252400,0.059708,-0.308214,-0.049276,0.766075,0.640860
0.286920,-0.723543,0.389676,-0.178534,-0.961518,0.208827
0.439373,0.824763,-0.968933,0.685150,-0.048743,0.726769
0.702221,0.585954,-0.956278,0.899520,0.197447,-0.389716
0.375085,0.642622,-0.976208,-0.339713,-0.411863,0.845555
0.610380,0.283030,-0.964938,0.136165,0.716928,0.683720
0.862762,0.014516,-0.939537,-0.621669,-0.182093,-0.761820
0.649692,0.609762,-0.947333,0.034183,0.858746,0.511260
-0.058822,-0.022209,0.229686,-0.704146,0.692783,-0.155662
0.433782,0.682120,-0.978550,-0.062053,0.337737,0.939193
-0.313186,0.199464,0.789118,0.956072,-0.031368,0.291449
-0.588369,-0.041069,0.682736,0.296886,0.100417,0.949618
-0.408735,0.113538,0.770081,0.512833,0.613424,-0.600594
0.620560,0.580924,-0.970123,0.340775,-0.755749,0.559209
0.617259,0.409891,-0.959582,0.098292,0.157884,0.982553
0.021155,0.013736,0.217233,-0.593688,-0.648231,-0.476792
0.450632,-0.606867,0.575820,-0.135695,0.665289,0.734150
-0.307528,0.195973,0.539241,0.423646,0.324262,0.845800
-0.431615,0.800022,0.887947,0.849742,-0.217641,0.480178
0.346711,-0.401914,0.506079,0.418500,0.053217,-0.906656
-0.406359,0.258458,0.861865,-0.740074,0.503512,0.445832
0.510191,0.899339,-0.975061,0.765125,0.569623,0.300190
-0.541888,0.022394,0.703076,0.593948,0.760443,-0.262589
-0.399910,0.159994,0.849528,0.518814,0.810279,0.272542
0.058110,-0.067047,0.043112,0.904440,0.396091,-0.158428
-0.268803,-0.041005,0.560796,-0.420077,0.776400,0.469828
-0.325392,0.592746,0.875607,-0.391127,-0.265406,-0.881237
0.029030,0.019902,0.049459,0.812040,-0.569983,0.125342
0.407900,0.260106,-0.641450,0.783537,-0.620702,0.028264
-0.249788,-0.074941,0.464779,-0.317692,-0.917764,0.238287
-0.007905,-0.017026,0.074430,-0.011747,-0.814809,0.579611
0.026744,0.248040,-0.117497,0.994296,0.043292,-0.097472
0.087311,0.122159,-0.151442,0.413719,0.560517,0.717396
-0.483084,-0.011366,0.698835,0.596125,0.770070,0.227216
-0.300678,-0.063046,0.745557,0.994004,-0.105702,0.028002
0.707349,0.482638,-0.965722,-0.588232,-0.097957,0.802738
-0.864833,0.047663,0.577994,-0.596649,-0.279831,0.752134
0.167629,-0.396834,0.336608,0.874044,0.476010,-0.097272
0.040422,-0.061783,-0.113150,0.600616,0.662287,0.447923
-0.001943,0.166063,-0.190780,0.281029,-0.952234,0.119471
-0.116157,0.191401,0.935636,0.744784,0.551525,0.375654
-0.321658,0.078855,0.861443,-0.016420,0.786720,0.617092
0.359343,0.189608,-0.507205,-0.513815,0.794907,-0.322671
0.772094,0.089195,-0.968530,0.498243,-0.233474,-0.835011
0.198826,-0.422865,0.339918,0.893580,0.448803,0.009516
0.508584,0.665742,-0.976045,-0.039290,-0.566965,0.822805
0.316597,0.156377,-0.507162,-0.680417,0.722608,-0.121942
0.063176,-0.027011,0.098897,-0.629457,-0.634059,0.449170
-0.242284,-0.125615,0.878875,-0.222237,0.706295,0.672130
0.066126,-0.449827,0.260583,-0.688482,-0.485739,-0.538563
-0.803357,-0.047476,0.569943,0.100306,-0.642388,0.759787
-0.885341,0.038891,0.574788,-0.007449,-0.257870,0.966151
-0.251674,0.057697,0.463291,0.300022,-0.947788,-0.108093
0.078657,0.012993,-0.054606,-0.221897,-0.362085,0.905349
0.287899,0.770177,-0.981124,0.618481,0.226632,0.752409
-0.358818,0.394460,0.839058,-0.519988,0.854146,0.006870
-0.268830,0.057865,0.523408,0.807806,0.575321,-0.128275
0.171795,0.031754,-0.234484,0.626579,-0.214238,-0.749334
0.505962,0.513350,-0.974393,0.847652,0.066543,0.526363
-0.299745,-0.124492,0.740245,-0.168136,-0.680912,0.712804
0.318524,0.715759,-0.969658,0.234223,0.839148,0.490888
0.402624,0.304278,-0.688946,0.157889,-0.970822,-0.180489
0.898978,0.015619,-0.947253,-0.490197,-0.092077,-0.866735
0.183743,-0.429356,0.326868,0.450099,0.756707,0.474136
-0.217808,-0.002506,0.941886,0.427949,0.218101,-0.877093
-0.685175,-0.251724,0.536274,0.374257,-0.601123,0.706104
-0.310383,0.136580,0.918855,-0.726240,-0.118467,0.677157
-0.525654,0.032084,0.754069,-0.316356,0.372649,0.872383
0.009119,-0.225622,0.247634,0.848270,-0.376425,0.372481
0.471980,-0.562487,0.562413,0.066363,-0.877446,0.475062
0.131103,-0.211106,0.328619,0.006627,-0.745024,0.667005
-0.177175,0.012677,0.655243,0.325600,-0.938880,-0.111751
-0.325580,0.430031,0.907758,0.197078,0.960141,0.198218
-0.474050,0.002115,0.721298,0.996446,-0.046245,-0.070411
-0.307471,0.032126,0.589856,-0.098106,0.960266,-0.261274
0.566844,0.288341,-0.973374,0.156936,-0.228873,0.960723
0.344730,-0.475954,0.471595,0.039747,0.460765,0.886632
0.810977,0.059078,-0.957418,0.343232,0.108780,-0.932930
-0.437397,0.211529,0.792972,0.816956,-0.289892,0.498544
0.246049,0.088712,-0.309313,-0.546734,-0.741512,0.388898
-0.322239,0.186329,0.801443,-0.629965,-0.019501,-0.776379
0.412650,0.652829,-0.986471,-0.184848,-0.775971,0.603076
-0.583994,-0.026289,0.595993,-0.439236,0.821286,0.364090
0.355961,0.731295,-0.973344,0.177568,0.914357,-0.363897
0.713085,0.314586,-0.957530,0.189130,-0.090765,0.977748
0.417591,0.855090,-0.973656,-0.104977,0.357467,0.928007
0.437669,-0.812845,0.408285,0.525412,0.303533,0.794865
-0.480128,0.305604,0.793936,-0.605182,0.729851,0.317917
0.565762,0.345390,-0.948291,0.211794,-0.188765,0.958911
0.396486,0.202348,-0.512456,0.393887,-0.670555,0.628656
0.546877,0.567094,-0.969462,-0.467918,0.861902,0.195392
-0.328748,0.346227,0.888864,-0.466440,0.407352,-0.785174
0.173985,0.080118,-0.236075,0.679534,0.540877,0.495668
-0.317927,0.022665,0.834725,-0.098406,-0.866538,0.489314
0.857452,0.041298,-0.950118,-0.680944,0.525575,-0.509986
-0.720558,0.007283,0.596347,-0.111929,-0.750663,0.651135
0.449285,0.282495,-0.766473,0.782794,-0.279827,0.555814
-0.248911,0.010326,0.591552,0.760538,0.545484,0.352178
-0.344422,0.080451,0.849360,-0.077992,-0.841146,0.535155
0.541787,0.676763,-0.959445,-0.876487,0.435006,0.206252
0.496474,-0.657249,0.625076,0.895121,-0.443358,-0.046815
0.529714,-0.717843,0.627122,-0.710865,0.701886,0.045011
0.679270,0.333540,-0.951514,0.820801,-0.198257,-0.535705
-0.334185,-0.026987,0.629864,-0.469444,-0.261818,0.843252
0.452258,-0.607953,0.602790,0.335145,0.274309,-0.901350
-0.397292,0.194152,0.404467,0.901893,0.368090,0.226049
0.607429,0.579833,-0.956780,0.150293,0.940088,-0.306018
-0.822291,-0.040563,0.580235,-0.625429,0.741355,0.243373
0.488425,-0.596710,0.611073,0.306066,0.924747,0.226200
0.203615,-0.419348,0.433131,0.077397,0.965304,0.249394
0.576992,0.563075,-0.938551,0.625170,0.503504,0.596360
0.492472,-0.843285,0.403607,-0.625051,-0.627206,-0.464676
-0.391076,0.264216,0.792046,-0.148978,0.514524,0.844435
-0.266045,-0.047571,0.333681,0.862090,0.420621,0.282627
0.173930,-0.282409,0.355347,-0.678713,0.611963,0.406017
0.599976,0.766972,-0.970703,0.196207,0.507434,0.839055
0.169587,0.046032,-0.162773,0.977432,-0.162465,-0.135025
0.332546,-0.628015,0.369051,0.946256,0.274068,0.171716
-0.059262,-0.007489,0.217932,0.313829,0.945248,-0.089537
-0.422884,0.378265,0.920370,0.630157,-0.100278,0.769966
0.222999,-0.692482,0.398862,-0.160064,0.963984,-0.212404
0.402759,-0.747738,0.374141,-0.102821,0.062714,0.992721
0.348954,-0.755085,0.390065,0.073978,0.623360,0.778427
0.351241,-0.780593,0.399564,0.856020,0.490736,-0.162504
-0.249690,0.350619,0.957745,-0.581524,0.550013,0.599430
-0.689046,0.247370,0.605791,0.050947,0.064547,0.996613
0.747029,0.144062,-0.965851,-0.124505,-0.454789,-0.881853
-0.375055,0.278750,0.761307,-0.305446,0.697066,-0.648693
0.290510,-0.500693,0.479602,0.239432,0.467907,-0.850726
-0.169093,0.403107,0.916728,0.832745,0.366438,0.415040
0.508556,-0.641335,0.593754,0.516263,-0.666170,-0.538229
0.574634,0.635201,-0.981239,0.200491,0.807519,-0.554722
0.210464,0.029147,-0.295949,-0.554621,0.824022,0.115692
-0.313753,-0.088471,0.506173,-0.257144,0.965406,-0.043217
0.259236,0.071414,-0.324613,-0.250264,0.635994,0.729986
0.235619,0.034610,-0.379107,-0.730269,0.644443,0.226717
-0.256703,0.320595,0.950986,-0.791908,0.241233,0.560971
-0.703533,-0.024823,0.607079,-0.482161,-0.172985,0.858835
-0.420543,0.017119,0.746426,-0.680342,-0.706591,0.194590
0.065953,0.019653,-0.022712,-0.598076,0.332848,-0.729052
-0.353699,0.022939,0.696155,-0.144094,0.971162,-0.189950
-0.212771,-0.059070,0.392623,-0.337237,0.801782,-0.493373
-0.137000,-0.034085,0.444915,0.944132,-0.048052,-0.326045
0.646049,0.458529,-0.970569,-0.460965,-0.468430,0.753714
-0.462142,0.069537,0.741479,-0.175966,0.875664,-0.449720
0.075223,0.115763,-0.187817,-0.609747,-0.557295,-0.563587
0.259388,-0.718860,0.366068,-0.115244,0.574895,0.810070
0.449456,0.316312,-0.738949,-0.581222,-0.734748,-0.349752
-0.350191,-0.012144,0.451139,-0.603811,0.103301,0.790406
-0.544929,0.055285,0.669397,-0.513624,0.710240,-0.481405
0.171886,0.061506,-0.203232,0.990790,-0.088520,-0.102462
0.423087,0.704797,-0.979661,0.135001,0.365614,0.920924
0.662946,0.150607,-0.969329,0.158900,0.068236,0.984934
0.603977,0.600779,-0.970983,0.485637,0.219931,0.846042
-0.389350,0.261280,0.768616,0.757639,-0.579915,0.299468
0.596937,0.517204,-0.957347,0.990842,-0.080175,-0.108650
0.359847,0.181137,-0.425721,0.356013,0.930121,-0.090166
0.189000,0.039295,-0.214338,-0.668575,-0.657295,0.347810
0.142823,-0.220030,0.362957,-0.590604,0.541026,0.598730
0.223878,0.048694,-0.248133,-0.598259,-0.731071,0.328058
0.349020,0.230533,-0.614721,0.925811,0.370397,-0.075361
0.713777,0.446503,-0.949756,0.963460,-0.237223,-0.124381
-0.417087,0.365918,0.885470,0.614045,-0.768952,-0.177938
-0.488528,-0.246128,0.718366,0.151010,-0.154373,0.976404
-0.347043,-0.014536,0.632674,-0.573221,-0.113362,-0.811522
0.762308,0.146626,-0.950533,-0.040883,0.376051,0.925697
-0.251544,0.539595,0.884671,0.009473,0.326293,0.945221
0.217675,-0.284035,0.312976,0.866930,0.484274,-0.117945
0.363469,0.653089,-0.980768,0.089084,-0.499077,0.861966
0.165232,-0.264154,0.370840,0.757309,0.558801,-0.337972
0.656163,0.514344,-0.959354,0.078615,0.835775,0.543415
-0.834922,-0.470962,0.561892,-0.719735,0.611279,0.329119
0.553831,-0.658712,0.636989,0.841833,-0.044638,0.537890
-0.449108,0.206865,0.884013,-0.268876,0.067713,0.960792
0.761062,0.127120,-0.960981,-0.239251,0.467295,0.851114
0.199605,-0.317805,0.415489,0.670947,-0.615860,-0.412973
0.655812,0.588707,-0.967415,0.838418,0.022761,-0.544552
-0.266042,0.147522,0.518407,0.403005,-0.299580,0.864777
0.146295,0.162490,-0.173628,0.255827,0.726996,0.637204
0.279884,-0.110829,-0.512490,0.945747,-0.032615,-0.323264
0.878768,0.000077,-0.950433,0.086533,0.463095,0.882074
0.383014,0.152209,-0.569026,0.149054,0.901867,0.405485
0.828047,0.215474,-0.966196,0.853732,0.313685,-0.415623
-0.011964,-0.047402,0.210952,0.920857,0.348982,-0.173880
-0.469281,-0.045982,0.476129,-0.681926,0.527480,-0.506697
0.010662,0.028401,0.158877,0.317456,-0.917648,-0.239047
0.390880,0.094265,-0.414818,-0.868337,0.284371,-0.406354
-0.192601,0.041080,0.363732,0.765077,0.579559,-0.280657
0.382407,0.195324,-0.593313,-0.634576,-0.697509,0.332859
0.678277,0.301645,-0.950186,-0.603735,-0.314408,-0.732566
0.621863,0.480839,-0.967884,-0.780958,0.244208,-0.574862
0.496915,-0.485837,0.517549,0.707208,0.601710,-0.371216
0.393907,-0.538231,0.529634,-0.491400,0.870913,-0.006031
0.223044,-0.364662,0.316535,0.721431,-0.481781,-0.497417
0.742372,0.194327,-0.970939,0.614849,0.697114,-0.368773
0.033872,-0.070990,0.138749,0.803397,-0.580627,-0.132006
0.025852,0.018259,0.202512,0.192556,0.942991,-0.271458
0.116458,0.059820,-0.086024,0.525920,0.142003,0.838596
0.236264,0.079181,-0.400940,0.764799,-0.643109,-0.038646
0.310251,-0.393124,0.393459,-0.333309,0.619474,0.710744
0.775537,0.039576,-0.958642,-0.270892,0.505536,0.819177
-0.452902,0.065208,0.787840,0.192093,0.194650,0.961879
0.490831,-0.529916,0.541773,-0.506166,0.141954,0.850673
-0.680762,0.150791,0.627892,0.905746,0.420182,-0.055423
0.370204,0.180410,-0.412829,-0.166641,-0.621081,0.765825
0.487179,0.621069,-0.976981,0.188492,0.459961,0.867702
0.147921,-0.222536,0.243071,0.799571,0.305418,-0.517113
0.095186,-0.002576,-0.088239,0.063612,0.997510,-0.030452
-0.431639,0.088247,0.753457,0.897730,0.433855,0.076492
0.032302,-0.036886,-0.016233,0.518039,-0.717349,-0.465882
-0.577359,0.008936,0.612698,0.647182,0.708040,-0.282549
0.422064,-0.624188,0.392348,0.144528,0.161157,0.976289
0.811397,0.071238,-0.945370,-0.135977,0.004928,0.990700
-0.410923,0.762726,0.905428,0.901918,0.426404,0.068731
-0.849087,-0.374673,0.536494,-0.001459,0.085802,0.996311
0.215065,0.089693,-0.279061,0.651198,0.554467,0.518177
0.296364,0.092346,-0.528213,-0.432223,0.601237,0.672084
0.058034,-0.248952,0.301016,0.358086,-0.815692,-0.454336
-0.056287,0.363681,0.904248,0.522261,0.585596,0.619937
-0.442942,0.052910,0.736980,0.823140,0.556345,-0.113669
0.662129,0.474235,-0.960022,0.813151,-0.199736,0.546709
0.149015,0.100563,-0.229607,-0.609558,-0.477080,-0.633115
0.468992,0.240341,-0.853358,0.994648,0.051987,-0.089290
0.774618,0.279808,-0.955608,0.666838,0.412042,0.620926
0.308392,0.145303,-0.419810,0.805612,-0.589370,-0.060267
0.636167,0.394555,-0.965465,-0.246983,0.967859,-0.047416
-0.525692,-0.110059,0.497514,-0.683858,0.612533,0.396411
0.279033,-0.649051,0.521389,0.001553,0.989638,0.143578
0.528260,-0.921456,0.424983,-0.291786,-0.953847,-0.070971
-0.156755,0.023890,0.572885,-0.150949,0.981957,0.113908
-0.387141,0.006586,0.687331,0.399236,0.077393,-0.913576
-0.374554,0.299781,0.766881,-0.010479,0.998635,0.051170
-0.200038,0.029390,0.929918,0.803905,0.111665,0.584181
0.631828,0.512808,-0.963241,0.916549,-0.075685,-0.392696
0.151134,-0.691295,0.428863,0.533366,-0.619742,0.575709
0.135823,0.078691,-0.140532,-0.032279,0.989963,0.137592
0.113094,-0.118515,0.181130,0.858982,0.406893,-0.310784
-0.280440,-0.009413,0.767935,0.457001,0.258493,-0.851077
0.074484,0.039252,-0.207218,-0.451179,0.659810,0.600906
0.492445,0.315475,-0.780794,0.958778,-0.003022,-0.284141
0.163741,0.066862,-0.203810,0.716945,0.607158,0.342563
0.383845,0.590131,-0.962039,0.384788,0.885425,0.260693
-0.343319,-0.010273,0.675182,0.328202,-0.622438,0.710531
-0.253083,-0.022335,0.483311,-0.299634,0.835012,0.461492
0.081300,-0.208105,0.265816,0.902260,-0.293864,-0.315549
0.251628,-0.423688,0.430689,0.399860,0.625383,0.670081
-0.845671,0.037325,0.601319,0.146551,-0.235832,0.960680
0.534759,0.814420,-0.971018,-0.518750,-0.853224,-0.053921
0.149142,-0.296793,0.445671,0.883103,0.466435,-0.050668
0.890994,-0.149969,-0.956129,-0.026370,-0.683566,0.729412
0.143621,-0.269108,0.315622,0.699050,0.379696,-0.605938
0.327577,0.144474,-0.516811,0.919735,-0.245327,0.306433
0.875466,0.080392,-0.943465,-0.270689,0.134212,-0.953265
0.326364,-0.461521,0.427589,-0.693736,0.689805,-0.207124
-0.290491,0.086192,0.759552,0.796076,-0.030194,-0.604444
-0.208859,-0.069374,0.462128,0.112490,-0.890025,0.441817
-0.311540,0.245363,0.765546,-0.269882,0.196960,0.942534
0.331300,-0.543976,0.510730,0.872247,-0.478317,-0.101971
0.353421,-0.718664,0.391833,-0.167858,0.051812,0.984449
-0.738030,-0.019295,0.580748,0.419695,0.618077,-0.664708
0.082017,-0.223189,0.214040,-0.665391,-0.622899,-0.411403
0.358037,0.245926,-0.501535,0.666250,-0.301545,0.682042
0.466982,0.259082,-0.698814,-0.331526,0.844235,0.421138
0.143573,-0.254204,0.353201,0.724236,0.660297,0.198721
-0.051591,-0.042523,0.211823,0.830139,0.411152,0.376594
0.405127,0.093528,-0.569938,0.605709,-0.794874,0.035944
-0.197490,0.045616,0.914851,0.957521,-0.236445,-0.165065
-0.163031,0.098627,0.930174,0.085545,0.645552,-0.758910
0.508933,-0.652779,0.592634,-0.492832,0.690624,0.529297
0.767588,0.087944,-0.971398,-0.135792,-0.168913,0.976232
-0.326092,0.324344,0.836377,0.978201,-0.195872,0.068977
-0.355535,-0.032439,0.453697,0.210957,-0.131686,-0.968584
-0.711854,0.155810,0.627643,0.876580,-0.230143,-0.422660
0.612004,0.676625,-0.957791,0.229458,0.776071,0.587420
-0.286634,-0.057813,0.749380,0.806023,0.433192,0.403325
-0.194212,0.013457,0.554937,-0.566450,0.558485,0.605994
-0.376054,0.688835,0.907598,-0.570598,0.051256,-0.819628
-0.112516,0.002763,0.910012,0.137728,0.901836,-0.409539
0.832096,0.159773,-0.960717,0.750547,0.647133,0.133781
0.155458,0.066401,-0.225045,-0.410399,-0.695232,-0.590106
-0.567194,-0.023273,0.693452,-0.207425,-0.538389,0.816769
0.561484,0.835664,-0.964558,-0.044063,0.088313,0.995118
-0.858706,0.078274,0.586496,0.269447,0.850646,0.451442
0.533625,0.529531,-0.963711,0.203462,0.731735,-0.650513
0.057627,0.041128,-0.083037,0.985239,-0.077630,-0.152569
0.452244,0.608569,-0.981447,0.982121,0.082780,-0.169076
0.162519,-0.309049,0.350710,0.985870,0.046175,-0.161023
0.137931,0.076968,-0.228346,-0.550860,-0.825045,-0.125911
-0.497529,0.293944,0.789902,-0.028456,-0.991645,0.125816
-0.566366,0.030947,0.752296,0.464264,-0.550323,-0.693977
-0.257311,-0.089539,0.662666,0.803005,-0.580182,-0.136277
0.049427,0.025876,-0.109156,-0.581692,0.805393,0.113919
0.433757,0.802610,-0.973295,-0.293196,-0.353007,0.888494
0.003903,-0.172225,0.214574,0.592941,0.381882,0.708934
-0.611437,-0.184784,0.645184,-0.013161,-0.375734,0.926634
-0.057334,-0.049250,0.213696,0.703249,0.165983,0.691296
-0.194046,-0.017301,0.596017,0.162504,0.986352,0.026485
0.391227,-0.574110,0.519226,0.810566,-0.584632,0.034477
0.500704,-0.607208,0.562629,-0.541276,0.417898,0.729645
-0.572479,-0.042791,0.549286,-0.548998,-0.318346,0.772824
-0.478638,0.015414,0.720628,0.978492,-0.115973,-0.170599
0.188372,0.054072,-0.227773,0.677371,0.733074,0.061404
0.184355,0.070931,-0.305268,-0.087932,-0.183928,0.978999
-0.364463,0.073071,0.754507,-0.605403,0.624762,-0.493113
-0.354758,0.330773,0.821056,0.157346,-0.755000,0.636566
-0.348924,0.190449,0.797304,0.888044,-0.051294,0.456888
0.578892,0.422877,-0.952078,0.115959,0.261472,0.958220
-0.432972,0.094431,0.727790,-0.159775,0.919983,0.357916
0.686942,0.134357,-0.959319,0.587609,0.476356,0.654064
-0.293734,-0.053182,0.657351,0.273972,0.938121,0.211822
0.395352,0.557770,-0.980394,-0.477972,-0.265069,0.837425
-0.466302,-0.227616,0.718106,-0.705769,-0.619733,0.343252
0.459238,0.648709,-0.978229,-0.561401,0.646365,0.516760
-0.419029,-0.017523,0.692561,-0.210164,-0.977075,0.033987
0.307514,0.747263,-0.979358,0.072716,0.378789,0.922622
-0.338979,0.287550,0.798236,-0.285394,-0.629655,0.722554
0.000276,-0.389171,0.280553,-0.315005,0.722177,-0.615818
0.737943,0.336351,-0.950827,0.944749,0.217215,0.245494
0.531002,0.469689,-0.955060,0.343435,-0.477104,0.808965
0.019818,-0.359316,0.280620,-0.467964,0.596289,-0.652264
0.198798,-0.299808,0.360516,0.864094,0.228053,0.448701
-0.709403,-0.045807,0.674557,0.300590,0.564983,-0.768400
-0.211180,0.016569,0.564385,-0.526092,0.798763,0.291899
-0.857975,-0.025503,0.584839,0.920982,-0.389606,0.000222
-0.187625,-0.015171,0.497077,0.010080,-0.975109,0.221497
-0.329993,0.073840,0.888439,0.575697,0.674095,0.462783
-0.038034,0.034837,0.167020,-0.049629,0.998443,0.025481
-0.474861,0.124785,0.864160,-0.605471,-0.791497,-0.083286
-0.246499,0.009880,0.522640,0.900760,0.048400,-0.431612
0.246702,-0.425139,0.387194,-0.652071,0.622203,-0.433206
-0.736483,0.031311,0.589666,0.471277,0.205300,-0.857759
-0.200549,-0.023746,0.344169,-0.605418,0.773008,-0.189548
-0.200773,0.028601,0.558510,-0.229604,0.896325,0.379319
-0.838208,0.011249,0.575163,0.409824,-0.041513,-0.911219
0.337602,0.163970,-0.594822,0.376253,-0.559919,-0.738190
0.089452,0.006370,-0.030280,-0.673429,0.097446,-0.732802
0.328424,-0.394440,0.466766,-0.509688,0.414588,0.753880
0.803697,0.054453,-0.952391,-0.217106,0.870945,-0.440817
-0.475693,0.039315,0.716913,-0.755813,0.222451,0.615843
-0.732080,-0.215708,0.541369,0.210752,-0.372103,0.903948
0.177052,0.062771,-0.251534,0.142840,-0.888323,0.436439
0.137837,0.214941,-0.225073,0.890362,0.424374,-0.164813
0.183868,-0.302300,0.368187,0.963515,0.218228,-0.154972
-0.342823,-0.020198,0.422163,-0.825625,0.075197,-0.559185
0.087835,-0.066086,0.188046,0.393940,0.420431,-0.817343
0.035218,-0.003990,0.108234,0.546114,0.596699,-0.587971
-0.432290,0.303832,0.921811,0.801699,0.479529,-0.356834
0.384997,-0.508072,0.482497,0.384152,0.802057,-0.457310
0.249674,0.054835,-0.298594,0.580660,-0.812603,0.050108
0.345125,0.730614,-0.983466,0.060856,0.656089,-0.752226
0.246633,0.012463,-0.363018,-0.194104,-0.980776,-0.020038
0.511721,0.612895,-0.971985,-0.527993,0.759855,-0.379268
-0.315362,-0.057667,0.448070,0.051844,-0.874057,0.483050
0.307622,0.164443,-0.446125,0.087384,0.983736,0.156933
-0.569913,-0.505386,0.525843,0.270654,0.033725,0.962086
0.464100,0.574282,-0.974370,-0.650578,-0.332425,0.682819
-0.285803,-0.095098,0.485826,-0.054453,0.880221,0.471430
0.048826,0.095974,-0.101687,-0.648577,-0.745523,0.153439
0.285405,-0.656475,0.364130,-0.636043,0.407787,0.655102
0.032428,0.051242,-0.175150,0.795261,0.602112,0.070859
0.255532,-0.685446,0.382713,0.703591,-0.563267,0.433232
0.517545,0.493215,-0.965408,0.798448,-0.327605,-0.505130
-0.347936,0.119301,0.435680,0.716612,0.314495,0.622544
0.748286,0.172970,-0.951290,0.821470,0.429838,-0.374735
-0.405530,0.092230,0.637568,0.781521,0.521166,0.342945
0.571755,0.682961,-0.976872,0.757512,-0.651912,0.034451
0.217402,0.005756,-0.425989,0.579826,0.807032,-0.111809
0.766323,0.261233,-0.950480,0.542820,0.525727,0.654948
-0.454575,0.098511,0.586744,0.411988,-0.696576,0.587408
0.517375,-0.587888,0.574536,0.903483,-0.412067,-0.117983
0.467797,0.178644,-0.863201,0.987468,0.134905,-0.081899
0.825443,0.234124,-0.958878,0.753952,0.428182,0.498214
0.150752,0.018370,-0.166297,0.531163,-0.838139,-0.124054
-0.519610,0.048109,0.709614,0.423805,0.403300,-0.811010
0.140845,0.010583,-0.162758,-0.545712,0.837632,-0.023872
0.414068,-0.809827,0.385344,0.341754,0.861106,0.376432
0.178090,0.108144,-0.240024,-0.521385,-0.626587,0.579264
0.482387,0.586401,-0.964564,-0.355062,-0.505185,-0.786587
-0.252039,0.108108,0.784050,0.845270,0.238013,-0.478402
0.255589,-0.539589,0.376336,0.233528,0.721904,-0.651398
0.281638,-0.754325,0.378873,0.119140,-0.897477,-0.424665
0.156267,0.074073,-0.248881,0.185917,-0.560990,0.806675
0.206219,0.098113,-0.432872,-0.471801,0.866268,-0.164267
-0.118102,-0.051509,0.290792,-0.452207,-0.716342,-0.531378
-0.418892,-0.010156,0.782200,0.014112,-0.482094,0.876006
-0.505865,0.695609,0.875258,0.880723,-0.149158,-0.449533
0.176858,0.133229,-0.152595,-0.213077,0.938417,0.271977
0.534941,-0.583681,0.578051,0.905177,-0.400057,-0.143558
-0.578198,-0.079558,0.760158,-0.301252,0.142091,0.942899
0.430390,0.267215,-0.695196,0.354860,0.932232,-0.070839
-0.444803,0.071775,0.622069,-0.414835,0.674077,0.611173
0.639074,0.557726,-0.960074,0.169141,-0.555621,0.814050
0.034835,-0.077168,0.184733,-0.191907,0.903364,0.383543
0.200939,-0.363946,0.410562,0.896700,-0.319312,0.306544
-0.041792,-0.236136,0.313115,0.317837,0.947520,-0.034437
-0.149454,-0.061337,0.293584,-0.187742,-0.854739,-0.483916
-0.415235,0.195233,0.763885,-0.717657,0.210340,-0.663872
0.466234,0.510450,-0.954210,0.272776,0.271929,0.922848
-0.194547,0.105413,0.507262,-0.605845,-0.659745,0.444622
0.608575,0.382682,-0.962037,0.684469,-0.009390,-0.728981
0.702725,0.334698,-0.968218,-0.505939,0.344740,-0.790683
-0.068578,-0.055492,0.227701,-0.323648,-0.624269,-0.711013
0.575518,0.813187,-0.964404,-0.514981,0.059562,0.855130
-0.659322,-0.270615,0.528138,0.079678,-0.540812,0.837362
0.113831,0.070881,-0.117194,-0.084623,0.993075,0.081493
0.214622,-0.257534,0.313596,0.943681,-0.130724,-0.303935
0.477531,0.556768,-0.963067,0.237409,-0.571942,0.785188
0.408932,0.859516,-0.972188,0.443797,-0.328276,-0.833834
0.812922,-0.013976,-0.965918,-0.129813,-0.062314,0.989578
0.362923,0.784776,-0.962423,-0.364768,-0.254690,0.895587
0.640061,0.281651,-0.967954,0.633368,0.770632,-0.070514
0.139585,-0.249425,0.329127,-0.441715,0.540354,0.716174
0.828291,0.091983,-0.968933,-0.178049,-0.199626,0.963560
0.227021,0.087089,-0.524122,0.851761,0.249634,-0.460637
0.412771,0.647238,-0.979956,0.925792,-0.002987,-0.378021
0.059617,0.067717,-0.037211,-0.136339,0.984931,-0.106412
-0.579520,-0.043035,0.629414,0.720781,-0.594307,-0.356753
0.721253,0.388360,-0.963998,-0.466945,0.643478,-0.606547
-0.192462,-0.006098,0.907801,-0.718910,-0.670823,0.182112
-0.473782,0.081898,0.723917,-0.426653,0.436505,0.792105
0.163159,0.070900,-0.176034,0.876626,-0.475261,0.075193
-0.496044,0.351669,0.938601,0.924649,-0.005835,-0.380775
-0.360424,0.032098,0.860846,0.238296,0.462243,0.854135
0.389569,-0.510467,0.475984,-0.741583,-0.545235,0.390862
-0.429091,0.171002,0.784143,0.589105,-0.237846,0.772260
-0.467803,-0.008173,0.627220,0.370543,0.812495,0.450055
0.183171,0.045435,-0.234774,0.920692,0.316266,-0.228697
-0.270291,-0.025240,0.464566,-0.372780,0.035958,0.927223
-0.204059,0.084761,0.515738,-0.711104,-0.575550,-0.403823
0.314037,0.231722,-0.412762,-0.052331,-0.992180,-0.113312
-0.346419,0.073943,0.792393,-0.529681,-0.290101,0.797044
0.334840,0.194901,-0.450718,0.019363,0.997446,0.068747
-0.403198,-0.003926,0.719873,0.514457,0.828962,-0.219445
-0.098674,0.019595,0.944257,-0.235018,0.406643,-0.882841
0.039344,0.015782,0.135819,0.755686,0.617257,-0.218933
-0.190108,-0.060080,0.536730,0.913981,-0.251498,-0.318413
-0.369994,-0.019606,0.727052,-0.403981,-0.904087,-0.139379
0.087212,-0.285001,0.239674,-0.187582,0.456793,0.869570
-0.384072,0.136754,0.908823,0.315098,0.233835,-0.919801
-0.197828,-0.054449,0.318496,-0.274134,-0.313937,0.909007
-0.257791,0.000680,0.910777,-0.437053,-0.767883,0.468338
0.532328,0.711345,-0.962857,-0.306488,-0.279569,0.909894
0.393876,0.307354,-0.620561,0.926841,0.270522,0.260351
-0.128299,-0.017122,0.277239,0.521426,0.852194,0.043361
-0.771798,-0.304257,0.549345,-0.290335,0.053618,-0.955422
-0.816036,-0.070399,0.590522,-0.354914,0.061494,0.932874
-0.370746,0.055540,0.704689,-0.515419,-0.718659,-0.466767
-0.463358,0.077452,0.763990,0.366925,-0.747853,0.553248
0.224575,-0.283132,0.457252,-0.489217,-0.786869,-0.376170
-0.376680,0.195934,0.880162,0.030645,-0.667172,0.744273
0.713249,0.288653,-0.960626,-0.247686,-0.349918,0.903443
0.569537,0.437826,-0.956814,-0.657937,0.739951,0.139970
-0.578772,-0.028327,0.594936,-0.489564,0.728213,0.479618
-0.383396,-0.033525,0.750137,-0.339587,0.429986,0.836536
0.866582,-0.058827,-0.957703,-0.024672,-0.237541,0.971064
0.361128,0.607774,-0.986143,0.187933,0.042468,0.981263
-0.437161,-0.100754,0.593997,0.663914,0.715973,-0.215872
0.815042,0.055875,-0.958864,0.117886,0.569972,-0.813163
-0.869330,-0.316410,0.549659,0.613207,0.518207,0.596186
0.081434,0.090580,-0.070383,-0.568689,0.763384,0.306329
-0.246549,0.111990,0.913358,0.176383,-0.183418,0.967082
-0.000880,0.027569,0.133376,0.768759,0.231157,-0.596302
0.103854,-0.300667,0.313396,0.928308,0.186553,-0.321625
0.217075,-0.003997,-0.264349,-0.148106,-0.988161,0.040022
-0.668727,-0.133908,0.586197,0.849945,0.380427,-0.364512
0.167632,0.048239,-0.215221,0.491989,0.672688,-0.552664
0.144325,0.000526,-0.229997,0.990545,0.104988,-0.088306
0.169499,0.178663,-0.326458,0.150945,0.953717,0.260077
-0.511855,0.311255,0.895472,0.010919,-0.607024,0.794609
0.145611,-0.360539,0.319362,-0.535216,-0.571790,0.621772
-0.368229,0.286522,0.840313,-0.150894,0.988540,0.004485
0.178927,-0.357721,0.354384,0.276478,-0.946709,-0.165233
-0.202563,-0.070378,0.536168,-0.004704,0.954796,0.297223
0.506800,0.421299,-0.941721,-0.176867,0.410279,0.894645
0.156445,-0.236206,0.325689,-0.624384,-0.693789,0.358889
-0.319253,0.299558,0.775724,-0.088797,-0.994805,0.049770
-0.189585,0.028120,0.357175,0.899519,0.294197,0.322975
0.512673,0.948758,-0.978366,-0.226692,-0.907201,0.354398
-0.513731,-0.151731,0.509413,0.078472,0.978200,0.192265
0.486002,0.261433,-0.576900,0.378243,-0.846069,-0.375632
0.196096,-0.363891,0.403667,0.912034,-0.246534,0.327743
-0.410049,0.149079,0.776918,0.881549,-0.096651,-0.462094
0.043555,-0.225067,0.289274,-0.416653,0.767741,0.486800
-0.236445,-0.043818,0.420464,-0.472853,-0.864076,0.172576
0.489089,0.659725,-0.967583,-0.127547,0.406561,0.904677
-0.294194,0.190422,0.781931,0.993270,0.045646,0.106447
0.421557,-0.517369,0.494454,-0.778729,0.626155,0.038878
-0.339161,0.268562,0.790548,0.591673,0.737802,-0.324917
-0.407323,0.169022,0.428540,0.575613,0.640904,0.507850
0.561858,0.454766,-0.981381,0.510245,0.222844,-0.830657
0.243387,-0.218005,0.333486,0.982450,-0.181796,-0.041731
-0.361546,0.093163,0.861455,0.692175,0.683797,0.230903
-0.180007,-0.077631,0.237085,0.853076,0.265112,0.449418
0.550172,0.647761,-0.968857,-0.642034,0.367341,-0.672944
0.511544,0.465021,-0.961055,0.897916,0.188765,-0.397637
-0.304898,0.026779,0.806049,0.697828,0.680160,-0.224541
-0.472833,-0.190191,0.735378,0.385441,0.453113,-0.803818
-0.452077,0.164379,0.634688,0.043619,-0.979343,0.197445
0.287067,0.110165,-0.301350,0.467707,-0.616399,0.633484
0.301268,0.111785,-0.363608,-0.537893,0.840485,0.065230
0.022523,0.119571,-0.147073,0.793993,0.546299,-0.266707
0.121084,-0.252559,0.354643,0.675452,0.718174,-0.167308
-0.383620,0.319439,0.957759,0.268185,0.539946,-0.797832
0.368919,0.230565,-0.638309,0.817176,-0.528771,0.229400
-0.434839,0.130959,0.650459,0.974936,-0.163602,-0.150776
0.097322,-0.261124,0.315766,0.931312,-0.057279,0.359691
0.530067,0.789796,-0.968427,0.240527,-0.042297,-0.969720
0.498376,0.611101,-0.966521,0.840564,-0.537538,0.067116
0.226000,-0.496297,0.334383,-0.275046,-0.320498,-0.906438
0.585421,0.636931,-0.978496,0.267633,0.915556,-0.300215
0.654579,0.213503,-0.953846,0.333447,0.548352,0.766892
0.198356,0.021447,-0.274806,0.354286,0.582159,0.731829
0.180141,0.108875,-0.193018,0.863108,-0.468113,0.189511
-0.824399,0.086560,0.583688,0.946953,0.179276,-0.266720
-0.305513,0.096459,0.634514,0.144196,0.958988,0.244028
0.248029,0.146158,-0.539105,0.943243,-0.293332,0.155723
-0.387337,0.347415,0.793548,0.366205,0.653832,-0.662116
-0.677804,0.336984,0.599239,0.071535,0.177598,0.981500
0.633692,0.560598,-0.960976,-0.102985,-0.490765,0.865184
0.049453,-0.038161,-0.091686,0.870428,-0.489310,0.054134
0.086186,0.011590,-0.131407,0.831374,0.493319,-0.255841
0.267343,-0.428378,0.424368,0.583063,0.810713,0.052746
0.578562,0.853203,-0.964044,0.679254,0.129103,-0.722459
0.772751,0.129844,-0.971058,0.332102,-0.029096,0.942795
0.352750,0.105781,-0.533871,-0.242994,-0.943396,-0.225737
0.533273,0.858642,-0.972147,0.431821,0.898324,-0.080899
0.597757,0.254552,-0.959820,-0.412253,-0.193017,-0.890389
0.021982,0.003858,-0.019763,0.443475,0.012231,-0.896203
0.444268,-0.503975,0.525967,-0.771862,0.585145,0.248664
0.021039,-0.036543,0.085418,0.982770,-0.172174,0.067233
-0.510920,0.020009,0.683760,-0.239274,0.712034,-0.660118
-0.770701,0.028800,0.577636,-0.142063,-0.413614,0.899300
-0.422353,0.142641,0.769822,-0.630502,0.572046,-0.524625
-0.342800,0.057486,0.644578,0.350629,0.534521,0.768991
0.139512,0.067424,-0.156914,-0.343904,-0.139033,0.928655
-0.024194,-0.002040,0.198610,0.842996,-0.292704,-0.451312
-0.405666,-0.081385,0.480918,0.038456,-0.804844,-0.592239
0.283649,-0.555354,0.376521,0.851298,0.381489,0.360218
0.031576,-0.139243,0.250778,0.736156,-0.309966,-0.601661
-0.514087,-0.085701,0.664590,-0.664298,0.410769,-0.624481
0.744300,0.139232,-0.948976,0.455257,-0.360059,-0.814308
-0.801806,-0.022467,0.590934,0.731779,0.153695,0.663986
0.463600,0.300917,-0.919516,-0.511614,0.538059,-0.669883
-0.208833,0.014919,0.565578,-0.473721,0.846565,-0.242725
0.447490,0.852306,-0.976224,-0.290785,0.821493,0.490503
-0.442238,0.143221,0.793151,-0.163633,0.398304,0.902540
0.454238,-0.555297,0.605049,-0.420686,0.641772,0.641211
0.324494,0.162189,-0.390135,0.443413,-0.875874,-0.190342
0.554522,0.645729,-0.969802,0.576371,-0.380881,0.722998
0.816634,0.152309,-0.957265,0.864501,-0.038708,0.501139
0.685445,0.336549,-0.971450,-0.602901,-0.394432,-0.693494
0.123817,-0.225836,0.289405,-0.764822,-0.209844,0.609109
0.216532,-0.572966,0.366613,-0.341582,-0.683737,0.644846
0.111617,0.070444,-0.118837,-0.027094,0.996427,0.079992
0.529656,0.564248,-0.977961,-0.435015,0.747588,-0.501871
0.615454,0.337457,-0.949776,0.853439,0.274030,-0.443338
-0.271377,-0.028779,0.488705,-0.720840,0.438176,0.537021
-0.608128,0.146132,0.658223,0.669643,0.304436,-0.677420
0.452767,0.265739,-0.794583,0.658620,-0.596296,-0.458968
0.432409,0.282564,-0.797578,0.921702,-0.379491,0.080329
0.634902,0.684482,-0.967939,0.598205,0.707998,0.375352
-0.293581,0.044275,0.467645,0.080622,-0.984069,0.158454
-0.400577,0.319575,0.793254,0.315928,0.448875,-0.835883
0.600756,0.567810,-0.954981,-0.087495,0.393070,0.915336
-0.294099,0.170272,0.533891,0.459501,0.125749,0.879230
0.457035,0.332553,-0.879524,0.216836,-0.751670,0.622876
0.350757,-0.612815,0.385498,0.815607,0.460615,-0.350170
0.152197,-0.472797,0.339439,0.941148,-0.298636,0.158295
0.239874,0.050941,-0.293387,0.910314,-0.389925,0.138878
-0.365101,-0.000881,0.722357,-0.445605,-0.823626,0.350823
-0.232087,0.444094,0.876418,-0.572941,0.653482,0.494672
-0.559502,0.088697,0.744641,0.087425,0.721006,0.687392
-0.241447,-0.066561,0.502283,-0.414015,0.706486,-0.573994
-0.200929,0.244380,0.905652,-0.223748,-0.122165,-0.966961
-0.321823,0.106413,0.793181,0.787661,0.327909,0.521599
0.323595,-0.334381,0.424361,0.088529,0.982600,0.163276
-0.082950,-0.011484,0.268008,-0.707750,-0.502461,-0.496611
0.233802,0.070479,-0.288745,0.860717,0.508989,-0.009772
0.716510,0.387515,-0.955465,-0.672132,0.548990,0.496838
-0.180681,0.009417,0.452132,-0.393248,0.504861,0.768421
0.379970,0.253548,-0.649908,0.754506,-0.639197,0.148820
0.297636,-0.053097,-0.527470,0.893074,-0.048285,-0.447311
0.505905,0.751078,-0.967804,-0.107536,-0.963114,0.246672
0.170202,0.067423,-0.266217,0.966184,-0.012886,0.257531
0.263767,0.109791,-0.380101,-0.457004,0.566725,-0.685544
-0.493130,0.261278,0.857146,0.313108,-0.531857,0.786824
-0.666959,-0.243899,0.530957,-0.107426,-0.364977,0.924798
0.480906,0.656528,-0.962301,0.385809,0.684840,-0.618180
-0.530523,0.100119,0.705277,0.380778,-0.048854,0.923375
-0.594715,-0.064754,0.620335,0.837934,-0.534444,-0.110615
-0.328041,0.070492,0.782861,-0.828331,0.297248,-0.474880
-0.225125,-0.006281,0.423351,0.575942,0.490374,0.654083
0.191655,0.082933,-0.350840,0.841263,-0.540564,-0.008223
-0.178504,0.182638,0.943492,-0.068667,-0.333689,0.940179
0.487635,0.651084,-0.954207,-0.171337,0.260479,0.950155
-0.184914,0.015410,0.416917,-0.504395,0.859392,-0.083854
0.354757,0.198388,-0.506540,0.929402,-0.344047,0.133579
-0.361833,0.353948,0.882797,-0.594381,0.781403,0.190051
0.257086,0.083277,-0.270948,0.825532,-0.052286,0.561928
-0.436744,0.322493,0.952646,0.702900,0.672495,0.231692
-0.350032,-0.147927,0.473118,-0.081076,-0.976938,-0.197530
0.550475,0.511325,-0.954843,0.032627,0.813478,0.580680
-0.494218,-0.053668,0.632076,0.612342,-0.459662,-0.643233
0.842464,0.205450,-0.941805,-0.730962,0.126307,0.670628
-0.335151,0.067442,0.882075,-0.472473,0.741706,-0.476068
-0.330088,-0.029383,0.408956,0.541344,-0.833465,-0.110825
-0.572226,0.091751,0.706340,0.569031,-0.610547,0.550851
0.090047,-0.205795,0.239490,0.743530,0.297178,-0.599040
0.517210,-0.917392,0.429241,-0.291786,-0.953847,-0.070971
-0.452619,0.088487,0.778608,-0.350158,-0.432545,-0.830839
-0.226602,-0.010547,0.526789,-0.667866,0.590572,-0.452969
0.053957,-0.229562,0.299449,-0.285432,0.825820,0.486364
0.490244,0.709589,-0.978665,0.097573,-0.476525,-0.873730
-0.630863,0.079549,0.589157,0.650347,0.751176,0.113060
-0.316855,-0.044168,0.759524,0.795343,-0.251045,0.551731
-0.307869,0.502477,0.874795,-0.461621,0.371881,-0.805363
0.345519,-0.743180,0.389116,-0.725982,0.008493,0.687661
-0.153753,-0.050666,0.905621,-0.129677,-0.303812,-0.943865
-0.739825,-0.083884,0.568519,-0.163411,-0.733694,0.659537
-0.366800,0.064994,0.680300,-0.039197,-0.365946,0.929810
-0.417564,-0.022010,0.854015,-0.564811,-0.755637,-0.331665
-0.027584,-0.065855,0.203369,0.823091,0.471513,0.316539
0.234788,0.045155,-0.302773,0.898724,-0.366825,-0.240282
0.312012,0.342972,-0.926109,0.253509,0.215504,0.943022
0.068723,-0.292816,0.304374,-0.784402,0.297811,0.544080
0.197246,-0.285535,0.330237,0.919185,0.387483,0.070395
0.325762,0.121201,-0.524942,-0.744905,-0.620120,-0.246105
-0.179765,-0.036603,0.570399,-0.683952,-0.527690,-0.503738
0.823536,0.084507,-0.957850,0.280842,-0.097287,-0.954810
-0.249894,0.005355,0.485194,-0.183945,0.816135,0.547803
0.747008,0.284259,-0.965337,0.145837,0.471659,-0.869638
0.837629,0.031948,-0.964678,0.115758,0.115275,0.986566
-0.875161,-0.033840,0.571398,0.292754,-0.331802,-0.896774
0.042760,0.131175,-0.094773,-0.102219,0.826198,0.554029
0.337370,0.237351,-0.597152,0.116109,0.989754,-0.083096
0.803778,0.249560,-0.953010,0.175367,0.543335,0.820996
-0.386741,0.135433,0.874145,0.769008,0.280565,-0.574378
0.691155,0.280196,-0.957586,0.295052,-0.432503,-0.851989
-0.210627,0.452927,0.922510,-0.472453,-0.500028,-0.725783
0.472142,0.956314,-0.967438,-0.154825,-0.689391,0.707651
-0.348185,0.208370,0.946325,0.257278,0.963010,-0.080122
0.353910,-0.347523,0.443736,0.955546,0.280618,0.090473
-0.350704,0.072474,0.390415,-0.565910,-0.702926,-0.430861
0.083837,0.048075,-0.120188,-0.056901,0.976315,-0.208736
-0.565638,0.270516,0.566081,0.763829,0.418291,-0.491526
-0.088306,-0.042406,0.222762,0.299686,0.113472,0.947266
-0.766659,0.258107,0.576177,-0.359315,-0.069552,0.930621
0.316018,0.125547,-0.474204,-0.283724,0.942479,-0.176730
-0.505983,0.159299,0.900152,0.240462,0.783416,0.573095
-0.321204,0.221326,0.928171,0.623794,0.779390,-0.058590
0.411817,-0.513604,0.524599,-0.635277,0.630083,0.446562
0.037382,-0.146857,0.237098,-0.510576,-0.850693,-0.125034
0.769609,0.139415,-0.956154,0.854784,-0.119300,-0.505087
0.379880,0.179373,-0.420145,-0.685459,-0.629687,0.365568
-0.294467,0.044972,0.836914,-0.583097,0.558098,-0.590360
0.517435,0.468575,-0.976424,0.846351,0.494663,-0.197478
0.160062,-0.004803,-0.256453,0.072266,-0.733370,0.675977
0.468150,0.729600,-0.957959,0.275584,-0.176123,-0.945005
0.537508,0.664438,-0.964212,-0.146631,0.183122,0.972093
0.662480,0.258982,-0.948775,0.209470,-0.510295,0.834099
0.292436,0.674309,-0.986566,0.289106,0.919233,-0.267262
0.920439,-0.092143,-0.960634,0.346013,0.190245,0.918739
0.341371,0.118206,-0.606153,-0.317740,0.946745,-0.052096
-0.246625,0.482799,0.861359,0.294912,-0.116994,0.948335
0.477843,0.961516,-0.976513,0.458446,-0.830687,0.315890
-0.483014,0.156844,0.874911,-0.170336,-0.906415,0.386519
0.084909,-0.047559,0.196286,0.666956,0.429004,-0.609200
-0.312022,0.030701,0.698638,0.817869,0.354797,0.453001
-0.719298,-0.035988,0.591681,0.265961,0.855293,-0.444677
0.316880,-0.115055,-0.523771,0.940318,-0.057581,-0.335390
-0.405923,0.168604,0.744457,0.990129,-0.129822,0.052828
0.080374,0.059963,-0.133467,0.936943,-0.349225,0.013436
0.439503,0.844472,-0.968203,0.899343,-0.333134,0.283202
0.130983,-0.020331,-0.134712,0.052134,-0.488609,0.870944
0.796997,0.168037,-0.949022,0.772088,0.393800,-0.498800
0.537377,0.924512,-0.958618,0.482692,-0.231607,-0.844610
0.497056,0.733902,-0.953575,-0.664292,0.456633,0.591780
0.547700,0.725615,-0.975294,-0.614557,-0.385725,-0.688139
0.020094,-0.026037,0.171185,0.380713,0.111559,0.917939
0.263353,0.259855,-0.498892,-0.536046,-0.343101,-0.771321
0.371756,0.092148,-0.537205,0.021941,-0.994907,-0.098376
-0.461358,0.259659,0.884197,0.326906,-0.316091,-0.890628
0.521107,-0.656905,0.640691,0.684115,0.247830,0.685978
-0.305996,0.048995,0.697936,-0.510289,-0.730202,-0.454324
-0.186724,-0.012903,0.475788,-0.222280,0.955717,-0.192865
-0.140989,-0.023717,0.473578,0.024364,-0.923625,0.382523
0.534772,-0.749367,0.611000,-0.563703,0.252177,0.786540
-0.560748,0.083774,0.708269,0.417282,-0.014369,0.908664
-0.270953,0.226307,0.957169,-0.462628,-0.046214,0.885347
0.462747,0.255389,-0.770593,0.251724,-0.952957,0.168840
0.188502,0.019521,-0.254382,0.789643,-0.613426,0.013169
0.158925,-0.262692,0.347030,0.848431,0.518640,0.105722
-0.934176,0.089200,0.607570,-0.065253,-0.380484,0.922482
-0.557847,-0.008602,0.544351,-0.760235,0.344572,0.550739
0.570502,0.404814,-0.967286,0.794018,-0.007236,0.607851
-0.567180,0.101340,0.720699,-0.460946,-0.884064,0.077201
-0.263871,0.394872,0.856112,0.846822,-0.518425,-0.118861
0.062220,-0.019086,-0.022383,0.329518,-0.737828,0.589091
0.781547,0.192710,-0.949305,-0.161215,-0.249009,0.954989
0.520922,0.708547,-0.966609,-0.225133,-0.004207,0.974319
0.106028,-0.210223,0.271330,0.911304,-0.405656,-0.070487
-0.187125,-0.153516,0.931329,0.989319,-0.020987,-0.144250
-0.173442,0.448258,0.916460,-0.656634,-0.623404,-0.424498
-0.306147,0.091473,0.423774,0.814714,0.477621,0.328816
0.027642,-0.036306,0.112884,0.024409,0.994354,0.103268
0.315149,0.108690,-0.547911,0.219113,0.710788,-0.668408
0.285023,0.111296,-0.391820,0.580859,-0.728596,0.362975
-0.122713,0.026730,0.314543,-0.092720,-0.994267,-0.053247
0.167190,-0.307519,0.322662,-0.678444,-0.066475,0.731638
-0.379759,0.032791,0.779689,0.891244,-0.061987,-0.449269
-0.274257,-0.047416,0.638973,0.743700,-0.621644,0.245904
-0.053664,-0.095378,0.238072,0.049824,0.269341,0.961755
0.950780,-0.170085,-0.955735,0.164305,-0.830550,-0.532156
-0.120557,0.012154,0.331535,-0.287929,0.950744,-0.114813
0.466685,0.858309,-0.971738,0.137448,0.560800,0.816463
0.288387,-0.130512,-0.526329,0.940318,-0.057581,-0.335390
0.491726,0.668053,-0.978579,-0.318345,-0.553282,0.769763
0.283656,0.104549,-0.553615,-0.291824,-0.926636,0.237030
-0.327864,-0.027445,0.459930,-0.317355,0.537500,0.781268
0.422634,-0.450158,0.519638,0.791462,0.407144,-0.455875
0.198636,0.059797,-0.271480,-0.095389,0.891609,0.442645
-0.448984,0.421028,0.914094,-0.030252,-0.814843,0.578891
0.418624,0.213274,-0.697932,0.930871,0.357972,-0.073037
0.417748,-0.459197,0.522629,0.833766,0.402261,-0.378179
0.156257,0.004713,-0.218381,0.727133,0.295679,-0.619558
0.369675,0.165423,-0.523890,0.049550,-0.752778,0.656407
0.363370,0.598683,-0.967897,0.654123,0.729846,0.198616
0.822932,0.114314,-0.947060,-0.600127,-0.275843,-0.750838
0.159644,0.065039,-0.304734,0.670367,-0.026582,0.741554
0.042574,-0.023834,0.044959,0.827067,0.486846,-0.280965
-0.003924,-0.000938,0.161619,0.371062,0.881582,-0.291762
-0.434132,0.594183,0.890398,-0.651929,-0.252996,0.714830
0.238762,0.695647,-0.951110,-0.431110,0.851368,-0.298860
0.413376,0.231530,-0.659422,0.807513,0.039606,0.588519
-0.034529,-0.078318,0.212832,0.753698,0.628052,-0.193624
-0.409580,0.152605,0.609305,0.611303,-0.789156,0.059513
0.369817,-0.723154,0.404590,0.854736,0.161304,0.493363
0.430291,0.881238,-0.980090,-0.102130,0.956159,-0.274462
0.015584,-0.073432,0.148867,0.564227,0.812060,0.149022
0.131905,-0.236340,0.345768,-0.618836,-0.745510,-0.247499
-0.580074,-0.504674,0.530393,0.270654,0.033725,0.962086
-0.234122,0.008878,0.833190,0.807844,0.435056,0.397636
-0.262520,-0.020461,0.610526,0.678369,0.700736,-0.220871
0.515316,0.299976,-0.927349,0.790738,-0.526269,0.312689
0.101472,-0.210033,0.250982,0.689201,0.722696,0.052086
-0.291199,0.012302,0.873208,0.979364,-0.167020,-0.113799
0.299412,-0.411286,0.460086,0.448772,0.466736,-0.762077
0.212241,0.052147,-0.338284,0.913880,-0.390722,0.110272
0.446976,0.846372,-0.976252,0.079209,0.421119,0.903540
0.380424,0.190257,-0.618992,0.984391,0.035018,0.172476
0.789572,0.112959,-0.936780,-0.056067,0.081016,0.995135
0.925958,-0.104175,-0.946587,0.643752,0.319838,-0.695188
0.520269,0.410549,-0.970771,0.631805,0.432836,-0.643021
-0.484169,-0.108380,0.501829,-0.175366,0.750856,0.636759
-0.411568,-0.112014,0.582993,0.394064,-0.909721,-0.130846
0.541058,0.361682,-0.961901,0.504886,0.553625,-0.662261
0.466484,0.215406,-0.683168,0.945559,-0.185613,-0.267332
-0.156493,0.102353,0.893399,0.653576,-0.563837,0.504903
-0.440590,-0.089383,0.747613,0.555221,0.706975,0.438081
0.196166,0.170293,-0.339820,0.189593,-0.690911,0.697636
-0.355250,0.009341,0.717494,-0.385033,-0.888803,-0.248552
-0.400237,-0.083965,0.755015,0.475238,0.659467,-0.582454
-0.374311,-0.000873,0.773029,-0.192377,-0.946914,-0.257576
-0.249669,0.317383,0.969903,-0.614738,0.760058,0.210732
0.263133,0.163162,-0.473857,0.873075,0.271345,0.405108
0.253324,-0.309238,0.407022,0.660868,0.629032,0.409356
0.433012,-0.596012,0.551806,0.105662,0.721446,-0.684362
0.710160,0.266064,-0.949704,-0.219303,-0.613242,0.758841
0.420411,-0.770393,0.389597,0.730987,0.644770,-0.223450
0.513710,0.857507,-0.965578,-0.587982,0.443573,0.676402
0.196097,0.097057,-0.280692,-0.399272,0.704700,0.586499
-0.323571,-0.063361,0.802774,0.319391,-0.945348,-0.065622
0.128045,0.049258,-0.191661,0.567469,0.746904,-0.346572
