-0.284182,0.697474,0.340038,0.367697,-0.377339,-0.849950
0.062677,0.125745,0.814317,0.594786,0.610251,0.523281
0.175736,-0.008831,-0.638548,0.854789,-0.454765,0.250049
0.407340,0.278035,0.633352,0.589353,-0.455513,-0.667211
0.191204,0.040974,0.968044,0.809099,0.580800,-0.089609
-0.191551,-0.370559,0.611130,0.911564,0.085095,0.402257
-0.358458,0.039690,0.524442,-0.616280,-0.780267,0.106687
-0.249322,0.194496,0.742572,-0.254755,-0.965349,-0.056583
0.450222,0.091189,0.648799,0.891540,0.216536,0.397829
-0.184278,-0.456151,0.214763,-0.327989,-0.904497,0.272597
0.331449,0.620251,0.386213,0.906190,0.329273,-0.265329
-0.738847,0.244301,0.440106,-0.559681,0.476634,-0.677921
0.035840,-0.145204,-0.979239,-0.191363,0.121074,0.974023
-0.384141,0.128209,0.664105,0.219544,0.967170,-0.127997
-0.439892,0.360957,0.218046,0.842216,-0.187300,-0.505559
-0.093439,-0.547546,0.456614,-0.210832,-0.868295,-0.449015
0.081491,-0.209643,-0.002605,-0.464218,0.338698,0.818404
0.246090,0.337390,0.758304,0.004776,-0.791356,0.611337
-0.685405,0.323167,0.081692,0.458472,0.176806,-0.870944
-0.106539,0.182840,0.799218,0.826579,0.313585,0.467366
0.003577,-0.257907,0.181165,-0.132350,0.388849,0.911745
-0.799446,0.092781,0.382090,0.801639,-0.260999,-0.537823
0.391355,0.338622,0.647701,0.145919,-0.213400,0.966006
-0.607722,-0.113165,0.507404,0.810236,-0.132626,0.570901
0.099670,-0.127850,-0.403161,-0.528192,0.837925,0.137462
0.202342,-0.024440,-0.079042,0.902712,-0.403411,0.149566
-0.379639,0.446806,0.315580,0.397547,-0.080213,0.914069
-0.146938,0.287379,0.653337,0.865830,-0.497904,-0.049285
0.478098,0.421955,0.756391,0.987070,-0.158300,-0.025174
-0.229239,-0.752824,0.406767,-0.526148,0.718192,0.455378
-0.015409,0.478538,0.358886,-0.484279,0.056853,0.873064
-0.285971,0.387194,0.586944,-0.500312,0.311243,-0.807970
0.166271,-0.028548,-0.132534,0.985782,-0.072225,-0.151717
-0.693542,0.083128,0.562628,0.205958,-0.796396,0.568625
-0.618284,-0.277521,0.522903,0.945714,-0.073412,0.316600
0.613378,0.101099,0.563856,0.430975,0.512599,0.742632
0.014025,-0.002516,0.744899,-0.184242,0.973345,0.136581
-0.681826,-0.282142,0.546120,0.963074,-0.258808,0.074210
-0.376407,-0.648131,0.107081,-0.353520,-0.242168,0.903536
0.208114,0.031013,0.015635,-0.518377,-0.788320,0.331418
-0.715877,0.003440,0.495498,0.618328,0.675377,0.401915
-0.149939,-0.475303,0.452774,0.352238,0.136130,0.925957
0.155191,0.168720,0.616107,0.201965,-0.201896,0.958357
0.544815,0.279318,0.437068,0.858125,-0.496696,-0.130056
0.643390,0.272284,0.588573,0.411680,0.666198,-0.621852
-0.721821,0.275570,0.070045,0.890964,0.330275,-0.311612
-0.043054,0.535326,0.355796,-0.522966,-0.049488,0.850916
-0.104058,-0.334874,0.585651,0.006947,0.694745,0.719223
-0.097883,-0.033939,0.636622,-0.617493,-0.400239,0.677135
0.171004,-0.002002,0.781922,0.109866,-0.280186,-0.953638
-0.010735,-0.195728,0.700236,0.884673,0.101880,0.454944
0.472787,0.498152,0.590835,0.174485,-0.534226,0.827138
0.525076,-0.057712,0.638277,-0.045589,-0.879546,0.473624
0.232585,0.217807,0.796503,0.903489,-0.384182,0.190030
-0.184048,-0.711388,0.361652,-0.321648,0.946833,0.007075
-0.157097,-0.551602,0.452943,0.009495,0.642730,0.766034
0.125123,0.128825,0.136257,0.997099,0.071067,-0.027244
0.114849,-0.287739,0.647946,-0.490603,-0.740611,-0.459133
-0.201708,-0.663124,0.361264,0.440620,-0.685145,-0.580026
-0.631557,0.271770,0.420767,-0.707164,-0.242638,-0.664113
-0.014314,-0.379749,0.346812,0.648666,0.546009,-0.530194
-0.912449,-0.017817,0.218537,0.273154,0.882361,0.383179
-0.160385,0.336465,0.518625,-0.535535,0.838494,0.100652
0.478156,-0.056634,0.663200,-0.481490,-0.644830,-0.593600
0.291338,-0.064541,-0.687425,0.951466,0.285580,0.114700
-0.690483,0.291128,0.195669,0.541320,0.791522,-0.283665
-0.360594,-0.264839,0.541997,-0.057346,0.040394,0.997537
-0.631963,0.213134,0.440985,0.091424,0.820482,0.564315
-0.057194,-0.475406,0.404996,0.883328,0.163512,-0.439313
-0.486871,0.316543,0.649937,0.841319,0.040056,0.539052
-0.369077,0.379031,0.237010,-0.336083,0.364540,0.868423
-0.830497,0.298008,0.480942,-0.693037,0.235242,-0.681441
0.463439,0.534093,0.660072,-0.039883,-0.410164,0.911139
0.369943,0.285428,0.640061,0.954428,0.161955,-0.250674
0.538985,-0.209745,0.618150,-0.456500,0.629870,0.628388
-0.953541,0.210670,0.268436,0.979638,-0.094082,0.177363
-0.049749,-0.037174,0.675636,0.742060,0.372781,-0.557118
-0.092284,0.041076,0.608415,-0.585400,0.356948,-0.727939
-0.105559,0.692853,0.039886,-0.135984,-0.541397,0.829697
0.020084,0.571986,0.392043,0.626824,0.677631,-0.384588
0.442316,0.634884,0.694005,0.908298,0.301870,-0.289602
0.165579,-0.351201,0.679204,0.863814,-0.189001,0.467016
0.278410,0.093140,0.863982,-0.208947,0.776240,-0.594805
-0.414151,0.216780,0.253621,0.227589,-0.478471,-0.848097
0.157615,0.239680,0.693423,-0.261162,0.740710,-0.618986
-0.703354,0.160505,0.396969,-0.658498,0.738530,-0.144757
-0.425291,-0.054529,0.401015,-0.208428,0.350848,0.912942
0.257921,0.087646,0.628905,0.554260,0.681214,0.478272
0.081202,0.448039,0.364884,0.895697,0.409921,-0.172314
0.288912,0.065825,0.799657,0.949981,0.312302,-0.001924
-0.664340,0.166718,0.438826,-0.098896,0.929812,0.354498
-0.212905,0.398439,0.676179,0.842744,-0.481514,-0.240679
-0.347781,0.153728,0.672249,-0.071795,0.997370,-0.009936
-0.377504,0.625385,0.343218,0.311343,0.637349,0.704877
-0.320944,-0.101407,0.533064,0.868738,0.220275,0.443592
0.284643,-0.100739,0.792625,0.735481,0.668278,-0.111677
-0.675478,0.511861,0.410710,-0.575379,0.511583,-0.638140
-0.531484,-0.256521,0.475797,-0.283764,0.951419,-0.119502
-0.564610,-0.172879,0.505478,0.738674,0.374278,0.560604
0.054193,-0.040152,0.158129,-0.303715,0.792536,0.528814
-0.263231,0.307969,0.585043,0.981395,0.131112,-0.140264
-0.850234,-0.177501,0.220981,0.989747,0.091720,0.109488
-0.162580,0.184843,0.683340,-0.322030,0.906471,-0.273144
-0.021873,0.067416,0.751905,-0.723036,0.068529,0.687403
-0.095574,0.300010,0.669379,-0.136844,0.920445,-0.366135
0.036416,0.238807,0.568432,0.279682,0.508995,-0.814065
0.039361,0.603204,0.560650,0.070442,-0.513790,0.855019
0.015871,0.192801,0.836435,0.680626,0.725040,-0.105191
0.984302,0.109519,-0.971031,0.246940,-0.171638,-0.953709
0.637271,0.218217,0.548176,-0.022480,0.965829,0.258204
-0.275236,0.113216,0.702421,0.846014,0.177719,0.502669
-0.635714,0.134422,0.389639,-0.698537,-0.639007,0.322050
-0.815663,-0.225046,0.228840,0.873809,0.478815,0.084814
-0.145092,0.612343,0.469037,-0.584419,-0.807556,0.079425
-0.283893,0.861625,0.377423,0.708717,0.125670,-0.694209
0.515497,0.308431,0.447151,-0.732054,0.207673,0.648822
0.435736,0.338981,0.637450,-0.019022,0.063723,0.997786
-0.306286,-0.639094,0.350186,-0.572658,0.707495,0.414141
0.193282,0.002259,0.197596,-0.003862,-0.960152,0.279453
0.064005,0.443777,0.550296,0.569919,0.212479,-0.793754
0.190628,0.082255,0.914281,-0.387617,0.911867,0.135102
-0.078664,-0.775262,0.443196,0.195007,0.942822,0.270295
-0.181855,-0.610752,0.268823,-0.395825,-0.079341,0.914892
-0.104577,-0.529472,0.460815,0.401025,0.668917,0.625883
-0.934149,0.260885,0.005177,0.851052,0.171717,-0.496209
-0.078261,-0.069727,0.781068,-0.073336,0.956058,0.283857
0.145957,0.009910,-0.050512,0.509707,-0.827687,-0.234803
-0.436718,0.287739,0.577158,-0.018455,-0.093824,0.995418
-0.549894,-0.131444,0.492073,0.732647,0.066035,0.677398
-0.783460,0.116502,0.283121,0.037305,0.994324,0.099643
0.111156,-0.048573,0.014653,-0.277657,0.904034,-0.325006
0.026317,0.033785,0.814291,-0.512134,0.811545,-0.281271
-0.685002,0.257394,0.077917,0.486232,0.354381,-0.798744
0.210250,-0.087184,0.804040,0.506705,-0.738977,0.444030
-0.383449,-0.760628,0.093443,0.717743,-0.114743,-0.686789
0.008829,-0.340932,0.483709,-0.280775,-0.778176,0.561790
-0.272638,-0.660813,0.328546,-0.172583,0.975247,0.138232
-0.075893,0.793643,0.343244,0.794710,0.474440,-0.378606
0.365211,0.055196,0.853253,0.889133,-0.364320,-0.276971
0.369596,0.043181,0.850357,0.924264,0.191745,-0.330107
-0.382871,0.446036,0.146676,0.346972,0.608105,-0.714016
0.235181,0.129133,0.816165,-0.711682,-0.105650,-0.694512
0.349858,-0.096170,-0.962447,0.440577,-0.145372,0.885866
0.423097,0.090060,0.645826,0.865528,0.472507,-0.166125
-0.892885,0.314336,0.296771,0.974532,0.195976,0.109001
-0.136205,-0.245276,0.576887,0.429786,0.235101,-0.871786
-0.593641,0.186691,0.441528,0.587043,0.423115,-0.690185
0.452415,0.570908,0.520951,-0.400252,0.215196,-0.890780
-0.365614,-0.035120,0.013528,0.829556,0.525621,0.188573
0.185029,0.173804,0.777022,0.954854,0.025701,0.295962
0.150862,0.162559,0.785076,0.488063,-0.872572,-0.020314
-0.163214,-0.016071,0.641573,0.204624,0.262132,-0.943089
-0.684251,-0.178527,0.065934,-0.155419,0.045187,0.986815
0.076469,0.816389,0.419526,0.822856,-0.568244,-0.002589
-0.030993,-0.004364,0.782736,0.178407,-0.787477,0.589958
0.387603,-0.191364,0.714430,-0.746809,0.466328,-0.474147
-0.316501,-0.177552,0.540122,0.186434,0.473716,0.860718
-0.481099,0.403163,0.528022,-0.640715,0.602693,-0.475653
-0.846829,-0.207846,0.214595,0.980342,-0.177857,-0.085418
0.545623,0.250308,0.423559,-0.548362,0.714197,0.434997
0.811278,0.140583,0.567889,0.078301,-0.250494,-0.964946
-0.430080,0.115578,0.041011,-0.122782,-0.296300,0.947170
-0.236106,0.098737,0.688602,-0.505917,-0.718039,-0.477984
0.149247,-0.015968,-0.249006,0.978215,-0.185900,0.092393
0.440468,0.419901,0.735617,0.971395,-0.178121,-0.157052
-0.119698,-0.238909,0.715425,-0.423538,-0.727601,-0.539641
-0.902175,-0.418361,0.341434,0.859169,0.325670,0.394674
0.182258,-0.106079,0.596988,0.754495,0.498168,0.427276
-0.439834,0.523311,0.635976,0.462626,-0.677778,0.571485
-0.124603,-0.435972,0.598384,0.319649,0.438252,0.840095
-0.174988,0.074553,0.669857,0.910555,0.241056,0.335829
0.443008,0.376720,0.729580,0.869709,-0.115334,-0.479900
-0.601431,0.510423,0.375238,-0.203037,-0.331672,0.921287
-0.201594,0.020435,-0.085234,0.813591,0.516168,0.267658
0.118889,0.700555,0.483411,-0.182956,-0.728457,0.660210
-0.373233,0.434535,0.076379,-0.231436,-0.073283,0.970086
-0.767935,0.092627,0.259180,0.606957,0.196665,-0.770017
-0.871587,-0.116862,0.219171,0.419305,0.405440,0.812282
0.354476,-0.162764,0.692764,0.354179,0.918254,0.177107
0.051595,0.457794,0.526432,0.404321,0.914329,-0.022935
0.555837,-0.229975,-0.963934,-0.120168,0.296472,0.947451
-0.070122,-0.090214,0.648153,0.888878,0.438333,0.133271
-0.189992,0.176936,0.704243,0.020929,-0.907489,0.419555
-0.460842,-0.008523,0.417445,0.331712,0.586573,-0.738850
0.063080,0.385192,0.683676,0.145039,-0.361851,0.920884
-0.478964,0.255494,0.402579,0.607041,0.571272,0.552404
0.130375,0.049805,0.953463,-0.133364,-0.990745,0.025277
-0.077741,0.621740,0.495188,-0.027303,-0.464187,0.885316
-0.495758,-0.497843,0.073484,-0.148157,0.007487,0.988935
-0.468980,0.457281,0.523963,0.776401,0.518908,0.357680
-0.050096,-0.386219,0.205210,-0.264356,0.251333,0.931100
-0.060484,0.756110,0.390738,0.853871,0.443667,-0.272146
0.223409,0.014582,0.914165,0.205618,0.901781,-0.380147
0.433543,0.408914,0.753792,0.980346,-0.197107,-0.008405
-0.190108,-0.338057,0.596122,0.881816,0.253151,0.397890
-0.233508,0.051910,0.537201,-0.174193,-0.123514,0.976935
0.780515,0.295749,0.456407,0.398091,0.917272,0.011675
-0.129972,-0.435459,0.594842,0.255118,0.495264,0.830439
0.864489,0.314182,0.581863,-0.073104,-0.396988,0.914908
0.912621,0.002311,-0.968406,-0.149148,0.340163,0.928463
-0.008368,-0.179092,0.492266,0.020693,-0.799763,0.599959
-0.411844,-0.949784,0.078098,0.049636,-0.527514,0.848095
0.618977,-0.014479,0.615112,-0.372052,0.433206,-0.820920
0.250360,0.166615,0.767663,-0.642283,-0.410682,0.647158
-0.501877,0.094116,0.498458,-0.073119,0.970401,0.230162
0.852485,0.163586,0.566067,-0.431850,-0.035801,0.901235
-0.017257,0.155011,0.749087,-0.733733,-0.501194,0.458738
0.518267,0.034915,-0.516401,0.272935,0.937121,-0.217511
0.313038,-0.135192,0.664338,-0.558506,0.247744,0.791640
-0.056271,0.386424,0.692855,-0.033881,-0.931084,0.363227
0.422232,0.424677,0.600271,0.555884,0.272675,0.785265
0.278294,-0.119172,0.896119,0.839219,-0.177361,0.514057
0.502222,0.143869,0.570617,-0.281584,0.319685,0.904716
0.242108,0.360290,0.693643,-0.005571,-0.574006,0.818832
-0.108616,-0.181505,0.707863,0.931289,-0.020168,-0.363724
-0.155307,0.837338,0.554678,-0.209582,0.776067,-0.594807
-0.269522,0.125745,0.674666,0.386097,0.920296,-0.063129
-0.205865,0.746765,0.512045,-0.201810,0.787745,-0.582006
0.237087,0.235623,0.777229,0.471759,0.317331,-0.822645
-0.539043,-0.071010,0.287774,0.885953,0.463627,-0.011699
0.634847,0.047443,-0.980700,-0.047924,0.220189,0.974279
-0.450049,-0.285839,0.571612,0.874492,-0.176644,0.451730
-0.322676,-0.469347,0.209307,0.835233,-0.396949,0.380550
0.247878,0.016944,-0.478370,0.678392,0.656294,-0.330246
0.058117,0.610136,0.467046,0.374102,-0.915081,0.150581
-0.017546,0.208308,0.752823,0.820934,-0.369301,0.435528
0.620534,0.037174,0.576550,0.343746,0.038169,0.938287
-0.453859,-0.572294,0.069127,-0.603496,-0.308193,0.735397
-0.287355,0.510474,0.264234,0.977872,-0.194356,-0.077408
-0.329082,-0.462621,0.326142,0.732939,-0.680263,-0.006478
0.241645,0.060279,0.925954,-0.408660,-0.359915,0.838724
-0.685750,0.481824,0.064577,-0.448324,0.290672,0.845290
-0.340220,-0.526289,0.366047,-0.531637,-0.270392,-0.802652
0.183528,0.158143,0.759726,0.246002,-0.843573,0.477355
-0.276909,-0.408092,0.178683,0.438185,-0.576089,-0.690011
-0.002193,0.190029,0.747135,0.936716,-0.349716,-0.016155
-0.349224,0.269306,0.345532,-0.308643,0.144068,-0.940204
0.055001,-0.158451,-0.976201,-0.154869,0.108532,0.981955
-0.184798,0.151623,0.712930,0.339982,-0.778244,0.527967
0.444047,0.488191,0.686585,0.843388,0.144400,-0.517537
0.129508,0.060895,-0.070355,-0.378185,0.921157,0.091902
-0.962717,0.236085,0.001777,0.821384,0.251330,-0.512017
0.284182,0.564130,0.576176,-0.554555,-0.821327,-0.133759
0.059964,0.169388,0.810413,-0.626238,0.319875,-0.710990
0.533099,0.204303,0.450991,0.487345,-0.373536,-0.789282
-0.327350,-0.151879,0.691976,0.893709,0.322892,0.311489
-0.761874,0.107825,0.488789,-0.644254,0.044498,-0.763516
0.126968,0.204303,0.695815,-0.249003,0.319095,0.914426
0.358054,0.031885,0.832647,0.576839,0.677746,-0.455979
-0.094996,-0.328353,0.046608,-0.658294,0.341460,-0.670861
-0.318752,-0.555042,0.206425,0.980344,-0.147240,-0.131325
-0.353725,0.418258,-0.092228,0.175628,-0.110604,0.978224
-0.910948,0.300370,0.302498,0.969782,-0.035149,0.241429
0.328851,-0.024492,0.825718,0.337806,0.813581,-0.473259
-0.830958,-0.444136,0.208635,0.690798,0.630650,-0.353664
0.512610,-0.368967,0.635485,0.230942,0.209230,0.950205
-0.332372,0.400493,0.095744,0.763011,0.644402,0.050602
-0.802852,0.271257,0.466968,0.805451,-0.190929,0.561066
0.014948,-0.646591,0.273723,-0.282257,0.065395,0.957107
-0.918279,0.189875,0.001273,-0.672233,-0.392325,0.627840
-0.181336,0.572859,0.484420,0.383462,-0.730739,0.564781
-0.028626,-0.138940,-0.980778,0.225797,-0.147726,-0.962908
-0.376523,0.166307,0.633197,0.813111,0.021754,0.581702
0.096035,0.072089,0.782284,-0.605726,0.560380,-0.564863
0.250418,-0.157116,0.796464,0.542375,0.827972,-0.142449
0.236625,-0.010885,-0.042381,-0.147466,0.948235,0.281254
-0.223062,0.844373,0.338164,0.802770,0.539893,0.253132
-0.735268,-0.312230,0.305161,-0.234369,-0.480321,-0.845200
-0.934842,0.075529,0.331119,0.613073,0.456239,0.644971
0.099151,-0.062128,0.667996,0.834111,-0.335185,0.438076
-0.003810,0.190388,0.751866,-0.636926,0.201835,-0.744035
-0.655625,0.055504,0.171173,-0.842248,0.256953,-0.473913
-0.280488,0.119429,0.712232,0.831737,-0.059666,0.551954
-0.397530,0.391456,-0.099945,0.097072,-0.214577,0.971871
-0.585387,0.336568,0.343748,-0.717022,-0.539480,0.441408
-0.223120,-0.879698,0.426584,0.760872,-0.646135,0.059871
-0.397646,-0.212005,0.550942,-0.682477,-0.219930,-0.697034
0.297513,0.043335,0.677071,0.959498,0.037643,0.279190
-0.437352,-0.047032,0.041890,0.861821,0.463371,0.206281
-0.487679,-0.049137,0.051055,0.733685,0.271553,0.622868
-0.000808,0.659170,0.568445,-0.344361,0.749036,-0.566004
-0.529578,0.447320,0.608842,-0.670094,0.684208,-0.287808
0.493104,0.534350,0.682940,0.960463,0.275180,0.042258
-0.137473,0.797443,0.541195,-0.209582,0.776067,-0.594807
-0.461362,-0.545389,0.072617,0.388250,-0.046732,-0.920369
0.114099,0.144331,0.754103,0.727118,0.686427,0.010813
-0.476483,0.252157,0.423973,0.934815,-0.295495,-0.196988
0.438737,0.433662,0.762441,-0.432282,0.854757,-0.287266
0.468980,0.041590,0.777242,0.426002,0.455330,-0.781791
0.090205,0.385346,0.545332,-0.297572,-0.647320,0.701732
-0.800081,0.190285,0.243215,0.930646,0.079932,-0.357083
0.194321,0.548881,0.342843,0.938207,-0.271565,-0.214524
-0.592602,-0.096683,0.295065,0.935154,0.352761,-0.032348
0.116697,0.105874,0.658870,0.550696,0.539011,0.637339
0.156114,-0.160094,0.895834,-0.047142,-0.865672,0.498386
-0.129163,0.274646,0.536089,0.489619,0.058172,-0.869994
0.145437,-0.118043,0.730912,0.921894,0.386827,-0.021814
-0.706817,0.269563,0.082041,-0.565645,-0.256888,0.783616
-0.483869,-0.080817,0.496558,-0.421950,0.363904,-0.830381
0.155364,-0.470271,0.430695,0.098583,-0.520987,0.847853
0.731344,0.072808,0.457183,-0.310975,0.278340,-0.908747
0.088590,-0.123229,0.794034,-0.396555,0.886397,-0.238840
-0.110291,0.252157,-0.121145,0.524193,0.038449,0.850731
-0.175795,-0.333847,0.375523,-0.302121,0.944982,-0.125428
0.199226,-0.279524,-0.596755,0.594867,-0.088831,-0.798901
-0.755643,0.148901,0.456485,0.955039,-0.098453,-0.279657
-0.179720,-0.182532,0.578541,-0.674700,-0.034887,0.737267
-0.597854,0.333333,0.351892,-0.182387,-0.901430,0.392631
-0.245398,-0.205278,0.676528,-0.037144,0.999258,-0.010188
0.150344,0.078558,0.816062,0.059711,0.959277,0.276083
-0.936747,0.355514,0.332347,0.741989,-0.317924,0.590234
-0.268022,0.046878,-0.067149,0.452521,0.613969,0.646735
-0.678941,0.471349,0.062638,-0.448324,0.290672,0.845290
-0.377849,-0.867529,0.475759,-0.727931,-0.247768,-0.639317
0.263173,-0.164459,-0.970643,-0.319848,-0.141579,0.936831
0.140646,0.075786,0.823676,-0.083534,-0.823210,-0.561557
0.250476,0.464983,0.587176,-0.560684,0.573728,-0.597050
0.051653,-0.024748,0.684478,0.031262,-0.645663,0.762983
0.287528,-0.185921,0.577378,0.769879,0.626732,0.120391
0.026433,0.315671,0.665941,0.560484,0.691539,-0.455667
0.078489,0.781988,0.436280,0.836683,-0.069361,0.543278
0.069660,0.587800,0.436577,-0.279461,-0.959277,0.041097
-0.255555,-0.169439,0.466632,0.574386,-0.306895,0.758878
0.163733,-0.389454,0.683082,0.445282,0.343799,0.826756
0.107115,-0.043592,0.875591,-0.041219,0.003161,0.999145
-0.369309,-0.711850,0.285034,0.809871,-0.341763,0.476767
-0.223581,-0.064438,0.810645,0.496838,-0.777154,0.386243
0.296646,0.081896,0.734764,-0.105069,-0.008604,0.994428
-0.284065,0.135603,0.557587,0.885003,0.325248,-0.333142
-0.007272,0.085952,0.763165,0.910356,0.231464,0.343041
-0.331275,-0.711696,0.422047,0.813232,-0.475150,-0.335987
-0.044728,0.270743,0.698840,-0.599724,-0.041509,-0.799129
0.766087,0.068443,0.452891,-0.535612,0.445307,-0.717511
-0.772898,0.169183,0.488272,0.812181,0.300024,0.500348
0.547469,0.444650,0.587978,-0.196675,0.589611,-0.783376
-0.079759,-0.161275,0.714986,0.936635,0.250872,-0.244497
-0.515324,0.207024,0.564826,-0.176324,-0.954622,0.240015
-0.014775,-0.276597,0.715503,0.713091,0.319038,0.624272
0.036705,0.844167,0.448651,-0.318417,0.713926,-0.623635
-0.090841,0.838417,0.461733,0.388534,-0.676598,0.625505
-0.746292,-0.181557,0.351853,0.353193,-0.789554,0.501856
0.136203,0.546262,0.489474,0.037700,0.079957,0.996085
0.128355,-0.033477,0.524493,0.220510,0.963035,0.154724
0.831245,0.140327,0.560702,-0.277318,0.419731,0.864245
-0.046864,-0.648131,0.213884,-0.394483,0.327423,0.858590
0.450569,0.452814,0.591235,0.228763,-0.579449,0.782244
-0.690252,0.256983,0.057002,0.915009,0.314313,-0.252916
0.662204,0.224789,0.582717,-0.598876,0.246098,0.762092
-0.319905,0.535223,0.610742,-0.621038,-0.290649,-0.727898
-0.552201,0.093756,0.042937,0.395746,0.609893,-0.686597
-0.347723,-0.098583,0.335022,0.727849,0.423670,-0.539203
0.046748,0.090932,0.668345,0.888195,0.341030,-0.307909
-0.134935,-0.091754,0.763979,-0.457009,0.888633,0.038390
0.233163,-0.045492,-0.015829,0.102156,-0.928956,-0.355816
-0.199977,-0.215445,0.291316,-0.554827,0.468292,0.687655
-0.625037,0.138273,0.463633,0.341737,0.640248,0.687967
0.275870,-0.063052,0.772407,0.977554,0.190520,0.089944
0.085878,0.348275,0.451003,0.374596,0.421075,-0.826059
-0.408843,0.111008,0.519594,0.410827,0.709895,-0.572076
-0.722571,0.197987,0.398533,-0.654380,-0.658324,0.372016
0.465401,-0.287174,0.631813,-0.331976,-0.200586,-0.921714
0.139148,0.143972,-0.993213,0.119467,-0.229302,-0.965996
-0.684538,0.402187,0.081731,0.204684,-0.127545,-0.970483
-0.744619,0.184535,0.472876,-0.657377,-0.733540,-0.172552
0.108790,0.727562,0.502763,-0.361466,0.373225,-0.854427
-0.264501,-0.247484,0.422396,0.726090,0.043387,0.686230
-0.744446,0.541128,0.059070,0.270784,-0.065452,-0.960413
-0.418595,0.086363,0.677187,-0.035967,0.931420,-0.362166
0.290413,0.090162,0.883812,0.258349,0.552837,0.792229
0.267789,-0.212210,0.557638,0.486183,0.853605,0.187043
0.389104,0.207897,0.678906,-0.590662,0.357722,-0.723293
0.165059,0.017714,0.966622,0.676989,0.663611,-0.318288
0.241183,0.191004,0.804066,0.963062,-0.236341,0.129050
0.650546,-0.058277,0.448534,-0.190461,0.890941,-0.412248
-0.422001,0.513966,0.148589,-0.034950,-0.784637,0.618969
-0.636001,-0.234853,0.538080,0.870562,0.221254,0.439509
-0.073354,-0.211594,0.702175,0.287727,0.480868,0.828238
0.524326,0.143818,0.568833,-0.137806,-0.093321,-0.986053
0.213308,0.017765,0.789355,-0.646926,0.427938,-0.631154
-0.035262,0.197063,0.757606,-0.014309,-0.997406,0.070549
-0.677499,0.143151,0.269315,-0.163284,-0.308221,0.937197
-0.323946,-0.458821,0.122968,-0.467294,-0.517584,0.716759
-0.372772,-0.032810,0.334596,0.663578,0.306429,-0.682470
0.617765,0.088776,-0.982574,0.113206,-0.216724,-0.969647
-0.653200,-0.291590,0.296397,0.505850,0.583802,0.635052
-0.230334,0.038150,0.533465,-0.150656,-0.125739,0.980557
0.256306,0.032707,0.852968,-0.554578,-0.399151,-0.730152
-0.056386,-0.153830,-0.984901,-0.235520,0.143610,0.961201
0.106943,-0.028805,0.868054,-0.499919,-0.058603,-0.864087
-0.363596,0.618197,0.312452,0.886725,-0.460987,0.034794
0.170023,0.728486,0.367340,0.962719,0.171402,-0.209270
-0.285393,0.231259,0.626474,0.792342,-0.608769,-0.039922
-0.285971,0.278240,0.626358,0.914393,0.041059,0.402741
-0.856352,-0.040768,0.392832,0.758694,0.459597,0.461685
-0.027645,0.150082,0.736095,-0.659307,-0.674077,0.333069
0.035782,0.828918,0.301955,-0.439865,-0.856066,0.271422
-0.778786,0.224481,0.452180,0.724415,0.217040,0.654306
0.131759,0.538868,0.559267,0.213857,0.435781,0.874277
0.101863,-0.418926,0.694212,0.772910,-0.046079,0.632840
0.132337,0.810433,0.368167,-0.616615,-0.743375,0.259190
0.367000,0.245430,0.688266,0.263689,-0.921371,0.285558
-0.695101,0.395050,0.380694,0.844977,0.532815,0.046070
0.195128,-0.017868,0.859677,0.960890,0.153263,0.230652
0.113926,0.048573,-0.096274,0.074280,0.955230,-0.286387
-0.500665,0.043643,0.499932,0.757692,0.167294,0.630806
0.227160,0.362138,0.540652,0.532258,0.476675,-0.699630
0.690310,0.219090,0.452878,-0.042010,0.859278,0.509781
0.319502,0.571319,0.617555,-0.291409,0.320457,-0.901326
-0.161655,0.404292,0.683017,0.245433,0.060048,-0.967552
-0.331218,0.209745,0.616999,0.873222,-0.485459,-0.042574
-0.321926,0.266687,0.510493,0.863270,0.394516,0.314837
0.071853,-0.047751,0.077064,0.021885,-0.994470,0.102716
-0.266405,0.228435,0.620192,-0.570139,0.797124,-0.198831
-0.140532,0.470168,0.686236,-0.080752,-0.816471,0.571712
0.169158,-0.170055,0.785244,0.432446,-0.697283,0.571652
-0.537948,-0.667950,0.041890,0.522513,0.258331,-0.812555
0.638657,-0.060793,-0.969596,-0.119184,0.273800,0.954373
0.162636,-0.011347,-0.521223,0.942783,0.322195,0.085738
-0.260230,-0.735110,0.429028,-0.292246,0.655980,0.695904
-0.534716,0.061255,0.502841,0.755425,0.136064,0.640952
-0.431523,0.394434,0.506900,-0.579186,-0.067712,-0.812378
0.337162,0.096324,0.748932,0.338811,0.939709,-0.046410
0.027067,0.119686,0.731144,-0.443489,-0.894993,0.048001
-0.523981,0.484750,0.369731,-0.478560,-0.867249,-0.137328
-0.111617,0.364397,0.665074,0.154435,-0.396885,0.904783
-0.525943,-0.512015,0.294820,-0.495866,-0.545745,-0.675485
0.277890,-0.221247,0.602663,0.645707,0.760110,0.072771
-0.358285,-0.643972,0.361109,0.909448,0.000316,-0.415817
0.435679,-0.211286,-0.967333,-0.079657,0.273680,0.958516
0.074623,0.238550,0.741434,0.364933,0.518824,-0.773075
-0.181855,0.200041,0.521960,0.776884,-0.160307,-0.608895
0.109597,0.262631,0.581954,0.481091,0.184499,-0.857036
-0.181740,-0.656706,0.367495,0.396972,-0.889478,-0.226369
0.423444,0.162148,0.562201,0.541430,0.320888,-0.777100
-0.109655,0.039895,0.349695,-0.003897,-0.917152,0.398517
-0.348473,0.371277,0.341395,0.631677,0.103021,0.768356
-0.261038,-0.342165,0.377837,0.302047,-0.938893,-0.165065
0.204651,0.614295,0.030915,-0.155407,-0.438773,0.885058
0.085878,-0.177346,-0.621407,-0.082656,0.495736,0.864531
-0.308306,0.279832,0.626824,0.736583,-0.043579,0.674942
0.433659,0.055607,0.747070,0.030663,0.760510,0.648601
-0.759336,-0.324297,0.299396,-0.019120,0.346467,0.937867
-0.565187,-0.172469,0.290088,-0.362525,-0.190095,0.912381
-0.270387,0.443726,0.592024,0.478984,0.179339,0.859309
-0.772667,0.199990,0.449439,-0.693188,-0.318566,0.646534
0.271252,-0.105258,0.661261,-0.647388,0.744200,0.164484
0.120448,0.059971,0.098342,0.999609,0.003929,0.027692
-0.382006,-0.440183,0.233416,0.066017,-0.905456,0.419274
-0.401915,0.405371,0.071195,-0.262778,0.523131,0.810729
-0.459629,-0.225508,0.275946,0.240345,-0.604383,0.759576
-0.282970,-0.238653,0.635989,-0.079515,-0.986723,-0.141613
-0.098344,0.883344,0.477672,0.734493,-0.403393,0.545706
-0.309979,0.990090,0.362790,0.891051,-0.073365,-0.447935
0.044958,0.656962,0.033772,0.177246,0.493878,-0.851275
-0.796619,0.083898,0.504663,0.902417,-0.227318,0.366019
-0.730018,-0.037225,0.368116,0.962871,0.252959,0.094293
0.344318,0.358287,0.624703,0.833302,0.389492,-0.392307
0.063774,-0.650596,0.474608,0.861488,0.387458,0.328197
0.163214,-0.076556,0.871609,0.074581,-0.804210,0.589648
0.413517,0.331485,0.646175,-0.355435,0.422415,-0.833806
-0.569228,0.342421,0.082739,0.203157,0.141481,0.968871
-0.362902,-0.093705,0.629331,0.839563,0.126060,0.528434
-0.572171,-0.297751,0.281311,-0.424245,-0.082140,-0.901815
-0.633578,-0.235367,0.523834,0.868907,-0.167034,0.465939
0.289548,0.425447,0.558517,-0.630860,-0.304594,0.713610
-0.032839,0.383754,0.664803,0.012304,0.994470,-0.104302
0.082933,0.847607,0.436680,0.892680,0.321167,0.316186
-0.645871,0.261039,0.445626,-0.115964,-0.712624,0.691895
0.343163,0.119634,0.858087,0.003599,-0.983796,0.179256
-0.502280,-0.755648,0.035452,0.492389,0.760802,-0.422768
-0.288798,0.800934,0.366099,0.838192,0.447477,-0.311768
0.055059,0.148542,0.802915,0.409272,-0.752594,0.515848
-0.362440,0.404190,0.570772,0.284236,-0.823765,0.490531
0.160212,0.282553,0.648812,-0.282998,0.773499,-0.567108
-0.014198,0.840932,0.453123,-0.389049,0.728813,-0.563447
-0.278179,-0.579020,0.367327,0.582958,0.470707,0.662266
-0.322560,-0.190080,0.707721,0.660939,-0.749205,-0.043029
0.798061,0.212005,0.583195,0.063175,-0.789327,0.610714
0.224909,-0.138786,0.614685,-0.332666,-0.927263,-0.171805
0.263923,-0.123383,0.049672,0.711124,0.697277,0.090044
0.100710,-0.002567,0.062108,-0.322454,0.944672,0.060150
-0.706470,0.344475,0.350457,-0.529727,-0.843204,0.091636
-0.821493,0.118659,0.254539,0.783066,0.478997,0.396699
-0.595892,0.666667,0.079107,-0.540417,0.302599,0.785101
-0.103653,0.160403,0.665734,-0.195457,0.884645,0.423320
-0.247880,-0.565927,0.344808,-0.707367,0.397001,0.584826
-0.181971,-0.887965,0.305006,-0.100290,0.581559,0.807299
0.089282,-0.347915,0.696940,-0.614133,0.087558,-0.784331
-0.137358,0.770743,0.342843,-0.423666,-0.636667,-0.644331
-0.033706,0.448295,0.713848,0.231493,-0.527674,0.817295
-0.659953,-0.311871,0.542488,0.943106,-0.082655,0.322056
-0.162694,-0.356285,0.609618,0.785641,0.226386,0.575775
-0.280833,-0.156962,-0.137550,-0.648926,0.541366,-0.534620
-0.108098,-0.334514,0.750845,0.922909,0.222017,0.314558
-0.326485,-0.741887,0.425201,-0.113259,0.782555,0.612193
-0.264212,-0.786352,0.440106,-0.193755,0.918113,0.345728
-0.661164,-0.182481,0.062664,-0.155419,0.045187,0.986815
-0.260691,0.767560,0.364186,-0.641200,-0.505095,0.577704
-0.352975,-0.095091,0.423430,0.821713,0.360567,-0.441338
-0.279738,-0.033991,0.461397,0.424574,0.402378,0.811066
0.394701,0.070754,-0.987448,0.042193,0.309119,0.950087
-0.075546,0.349353,-0.137821,0.474089,-0.006402,0.880453
0.152190,0.059869,0.216288,-0.222425,-0.736354,0.638991
0.083338,-0.139813,0.658779,-0.515338,-0.781611,-0.351440
-0.566457,0.020333,0.525269,0.637582,0.020326,0.770115
-0.449646,0.153522,0.682668,0.484502,0.288520,0.825841
0.225255,0.237626,0.724267,0.104148,-0.204838,0.973239
-0.226871,-0.586003,0.352034,-0.354121,0.327190,0.876097
-0.216656,-0.260885,0.552506,-0.018814,0.938976,0.343469
0.199343,0.740861,0.390893,0.700609,0.680115,0.215849
0.163503,0.087338,0.824025,-0.141789,-0.888173,0.437087
0.388007,0.257804,0.413399,-0.170182,0.339065,0.925242
-0.380736,0.314490,0.557418,-0.791611,0.356045,0.496572
0.435621,0.480797,0.628439,0.628377,0.727059,0.276635
0.240319,-0.173393,-0.345106,0.974042,0.225065,0.024231
-0.665552,-0.066492,0.357141,-0.435272,-0.882603,0.177625
-0.620766,0.313925,0.342559,0.614598,0.788689,-0.015465
0.053270,0.595194,0.501341,-0.178609,0.210018,-0.961245
0.013909,-0.468474,0.433229,-0.485721,0.718196,-0.498267
-0.335546,-0.041179,0.487393,0.703699,0.696912,0.138283
-0.370752,-0.059304,0.645684,-0.735227,0.255037,-0.628010
-0.879034,-0.218679,0.221885,0.964167,-0.189617,-0.185544
-0.205402,-0.338365,0.079029,-0.594818,0.389950,-0.702944
0.773129,0.283169,0.561025,-0.259284,-0.745268,0.614286
-0.356612,-0.725457,0.105995,-0.065044,-0.104267,0.992420
-0.489063,-0.232389,0.474169,-0.324571,0.941758,0.088009
0.020776,0.829996,0.301244,-0.439865,-0.856066,0.271422
-0.151153,-0.298008,0.192425,-0.292361,0.460923,0.837899
0.152709,0.142945,0.796258,-0.122039,0.992384,0.016762
0.218271,-0.505391,0.457428,0.210126,0.726707,0.654021
0.276448,0.034247,-0.859561,0.906626,-0.414769,0.077430
-0.110291,0.805864,0.524713,0.069581,-0.971077,0.228402
-0.160848,-0.022130,0.537252,-0.151081,0.025411,0.988195
0.117967,0.144126,0.799308,0.198563,-0.536094,0.820473
0.133029,-0.027264,-0.060001,0.835745,-0.544774,0.068932
-0.158943,0.731978,0.493223,-0.222858,0.901069,-0.372033
-0.245918,0.390224,0.699460,0.708418,-0.593236,0.382381
0.028857,-0.252157,0.498976,-0.148882,-0.848767,0.507374
-0.222889,0.510731,0.430876,0.791157,0.379600,-0.479556
0.309517,0.258780,0.697069,-0.108495,-0.786531,0.607946
0.857333,0.035428,-0.972194,-0.012738,0.389509,0.920934
0.080971,-0.202506,0.629021,-0.343054,-0.782700,-0.519322
0.159635,0.115065,0.699409,-0.530003,0.466257,0.708309
0.400589,0.063411,0.855373,0.900805,-0.006966,-0.434168
-0.536100,0.487523,0.073910,-0.051432,-0.233720,0.970943
-0.826918,-0.327377,0.327589,0.762754,0.417001,0.494284
-0.337682,-0.780910,0.278157,0.573452,0.417865,0.704657
0.154960,0.262374,0.587810,-0.542127,-0.106613,0.833506
-0.544468,0.036609,0.358304,0.716725,0.687919,0.114336
0.156172,0.688848,0.501419,-0.465298,0.576461,-0.671708
0.281642,0.438386,0.497877,0.741404,0.374271,-0.556994
0.588734,-0.071113,0.616443,0.751125,-0.301790,0.587140
-0.273908,0.326915,0.616715,0.554601,-0.325231,0.765926
0.308881,0.141199,0.563442,0.078519,-0.564548,0.821657
0.217579,-0.501284,0.477103,0.102584,0.589215,0.801437
-0.016737,0.424985,0.605391,0.574840,-0.606198,0.549620
0.102614,-0.047751,-0.037068,-0.118272,0.989635,0.081448
-0.737232,0.493376,0.401894,-0.667801,0.362415,-0.650151
0.179951,-0.019254,-0.195954,-0.807868,0.589364,-0.000564
-0.218562,-0.430941,0.323621,0.379825,-0.384807,-0.841223
0.202286,-0.444855,0.685228,-0.142607,-0.988512,-0.050067
-0.719167,-0.435716,0.321294,0.515728,0.647080,0.561527
0.222486,0.093705,0.909110,0.610515,-0.777667,-0.150017
-0.355284,0.124666,0.686120,0.075592,0.995553,0.056216
-0.395395,-0.233107,0.260421,-0.241869,0.017241,0.970156
-0.328275,-0.416769,0.234968,-0.378099,0.855222,-0.354451
-0.466671,0.329739,0.678014,0.937790,-0.288701,0.192875
0.075374,-0.584104,0.429390,0.878475,0.466315,0.104073
-0.377677,-0.803040,0.464008,-0.766224,-0.208112,-0.607939
-0.254169,-0.207281,0.098045,0.925226,-0.050497,0.376040
0.406937,0.278343,0.649963,-0.077221,-0.633856,0.769586
0.330699,-0.075888,-0.880244,0.988175,0.126502,0.086646
-0.435332,-0.238345,0.588598,0.947919,-0.150002,0.280979
-0.431755,-0.255391,0.260111,0.098820,0.391724,0.914761
0.213771,-0.020743,0.855011,-0.605831,0.111717,-0.787710
-0.493681,0.385397,0.120460,0.379394,0.851224,-0.362598
-0.019334,0.005699,-0.985780,-0.105412,0.244697,0.963852
-0.209384,0.384576,-0.125411,-0.610648,-0.026067,-0.791473
-0.175391,0.674779,0.454183,0.847558,-0.220128,0.482897
0.129336,0.367119,0.351685,0.273864,0.460718,-0.844238
0.096150,0.053656,0.808926,0.195292,-0.662424,0.723226
0.389277,0.585233,0.604512,-0.227111,0.485282,-0.844347
-0.584003,-0.043181,0.304928,0.828357,0.549954,-0.106658
-0.006869,0.345810,0.676683,-0.469417,-0.184915,0.863397
-0.024586,-0.059766,-0.520951,0.085929,-0.993553,0.073956
-0.257517,-0.274697,0.530828,0.236698,-0.971132,0.029601
-0.612916,-0.356285,0.288873,0.025498,-0.484869,0.874215
0.616148,0.356285,0.443777,0.900029,0.417942,-0.123581
-0.358689,0.445215,0.490483,-0.569066,0.037004,-0.821459
-0.103077,0.516739,0.348441,0.770643,-0.037437,-0.636166
-0.330813,0.454354,0.328714,-0.580256,-0.009339,-0.814380
0.194205,0.108955,-0.574236,-0.564641,-0.246885,-0.787545
-0.127662,-0.512169,0.334156,0.065524,0.769263,0.635563
-0.770763,0.141970,0.472850,0.697784,0.711490,-0.082939
-0.179604,0.104847,0.652109,0.520475,0.752676,-0.403217
0.145437,-0.002413,0.061306,-0.570069,0.789002,0.229124
-0.177122,0.110598,0.541363,0.431850,-0.107525,0.895513
-0.686270,-0.091805,0.070407,-0.161481,0.398335,0.902914
-0.423327,0.293541,0.495899,-0.387216,-0.881621,0.269830
-0.198881,0.331280,0.600569,-0.771195,0.632964,-0.067932
0.492526,0.039484,-0.165640,-0.214551,0.967374,-0.134740
-0.156116,0.022078,0.664144,-0.678200,-0.733563,-0.043920
0.049057,-0.175190,0.560560,-0.082515,0.336073,0.938215
0.072200,0.140943,0.702550,-0.206230,0.963825,-0.168851
-0.202400,0.125745,0.371334,0.101815,-0.574550,0.812112
0.273272,0.271822,0.788954,-0.486943,0.815171,-0.313662
-0.448029,-0.276751,0.583777,0.551309,-0.597660,0.582118
0.252207,-0.609519,0.451637,0.937151,-0.341450,-0.071828
-0.042362,0.314130,0.661558,-0.121142,0.582468,-0.803776
-0.087262,-0.048573,0.745946,0.513041,-0.829982,0.218904
0.168522,-0.016944,-0.433823,0.932012,-0.362414,0.002999
-0.317135,0.141970,0.714365,0.820193,-0.512624,0.253969
-0.424021,-0.868453,0.095925,-0.377134,0.241974,-0.893990
0.089341,-0.137400,0.819591,0.819966,-0.437837,-0.368720
0.022796,0.686794,0.032492,0.151546,0.480487,-0.863809
0.199688,-0.133344,0.809740,0.750643,0.641960,0.156277
0.296877,0.357774,0.741163,0.303040,-0.837567,0.454586
-0.074104,-0.051294,0.104625,-0.432778,0.878182,-0.203713
-0.394759,-0.103255,0.323181,0.421480,0.170075,-0.890746
-0.409766,-0.510269,0.189645,-0.354080,-0.066589,-0.932842
0.119293,0.456151,-0.251165,0.856118,0.048610,0.514488
-0.402032,0.388992,0.497799,0.161745,0.177173,0.970798
-0.600163,-0.078507,0.332153,0.825543,-0.307794,0.473014
-0.379178,0.305761,-0.090573,0.039944,-0.170080,0.984620
-0.171812,-0.224584,0.730408,0.910282,0.387551,0.145575
-0.489469,0.192750,0.565162,0.325817,-0.776213,0.539756
-0.179084,0.329996,0.663614,0.236157,-0.685575,0.688634
-0.332025,0.014685,0.407957,0.355659,-0.237205,-0.904014
0.073642,0.500000,0.626694,-0.410166,0.737342,-0.536741
-0.519652,0.088057,0.500863,0.461575,-0.834047,-0.302181
0.254342,-0.521206,0.437753,0.946457,0.017839,-0.322336
0.274947,0.397618,0.772084,-0.409199,0.782028,-0.470095
0.715531,0.346478,0.608364,-0.092766,-0.798610,0.594656
-0.383910,0.619634,0.357192,0.707991,0.284502,0.646380
0.206382,0.156244,0.824619,0.825302,0.217551,0.521103
-0.338374,-0.939310,0.073833,-0.149366,-0.366386,0.918396
0.238240,-0.090932,0.665889,-0.403285,0.048452,0.913791
-0.068276,-0.126669,0.689196,0.923738,0.365735,0.113781
0.346453,0.724841,0.545668,-0.100555,0.812583,-0.574106
0.408841,0.174728,-0.301050,0.743164,-0.647235,0.169689
0.157326,-0.092421,-0.977016,-0.198004,0.281615,0.938876
0.231893,0.124872,0.187370,0.988082,-0.153044,-0.016445
-0.616437,0.459232,0.360049,-0.605119,0.570492,-0.555311
0.085589,0.169234,0.841321,0.191126,0.244502,0.950626
0.202170,0.093089,0.921300,-0.266974,0.748731,0.606735
-0.848214,-0.410043,0.323918,-0.111265,-0.046673,0.992694
-0.280891,0.132163,0.587745,0.969944,0.027016,0.241825
-0.212674,-0.326864,0.502143,-0.450145,0.781620,-0.431787
0.140416,0.075734,0.842911,-0.081836,0.769902,0.632893
0.168580,-0.331023,0.661972,0.413256,0.673787,0.612561
0.361517,0.099867,0.857105,0.963451,0.244048,-0.110467
-0.371560,0.034453,0.337233,-0.186568,-0.203957,0.961038
0.214983,0.262426,0.496817,0.325125,-0.940002,-0.103394
-0.204364,0.067724,0.645594,0.649842,0.467100,-0.599602
-0.823513,-0.345040,0.164141,0.044320,-0.297800,0.953599
-0.214810,0.280140,-0.110144,0.581377,0.131850,0.802880
-0.950251,0.103512,0.325095,-0.690361,-0.345842,-0.635448
-0.005944,0.169593,0.712142,-0.070349,0.953728,0.292325
-0.013794,-0.477768,0.417380,0.623780,0.744207,-0.238859
0.281180,0.188232,0.690308,-0.731809,0.477337,0.486420
0.050268,0.357517,0.155389,-0.190500,-0.914727,0.356349
0.078489,0.231310,0.766008,-0.068360,-0.565608,-0.821836
0.148785,-0.160043,0.628258,-0.159643,-0.986268,0.042302
0.391355,-0.255340,0.672818,0.762956,-0.557804,0.326730
-0.482541,-0.739115,0.044760,0.380337,0.670869,-0.636615
-0.235702,0.170980,0.635782,0.894368,-0.211722,-0.394056
0.284527,-0.227459,0.752745,0.574955,0.801803,0.162907
-0.041726,-0.627079,0.460828,0.381628,0.788441,0.482412
-0.242628,0.314182,0.375833,0.359619,0.933028,0.011554
0.201997,0.183765,0.890069,0.959053,-0.281743,-0.028946
-0.355053,-0.214007,0.611738,0.805381,0.217425,-0.551442
0.192935,0.026289,-0.403704,0.869141,-0.434800,-0.235675
-0.242973,-0.206767,0.638096,-0.508853,0.856311,-0.088317
0.160327,-0.011039,0.972815,0.809415,0.296228,-0.507047
-0.511861,0.425960,0.539088,-0.719394,0.339155,-0.606174
-0.187396,0.118505,0.673115,-0.674648,-0.530918,-0.512812
-0.592832,-0.431043,0.274679,0.019795,-0.700341,0.713534
-0.022682,-0.691774,0.506189,0.200959,0.200205,0.958923
0.074796,-0.114140,0.815803,0.791124,-0.206094,-0.575889
-0.349974,0.239526,0.477827,-0.109637,-0.981547,0.156667
0.692792,0.053553,0.426843,0.205430,-0.334554,0.919713
0.170081,-0.011347,-0.643926,0.915379,-0.370405,0.157736
0.245340,-0.077121,0.770378,-0.685094,0.532512,-0.497068
0.121255,-0.019614,0.068545,-0.403104,0.911165,-0.085359
0.121833,0.148028,0.690295,-0.610169,0.506681,0.609071
0.025683,0.557301,0.009715,-0.204271,-0.474346,0.856311
-0.042651,0.795697,0.482869,0.852230,0.392221,0.346219
-0.106078,-0.225200,0.712672,-0.017337,0.696487,0.717360
-0.228545,0.031526,0.465753,0.170817,-0.450905,-0.876075
-0.253016,-0.715188,0.430372,0.195087,0.935136,0.295741
-0.194668,0.071781,0.679398,0.613175,0.649073,0.450245
0.402146,0.007034,0.840041,0.749500,0.581064,-0.317197
-0.771859,-0.012682,0.191921,-0.303934,0.158955,-0.939339
-0.601489,0.371945,0.235071,-0.297520,0.640943,0.707584
0.147688,0.011707,0.840558,0.570724,0.814826,0.101650
-0.361056,-0.340573,0.585018,0.891767,-0.027811,0.451639
-0.880071,0.178117,0.040248,0.826833,0.224564,-0.515672
0.044900,-0.000616,0.100385,0.948154,-0.266367,0.173356
-0.754198,-0.013042,0.379517,-0.696577,-0.304769,-0.649536
-0.304612,0.252157,0.622700,-0.754914,0.525804,-0.391963
0.039014,-0.631392,0.505723,-0.506306,-0.381028,-0.773610
-0.307497,-0.185562,0.347885,0.929280,0.234508,-0.285386
-0.183472,-0.087800,0.757554,-0.661773,0.699878,-0.268751
0.225832,0.459026,0.490806,-0.569392,-0.198983,0.797620
-0.323599,0.159016,0.536451,-0.899344,0.271053,0.343089
0.016910,0.920569,0.412132,0.694854,0.389401,0.604603
0.466209,0.436845,0.690373,0.496910,0.621939,-0.605204
0.205229,-0.034145,0.868351,0.924100,0.361309,0.124478
-0.875224,-0.183200,0.230521,-0.004269,0.638933,0.769250
0.233969,0.007188,0.915289,0.166059,0.850591,-0.498918
-0.877245,0.248511,0.485001,0.841998,0.347193,0.412912
-0.836441,-0.255494,0.241560,-0.556323,0.033838,-0.830277
0.046978,0.635346,0.565924,-0.142312,-0.595333,0.790775
0.712645,0.281526,0.464784,-0.436034,0.611235,0.660505
0.077913,0.096478,0.846169,-0.063140,-0.487308,-0.870944
-0.871820,0.261450,0.042924,0.750277,-0.015811,-0.660935
-0.256882,0.423033,0.587474,0.365045,-0.116394,0.923685
0.611704,0.271565,0.584837,-0.506321,0.256937,0.823179
0.208808,0.159940,0.876625,0.317825,0.768501,-0.555332
-0.883478,0.130622,0.248269,0.530049,0.484935,0.695619
0.394240,0.292873,0.652794,0.930673,0.098547,-0.352330
-0.488486,-0.046673,0.347717,-0.350024,0.375781,-0.858063
-0.274831,0.102331,0.642724,0.377386,0.762516,-0.525499
0.453570,0.451633,0.666484,0.726135,-0.192209,-0.660139
0.191954,0.104025,0.710048,-0.484402,-0.717928,-0.499934
-0.120390,-0.756983,0.499079,-0.017925,-0.091361,0.995656
-0.248745,-0.445061,0.196135,0.117882,-0.985741,-0.120073
-0.953599,-0.294414,0.243719,0.206663,-0.117335,0.971351
-0.825417,0.018125,0.301244,0.316676,-0.375915,0.870864
-0.617129,0.037687,0.510429,0.805982,-0.020957,0.591569
0.072834,-0.137605,0.704502,-0.199035,-0.548832,0.811892
0.393086,0.158708,0.672585,0.725629,-0.617212,0.304158
-0.285855,-0.560741,0.262605,0.443404,0.429261,-0.786847
0.161827,-0.031988,0.036758,-0.495109,-0.770838,0.400843
-0.422463,0.173701,0.671228,-0.607638,-0.794144,0.010571
0.497778,0.009088,0.464874,-0.372379,-0.321368,0.870664
0.163617,0.001746,-0.260240,0.961348,-0.264199,0.077515
0.272291,-0.118197,0.702395,0.923490,-0.295201,0.244995
-0.344896,0.092575,0.671913,0.431510,0.900011,0.061472
-0.821204,-0.215445,0.233326,-0.549585,0.129228,0.825383
-0.557915,0.194342,0.449569,0.077911,0.573948,0.815177
0.027587,0.451787,0.707553,0.524259,-0.617515,0.586369
-0.078261,0.363062,0.540510,0.190875,-0.290270,0.937715
-0.806198,0.337236,0.448263,0.850605,-0.525786,0.004499
-0.972471,0.293284,0.339728,0.814524,-0.205650,0.542456
-0.286258,-0.343808,0.370520,0.936415,-0.039623,-0.348651
-0.416402,0.419285,0.096015,-0.116735,0.993149,0.005240
0.331967,-0.298008,0.602068,0.170878,0.811939,0.558172
-0.531540,0.352126,0.183621,-0.273773,0.958014,-0.085189
-0.356092,-0.549445,0.308742,0.448530,0.293805,-0.844097
-0.511803,0.371380,0.394034,-0.487173,0.333665,0.807050
0.772378,0.005597,-0.970371,-0.140645,0.252318,0.957369
-0.018758,-0.650339,0.219959,-0.066324,0.261038,0.963047
-0.489986,0.187872,0.555725,0.245374,0.906570,0.343399
0.172159,0.556274,0.546986,-0.028399,0.997189,0.069339
-0.379119,0.388992,0.511786,0.842327,0.465632,-0.271426
0.345414,-0.126566,0.685176,0.841864,0.089027,0.532297
-0.443585,-0.931608,0.075888,0.090365,-0.395154,0.914159
0.554972,0.066852,0.473070,-0.041264,-0.418156,0.907438
0.088935,-0.209899,0.427257,0.991342,-0.122247,0.047923
-0.307901,0.131547,0.714197,-0.185545,0.871578,0.453790
0.195533,-0.339957,-0.589904,0.594867,-0.088831,-0.798901
-0.202344,-0.579482,0.483528,0.146268,0.570964,0.807840
-0.408149,-0.601510,0.332424,0.620806,-0.518444,-0.588061
-0.284007,0.866246,0.322212,0.867194,0.201459,0.455399
-0.855486,-0.415640,0.324720,0.343426,0.413978,0.843019
-0.070872,0.408811,0.330485,-0.688781,-0.533647,0.490716
-0.453859,0.126053,0.668436,0.859279,0.504144,0.086481
0.628614,0.209386,0.592308,0.096690,-0.376994,0.921155
0.060715,0.146642,0.883709,-0.544421,0.807848,0.225805
-0.014428,0.042308,0.518728,-0.064592,-0.482882,0.873300
-0.031338,-0.251694,0.528785,-0.269402,-0.958896,0.089113
-0.569228,0.241015,0.557936,0.753315,0.557684,0.348575
-0.046690,0.744917,0.444346,0.338734,0.853927,-0.395053
0.292030,0.697166,0.532625,0.496562,0.773913,-0.393045
0.222253,0.054991,0.925502,-0.330442,-0.201821,0.921996
-0.681019,-0.341549,0.188973,0.013540,-0.972658,0.231846
0.168985,0.185818,0.726064,0.208762,-0.145004,0.967157
0.087493,0.285017,0.210212,0.919894,0.364035,-0.145858
-0.353322,-0.007445,0.336845,0.676528,0.205915,-0.707042
-0.439431,0.325888,0.667117,-0.270248,0.962420,0.026723
0.013967,0.183148,0.665411,0.161266,0.762876,0.626110
0.412131,0.718577,0.547232,0.015238,-0.838513,0.544668
-0.426098,-0.597659,0.067925,0.489841,0.417888,-0.765131
0.661337,0.250513,0.585043,-0.536499,0.107128,0.837073
-0.347609,0.088365,0.723608,-0.596505,-0.656239,-0.462095
0.655798,-0.090830,0.599625,0.289242,-0.519558,0.803989
0.195591,-0.037431,0.791061,0.190384,0.294195,0.936591
0.075085,0.516225,0.629900,0.360270,-0.788974,0.497721
-0.566054,-0.053040,0.266522,0.964585,0.263681,0.006947
-0.633983,-0.203841,0.533801,-0.495262,0.179523,-0.849992
0.067409,-0.188796,0.615060,0.032006,0.992311,-0.119556
-0.820801,0.094167,0.502686,0.902417,-0.227318,0.366019
0.957293,0.107055,-0.970927,0.246940,-0.171638,-0.953709
-0.860507,0.490501,0.059845,-0.300696,-0.017551,0.953559
0.656201,0.171596,0.607472,0.514252,0.347749,-0.783974
0.149131,-0.240039,0.667246,0.341110,0.521230,0.782281
-0.301092,-0.550318,0.271641,0.312442,0.939860,-0.137997
0.220408,-0.047854,0.841011,0.878479,-0.444598,0.174948
0.238413,0.038201,0.563779,-0.054209,-0.524331,0.849787
0.020142,0.435818,0.247701,0.816970,0.079887,0.571120
0.084723,-0.003851,0.931138,-0.606256,-0.786047,-0.120764
0.410458,-0.128466,0.605597,0.968704,-0.077139,-0.235930
-0.453512,-0.120713,0.465973,0.730626,0.202345,0.652106
0.269059,-0.146129,0.743205,0.699623,-0.376820,0.607070
0.208172,-0.048265,0.074130,-0.520263,-0.825331,0.219444
-0.918971,-0.384781,0.340891,0.959099,0.225844,0.170658
-0.374042,0.598377,0.187448,-0.585893,0.800200,-0.128100
-0.202170,-0.677911,0.493714,0.516474,0.829166,0.213867
-0.841462,-0.147412,0.200995,0.982312,0.104633,-0.155293
0.064466,-0.085028,0.890896,-0.613323,0.753203,0.237739
-0.022912,-0.205792,0.624755,-0.358016,0.927799,-0.104941
-0.389566,-0.199887,0.252458,0.034273,0.631392,0.774706
-0.211809,-0.051397,0.800808,-0.831090,-0.223809,-0.509115
0.331391,-0.216318,-0.963895,0.087647,0.103232,0.990788
-0.410343,0.211440,0.247300,0.215368,-0.455797,-0.863635
0.194494,-0.154292,0.710474,0.782001,-0.423218,0.457560
-0.064697,0.288355,0.113505,0.413466,0.774992,-0.477947
-0.287702,-0.241374,0.627341,0.192081,-0.960236,0.202613
-0.450049,0.188232,0.676463,0.338335,0.692088,0.637607
0.192532,0.039074,0.976486,0.961366,0.270321,-0.051973
-0.214867,-0.683148,0.172892,-0.208435,0.104191,0.972471
-0.325505,-0.279626,0.176137,-0.583838,-0.285252,0.760108
-0.838748,0.223146,0.302692,-0.694566,0.322544,-0.643074
-0.884573,-0.446652,0.319601,0.771442,0.566837,0.289091
0.257229,0.119532,0.915199,-0.351061,0.815374,0.460350
-0.136724,0.264479,0.242052,0.111809,-0.258577,0.959498
-0.344202,-0.513812,0.296526,-0.025238,0.997743,-0.062221
0.269406,-0.129801,-0.957186,0.388104,0.671394,-0.631351
0.480637,0.007753,0.607084,0.709472,0.336453,-0.619232
0.305477,0.035326,0.810051,0.482556,0.722557,-0.495026
-0.218042,-0.269254,0.443079,-0.593925,0.413678,-0.690017
0.139204,0.640173,0.040726,-0.155407,-0.438773,0.885058
-0.270907,0.555607,0.340710,0.879654,-0.445647,0.166157
-0.584752,0.170466,0.155893,0.760882,-0.199413,0.617489
0.110752,-0.022078,0.783279,0.248306,0.558247,-0.791647
0.042418,0.247535,0.235265,-0.568221,-0.032837,-0.822220
-0.376465,-0.007856,0.043286,0.760329,0.646035,-0.067370
-0.717552,0.078969,0.472436,0.494651,0.448300,0.744545
-0.779534,-0.175652,0.175891,0.893991,0.145458,-0.423818
-0.506551,-0.454816,0.293708,0.831821,-0.043652,0.553325
0.244532,-0.066543,0.847862,0.592166,-0.787740,0.169720
-0.128413,-0.629647,0.149171,0.145512,-0.080158,0.986104
-0.574364,0.482286,0.556733,-0.762017,-0.018491,-0.647293
-0.541005,-0.160094,0.301399,0.850867,0.315492,-0.420106
0.261500,0.124666,0.792612,0.630474,0.448008,0.633871
0.665666,0.184073,0.595488,0.836711,0.493182,0.238088
0.254631,-0.056069,-0.378302,-0.622538,0.781148,0.047466
-0.201997,-0.247176,0.569867,0.995081,-0.064611,0.075092
-0.021470,0.246611,0.103901,0.605789,0.638462,-0.474748
-0.599527,0.241169,0.598449,-0.726449,0.310394,-0.613129
-0.404686,0.531937,0.334738,0.346767,-0.264305,0.899942
