0.216010,0.356196,0.626156,0.635578,-0.473030,-0.610151
-0.844044,-0.266878,0.588938,0.479415,-0.444060,-0.756949
-0.201749,0.903052,0.598941,0.287300,-0.557004,0.779233
0.088087,-0.407261,0.702296,-0.599129,0.735824,-0.315606
-0.163717,0.002417,0.831191,-0.366858,0.475318,0.799680
-0.474426,0.659668,0.454850,0.962345,-0.271409,0.015134
-0.245464,0.096160,0.682034,0.124096,0.784992,0.606949
-0.600492,-0.170864,0.397242,0.907170,-0.288931,-0.305877
0.057377,0.291275,0.800812,0.771208,0.139300,0.621155
-0.616229,0.123232,0.544441,-0.110514,0.639983,0.760400
0.132732,0.047191,-0.762075,0.989789,-0.123873,0.070520
-0.295356,0.738506,0.567300,-0.277397,-0.368436,0.887302
-0.206995,0.553814,0.722459,0.661961,-0.031067,0.748894
-0.009400,-0.100236,0.858448,0.824709,0.564632,0.032335
0.234426,-0.385775,0.638373,-0.597720,0.288042,0.748173
0.106886,0.125038,-0.159558,-0.637162,0.536133,-0.553702
0.220820,-0.063322,-0.934119,-0.221712,-0.212763,0.951617
-0.129454,0.442835,0.659742,0.826257,0.510018,0.239127
-0.386995,0.122593,0.577828,0.861605,0.360812,-0.357003
-0.931475,-0.305366,0.592627,0.802373,0.433838,0.409855
-0.540601,-0.228393,0.679919,0.738249,-0.101658,-0.666824
-0.320110,0.271420,0.648859,0.645535,0.477904,-0.595728
-0.395082,0.193339,0.752171,0.773737,0.611404,0.165880
0.132404,0.118286,-0.349083,0.812665,-0.581667,0.035191
-0.234154,0.287547,0.739926,-0.543667,0.738513,0.398779
-0.102076,0.516783,0.685425,-0.598111,0.575404,0.557829
0.010984,0.779091,0.666312,0.211137,-0.920677,0.328292
-0.028142,0.265364,0.834965,0.423636,0.885546,0.190633
-0.125847,0.029085,0.840698,0.220003,-0.432974,0.874146
0.360108,0.656583,0.630186,-0.500896,0.732689,0.460728
0.064918,0.233397,-0.145014,-0.307964,0.252984,0.917146
0.068033,0.089869,0.581929,-0.380853,0.921394,0.077360
-0.110164,0.287547,0.812943,-0.196203,0.847370,-0.493425
-0.744208,-0.130223,0.590258,-0.810871,0.457294,0.365198
0.106175,-0.161376,0.808956,0.359207,0.172273,-0.917220
0.107760,-0.171156,0.882854,0.999997,0.001116,-0.002219
0.082185,0.172609,0.969110,-0.000556,-0.995797,0.091583
-0.441804,-0.215234,0.780805,0.933058,0.355822,0.052856
0.000928,0.497450,0.809581,-0.196857,0.046239,0.979341
0.114535,0.070249,-0.603028,0.955762,0.293839,0.013295
-0.067815,-0.129814,0.791972,0.710033,0.585053,-0.391876
-0.084481,0.504497,0.729823,-0.151139,0.037269,0.987810
-0.515683,-0.062331,0.701842,0.951026,-0.035608,0.307054
0.239125,0.403242,0.578424,-0.471976,0.857743,0.203751
-0.003114,0.143845,-0.134500,0.125554,-0.990233,-0.060625
-0.125191,-0.369473,0.689852,0.559628,0.804664,-0.198322
-0.308415,0.588751,0.460554,0.861590,-0.060317,0.504008
-0.649945,0.104252,0.558616,0.228286,0.752328,0.617971
-0.714646,0.084048,0.608363,0.790421,-0.611485,0.036353
0.175574,0.521325,0.766616,-0.372270,0.535447,-0.758098
-0.924482,-0.304843,0.565795,0.345358,0.867373,0.358319
0.250437,0.476198,0.508003,0.390995,-0.821405,-0.415231
0.104044,0.375060,-0.972501,-0.284406,0.218557,0.933459
-0.039398,0.408192,0.622765,0.786304,0.588816,-0.187141
0.761858,0.873590,0.524576,-0.617232,-0.733962,0.283416
-0.241475,0.090278,0.703034,0.799164,0.541991,-0.259966
0.052623,0.378496,0.819357,0.262963,-0.963197,-0.055689
-0.196449,0.690469,0.544838,-0.466606,0.882821,0.053914
0.422568,0.478821,0.581758,-0.690395,-0.209293,0.692496
0.167049,-0.051328,-0.902364,-0.054933,0.892987,0.446719
-0.343607,0.327314,0.539673,-0.574985,0.380629,0.724233
0.006448,0.058080,0.892063,-0.288412,-0.119517,-0.950018
0.096011,0.026871,0.176471,0.956474,-0.059437,-0.285700
0.066229,-0.053133,0.848161,0.927407,0.148949,-0.343119
-0.090491,-0.134939,0.207588,0.989908,-0.133270,0.048169
0.369453,0.414539,0.521610,0.648823,-0.215504,0.729786
0.100055,0.242772,0.055366,-0.531128,0.845341,-0.057457
-0.418689,-0.226236,0.757875,-0.437462,0.656928,-0.614062
0.076338,0.111590,0.192292,-0.853237,0.427685,-0.298451
-0.315519,0.426534,0.665319,0.607241,0.451234,-0.653946
0.456447,0.615768,0.453190,0.346189,-0.937263,0.041116
-0.497869,-0.343854,0.700309,0.385489,0.640026,0.664654
0.132787,0.031704,-0.870325,0.765979,-0.628896,-0.133288
-0.261476,0.337564,0.722175,0.730367,-0.491840,-0.473980
0.026393,-0.005327,0.146419,-0.597342,0.462901,0.654908
-0.349125,0.239396,0.646362,-0.390468,0.015081,0.920493
-0.212460,0.627296,0.747432,0.965799,-0.258791,0.016076
-0.927050,-0.215756,0.550741,0.989894,-0.141341,-0.011541
0.146502,0.222743,0.867614,0.944305,-0.179326,0.275918
-0.108088,0.354508,0.318435,0.979403,-0.026053,-0.200229
0.045956,0.115549,-0.146291,0.370136,-0.916428,0.152183
0.369672,0.651459,0.624766,0.982124,-0.031869,-0.185516
0.190929,-0.110716,0.762104,0.656269,-0.179920,-0.732762
0.466448,0.443883,0.489486,-0.441975,0.141073,-0.885865
0.135137,0.276893,0.887437,0.615757,0.721744,0.316116
-0.389180,-0.067864,0.721565,-0.319158,0.080110,-0.944310
0.052786,0.281260,0.795221,-0.661374,-0.245786,-0.708642
-0.751093,-0.210052,0.609456,-0.467939,-0.077015,0.880399
-0.580000,0.203876,0.550116,0.998352,0.050066,0.028043
-0.565738,0.127135,0.674187,0.079735,0.143996,0.986361
0.060437,0.189206,0.087136,-0.104608,0.946394,0.305607
0.135137,0.060934,0.211036,-0.610834,0.622230,0.489604
-0.113880,0.553348,0.651825,0.985042,0.140387,-0.099917
-0.195355,0.175637,0.798343,-0.668640,0.239358,-0.704009
-0.134808,0.239510,0.824763,0.863583,-0.247995,-0.439002
-0.319345,-0.496579,0.539148,-0.303163,0.581846,-0.754684
-0.787267,0.079972,0.597565,0.616500,0.045465,0.786041
-0.405301,-0.230430,0.762657,-0.129435,0.989809,-0.059364
0.384754,0.673993,0.637309,0.788500,-0.508383,-0.346143
-0.262295,0.510670,0.524703,0.644050,-0.761221,0.075779
0.042896,0.154616,0.962895,-0.633866,0.583257,-0.507962
0.470437,-0.333430,-0.914098,-0.239262,0.229001,0.943564
-0.121202,0.149552,0.853014,-0.580057,0.611597,-0.538036
0.329781,0.465953,0.515055,-0.125824,0.686550,0.716112
-0.162623,0.923372,0.564504,0.203158,0.464437,-0.861989
-0.078689,0.184952,0.043291,-0.300741,0.952921,0.038691
0.393279,0.342514,0.477978,0.059948,0.453635,0.889169
-0.809343,-0.150369,0.572450,0.115490,-0.160095,0.980322
0.153224,0.126495,-0.459263,0.827182,-0.558508,0.061959
0.355847,0.585546,0.645993,-0.503468,-0.195388,0.841631
-0.076448,0.112926,0.092911,0.984127,0.097356,0.148374
-0.408198,-0.574721,0.512174,-0.445406,0.894341,-0.042048
-0.062897,0.042475,-0.266020,-0.555881,0.828504,0.067659
-0.481148,0.116537,0.636656,0.790685,-0.264342,0.552215
-0.044973,0.004336,-0.102418,-0.232342,0.143662,0.961966
-0.230984,0.920871,0.558460,0.901703,-0.416642,0.115504
-0.010602,-0.108797,0.860406,0.915854,0.381637,0.124754
-0.390382,0.183150,0.690235,-0.631915,-0.607426,0.481370
-0.597595,0.530874,0.482760,0.942949,0.230812,0.239946
0.303279,-0.104081,0.812404,0.054383,-0.553104,0.831336
0.132240,-0.430958,-0.949344,-0.369013,0.112557,0.922583
-0.652186,-0.134008,0.593464,-0.544426,-0.175633,-0.820215
0.086120,0.104660,0.255619,0.760151,-0.618964,-0.197619
0.146557,0.568779,0.734974,-0.500174,-0.140743,-0.854410
-0.018525,0.139129,0.218897,-0.141667,0.939075,-0.313160
-0.798034,-0.097673,0.572663,0.792699,0.032224,-0.608761
0.378634,-0.079684,-0.930558,-0.226686,0.058058,0.972236
-0.247979,0.181458,0.813880,-0.101654,-0.993952,0.041531
-0.198033,0.558413,0.730646,0.181203,-0.550742,0.814769
-0.419836,0.393867,0.644773,0.995805,0.090947,0.010009
-0.492733,-0.494426,0.486279,0.810908,0.570336,-0.130942
-0.644043,0.095520,0.586242,0.875616,-0.474688,-0.089257
-0.189290,-0.124050,0.745616,0.957949,0.276889,-0.075270
-0.055191,0.538966,0.715350,0.279943,0.804052,0.524531
0.130109,-0.404699,-0.950551,-0.344106,0.151728,0.926590
-0.172295,0.296865,0.734307,-0.337108,0.349791,0.874074
0.111585,0.105534,-0.236492,0.890061,-0.413877,-0.191044
0.420710,0.458614,0.617913,0.976751,-0.181069,0.114770
-0.033935,0.106931,0.939228,0.965746,0.145223,-0.215046
0.112077,0.126495,-0.098941,-0.418969,0.774233,0.474371
0.134316,0.095985,0.099736,0.751001,-0.645236,0.140244
-0.344536,0.277184,0.537218,0.210977,-0.484747,-0.848828
-0.226666,-0.029724,0.788637,0.954772,-0.287967,0.074059
-0.406448,-0.236251,0.756116,0.971406,0.030828,0.235414
0.344207,0.575126,0.590655,0.847400,-0.530616,0.018996
-0.004754,0.896182,0.539645,-0.404008,0.515223,0.755859
-0.195957,0.594455,0.754370,0.995049,-0.094930,-0.029409
0.381310,0.618796,0.610562,0.216739,0.273103,-0.937251
0.086065,0.097965,-0.088200,0.622462,-0.736473,-0.264857
-0.148525,0.142157,-0.128711,0.131767,0.718838,0.682575
-0.752569,-0.441790,0.564760,0.756546,0.041255,0.652638
-0.638252,0.188097,0.617459,0.643119,-0.562209,0.519922
0.682732,0.800865,0.479766,0.074103,0.993276,0.088944
0.137595,0.124050,-0.061453,0.792531,-0.603626,0.086777
-0.215410,0.754925,0.570293,-0.146627,-0.301372,0.942165
0.100929,-0.009638,-0.953771,0.782995,0.115755,-0.611162
-0.216284,0.490581,0.564774,0.904630,0.426078,-0.010084
0.075738,0.426825,0.791660,-0.006070,-0.005325,0.999967
-0.231147,0.392996,0.724034,0.920893,-0.108903,-0.374293
-0.978142,-0.002011,0.586469,0.266244,-0.215587,0.939487
0.191584,0.128357,-0.721267,-0.050624,-0.987499,0.149274
-0.083389,0.742931,0.660026,-0.026368,-0.979683,0.198810
0.118251,-0.171621,0.857441,-0.628066,0.774771,-0.072549
0.263279,-0.101924,0.732689,-0.596323,-0.701775,-0.389757
0.126283,0.161198,0.180757,-0.608046,0.158386,-0.777942
-0.315848,0.225710,0.794895,0.905430,0.319173,0.279867
0.403443,-0.152697,0.732845,-0.651815,0.697665,0.297322
0.414316,0.160558,-0.937865,-0.348460,0.142637,0.926407
0.108578,0.558064,-0.979738,0.454603,-0.133213,-0.880676
0.037049,0.266121,0.816760,-0.371290,-0.426284,-0.824879
0.149070,0.101867,-0.039687,0.881889,-0.470106,0.035658
0.294862,0.198463,0.778691,-0.356986,0.225994,-0.906360
-0.038196,0.362718,0.621673,0.953006,0.071728,-0.294337
0.268250,-0.184024,-0.931196,-0.283987,0.104583,0.953107
0.062403,0.413896,-0.980830,0.390336,-0.258290,-0.883699
-0.243771,0.091500,0.758400,0.891035,0.395225,0.223281
0.068197,0.090395,0.702736,0.237784,0.968458,0.074485
-0.301858,0.377914,0.480135,-0.322509,0.878725,0.351895
-0.047705,-0.191245,0.854248,-0.479372,0.772794,-0.415923
-0.237978,0.667764,0.570435,-0.559718,-0.113523,0.820871
0.066776,0.195144,0.938915,0.892036,0.449783,0.044359
0.449508,0.563480,0.486506,-0.501804,0.140967,0.853417
-0.073880,0.822817,0.541092,0.370576,0.673517,0.639568
0.332786,0.433403,0.637366,0.327331,-0.289620,0.899430
0.327323,-0.149904,0.764147,0.962508,-0.100326,0.252016
-0.475683,0.281200,0.519510,-0.762468,-0.241722,0.600178
0.512294,0.664501,0.459391,-0.584754,0.722905,-0.368064
0.223059,-0.176163,0.853596,-0.371016,0.923618,-0.096316
-0.118471,-0.002125,0.840740,0.728836,-0.369978,-0.576120
-0.477924,-0.288773,0.536850,-0.381854,0.249555,0.889893
0.551967,0.728900,0.432701,-0.836071,0.496303,-0.233811
-0.413989,0.030712,0.701728,-0.198795,-0.301687,-0.932451
-0.226066,0.101050,0.771596,0.795892,0.536079,-0.281380
0.287050,0.645112,0.604220,0.956985,0.006015,-0.290075
-0.205411,0.184312,0.049308,-0.169117,-0.679810,0.713623
-0.009892,0.195027,0.433836,0.252650,0.882859,-0.395889
0.490710,0.746890,0.491586,-0.328074,-0.323633,0.887485
0.442349,0.761332,0.669334,-0.679755,0.157385,0.716354
0.145191,-0.177386,0.844302,-0.690891,0.496546,-0.525464
0.220383,-0.037063,0.801308,0.392055,0.805138,-0.445023
0.146667,0.129580,-0.540581,0.736796,-0.675051,-0.037929
0.148088,0.122767,-0.439469,0.982328,-0.182478,-0.041629
0.014099,0.705025,0.637224,0.579100,-0.225886,0.783338
0.087104,0.070249,-0.959788,-0.579451,0.347914,0.737016
0.109180,0.626479,0.817867,0.882389,-0.469994,-0.022247
-0.563716,0.136161,0.547307,0.377765,0.067185,0.923461
0.429835,-0.412151,-0.911842,-0.161005,0.138300,0.977216
0.011968,0.352003,0.799180,0.715162,0.297743,0.632371
-0.411311,0.373024,0.654109,0.929640,0.130639,0.344534
-0.036230,0.316660,0.858548,-0.122765,0.984163,-0.127874
-0.167104,0.550321,0.696734,-0.019902,0.998116,0.058042
-0.769727,-0.151883,0.566548,0.390170,0.252561,0.885427
-0.839017,0.012080,0.580183,0.431609,0.808273,-0.400510
0.054591,0.043350,0.469280,-0.605021,0.793298,-0.068029
-0.581257,-0.332908,0.456042,0.224000,-0.204708,-0.952848
-0.816174,-0.069609,0.557353,-0.180368,0.005970,0.983581
-0.310875,0.179888,0.782195,0.826186,-0.265460,0.496938
-0.274536,0.498499,0.368381,-0.295776,0.766659,-0.569869
0.033825,0.183790,0.913900,0.914437,-0.132349,0.382477
0.129235,0.124633,-0.405840,0.931799,-0.360013,0.046279
0.126720,-0.004570,0.286835,0.969963,0.243248,0.001663
0.432458,0.278638,0.503022,0.201183,0.660878,0.723026
-0.324645,-0.602960,0.565696,0.012889,0.076509,0.996986
-0.122460,0.755799,0.566647,-0.339811,-0.299369,-0.891576
0.179071,0.107862,-0.800003,-0.111139,0.987189,-0.114481
-0.448361,-0.047369,0.741387,0.914217,-0.388075,0.116641
-0.222186,-0.033569,0.749886,0.997613,0.058714,0.036347
-0.064208,0.762263,0.673024,0.523375,-0.019428,0.851881
-0.940546,-0.325456,0.601510,0.892875,0.020665,0.449831
-0.269946,-0.428630,0.651328,0.928479,-0.314653,0.197285
0.110218,0.040322,0.941257,-0.440782,-0.383632,0.811503
0.102513,0.200208,0.100885,-0.271713,0.477757,0.835416
0.144644,-0.153049,-0.950040,-0.400242,0.108089,0.910013
-0.414426,-0.381350,0.667788,0.977319,-0.131045,-0.166356
0.008634,-0.425428,0.737187,0.906777,0.005696,-0.421572
0.266121,-0.102681,0.618494,0.597471,0.499328,0.627455
-0.055683,0.605579,0.731625,0.132446,-0.149995,0.979775
0.131748,-0.412851,0.630314,-0.387739,0.757617,0.525047
-0.312404,0.636263,0.566548,0.104102,-0.015425,0.994447
-0.186120,-0.503627,0.672314,-0.353515,0.340674,0.871188
0.125573,0.308451,0.840059,-0.794256,-0.121416,-0.595328
0.145246,0.499899,0.737329,0.831029,-0.394112,0.392513
-0.234973,0.700196,0.541475,-0.744850,0.663763,-0.067949
-0.708634,0.129175,0.653244,-0.623082,-0.052392,0.780400
0.088252,0.579842,0.770830,0.950809,-0.016451,-0.309340
0.495628,0.562897,0.507095,0.364214,-0.334970,-0.868990
-0.692678,0.059999,0.693286,0.850751,0.485521,0.201227
-0.670929,0.030773,0.628554,0.113295,0.929073,0.352120
0.479017,0.707065,0.662736,-0.387153,-0.793574,0.469418
-0.597323,-0.024486,0.576962,0.364604,0.604171,0.708548
-0.550711,0.524818,0.455942,0.951444,-0.252923,0.175456
0.493005,0.308159,0.497375,0.324163,0.668258,0.669589
-0.457432,0.026057,0.701572,-0.384644,-0.391859,-0.835760
0.138961,0.100819,-0.562929,-0.169728,0.942750,-0.287080
-0.028852,-0.354568,0.731639,0.639883,0.501620,-0.582175
0.112295,0.088881,-0.957588,0.528819,-0.473462,-0.704404
-0.561476,0.126378,0.603567,0.298999,0.878248,-0.373203
0.394043,-0.065184,0.715861,0.232762,0.868694,0.437255
0.095356,0.368365,0.870495,0.805117,-0.567508,0.172399
0.320055,0.509736,0.612506,0.974136,-0.208230,-0.087744
0.883661,0.847914,0.485669,-0.086993,-0.720979,0.687475
-0.090711,0.428979,0.781756,0.215493,0.942927,-0.253872
0.404917,0.499373,0.595224,0.460923,0.845462,0.269711
0.129999,0.102972,-0.025399,0.846493,-0.531458,-0.031655
-0.694754,-0.150021,0.600857,0.433318,0.094108,0.896314
-0.002569,0.145185,0.928912,0.985996,0.085083,0.143430
0.220983,-0.886750,-0.926173,0.303888,-0.048391,-0.951478
-0.445246,0.594338,0.473395,-0.383970,-0.411217,0.826721
-0.059345,0.723310,0.569485,0.782189,0.526068,0.333815
-0.071202,-0.194853,0.456127,-0.207470,0.978220,-0.006486
-0.401202,0.582287,0.471763,-0.143977,-0.609490,0.779611
0.264426,0.263150,-0.953942,0.363353,-0.279052,-0.888878
-0.771530,-0.088650,0.593493,-0.737570,0.407395,0.538534
-0.396284,-0.215173,0.752426,0.926721,0.024393,0.374959
-0.674481,-0.408949,0.526789,-0.117675,-0.282098,0.952141
-0.308088,-0.263384,0.735186,0.420700,-0.733796,0.533437
-0.266886,0.190019,0.514430,0.816416,0.233666,-0.528077
-0.169890,0.553583,0.726190,-0.602244,0.685634,-0.408911
-0.656557,0.257620,0.480618,0.499511,0.373771,-0.781527
-0.079345,0.800225,0.673336,0.890506,0.410571,0.196039
-0.666393,0.261462,0.517169,0.758953,-0.055003,0.648819
-0.752623,0.207778,0.655911,0.755903,0.333957,0.563102
-0.207540,0.916446,0.593025,0.076330,-0.799183,0.596221
-0.504973,0.339952,0.511536,0.868053,0.124430,-0.480626
0.217158,0.410112,0.818023,0.253855,-0.794892,0.551093
-0.523497,0.695711,0.414013,0.228822,0.029623,0.973018
-0.546394,-0.434221,0.538765,0.207173,-0.474466,0.855547
0.202567,-0.051559,0.820180,0.897892,0.429959,0.094473
-0.137268,0.373606,0.848161,-0.478090,-0.810858,0.337548
0.605846,0.581413,0.496935,0.007245,-0.606090,0.795363
-0.171695,0.082186,0.597225,-0.172684,-0.933118,0.315391
-0.786994,-0.337276,0.583631,-0.392516,-0.154056,-0.906751
0.058251,0.367490,0.824891,-0.342995,0.744832,0.572346
0.031584,0.303909,0.884117,0.541346,-0.634647,-0.551513
0.476175,0.730066,0.674017,0.966247,0.101282,0.236871
-0.040327,0.369530,0.596927,0.937481,0.143047,-0.317281
0.859015,0.964131,0.470628,0.395929,-0.814615,-0.423843
-0.185519,-0.128069,0.818577,-0.666131,-0.602608,0.439469
0.114590,0.515386,0.742962,0.707559,0.528771,0.468786
-0.006503,0.452327,0.812177,0.238616,0.259089,-0.935914
-0.212131,0.005850,0.833319,0.157712,-0.383349,0.910039
-0.272951,0.301581,0.773611,0.189007,-0.965075,0.181403
0.172568,-0.406970,0.766928,-0.300555,-0.667173,0.681576
-0.142841,0.531862,0.467493,-0.267692,0.943224,-0.196646
-0.233389,-0.071357,0.851070,0.767464,0.619980,-0.163167
0.535191,0.641096,0.489926,-0.129274,0.166655,0.977504
-0.150601,0.041136,0.579417,0.341199,-0.575132,0.743509
-0.026339,0.617456,0.663375,-0.700775,-0.641577,-0.311918
0.158470,0.252727,0.562050,0.542779,0.346105,0.765247
-0.504263,0.293603,0.505506,0.922639,0.296145,0.247053
-0.043989,-0.039508,0.902932,0.946687,-0.149931,0.285139
-0.477214,0.638882,0.436546,0.811378,-0.562321,-0.159564
0.144862,0.026522,0.235158,0.792258,0.294395,0.534471
0.299672,-0.151009,0.788410,-0.385093,0.606691,-0.695435
-0.194755,0.206612,0.752767,0.080781,0.510243,0.856228
-0.387214,0.185652,0.661346,-0.059405,0.720317,0.691097
0.526284,-0.717549,-0.893056,-0.341974,0.107566,0.933533
0.637760,0.594981,0.500411,-0.197490,-0.564917,0.801166
0.186940,0.628110,0.787332,-0.123722,-0.272183,0.954259
0.170437,0.116189,-0.698266,0.251334,0.966599,0.050170
0.570109,-0.088415,0.745701,-0.744638,0.362850,0.560226
0.103497,0.139303,-0.145056,-0.110762,0.973842,0.198402
-0.068744,0.374363,0.626752,0.878359,0.477884,0.010546
0.631748,0.685057,0.494168,-0.244539,0.223768,0.943466
0.492841,-0.351598,0.587477,0.078188,0.935220,-0.345326
0.034754,0.070771,0.473920,0.487071,-0.869485,-0.082202
0.421038,0.134182,-0.931551,0.416201,-0.206470,-0.885521
-0.401585,-0.210632,0.690348,0.418822,-0.894249,0.157818
0.330875,0.331099,0.797094,0.663651,0.142982,-0.734250
0.402786,-0.773387,-0.910154,0.458259,-0.021651,-0.888555
-0.428961,-0.579551,0.532550,0.950842,-0.095452,0.294600
-0.448853,-0.050571,0.743374,0.901851,0.376884,0.211243
0.297596,0.414596,0.752469,-0.637487,-0.715432,0.285949
-0.140328,-0.567091,0.609725,0.799967,0.528354,-0.284419
-0.044263,0.264899,0.885678,-0.382933,0.474544,0.792572
0.127814,0.048179,-0.834312,0.975579,-0.207711,-0.071430
-0.339016,0.435848,0.525172,-0.737722,0.063691,0.672093
-0.054591,0.211620,0.867785,0.779723,-0.578160,-0.240340
-0.254536,0.063379,0.770418,0.823251,0.462795,-0.328752
-0.245245,0.470143,0.578623,0.993540,-0.007950,0.113206
-0.438962,0.724533,0.410182,-0.186962,0.130917,0.973605
-0.251586,0.610934,0.565654,0.432746,0.384751,-0.815290
-0.397760,0.233049,0.460469,0.524130,0.721238,-0.452884
0.058633,0.103846,-0.160267,0.108728,-0.421580,0.900249
-0.075901,0.115314,0.474318,0.065632,0.787849,0.612361
-0.066066,-0.064310,0.903258,0.921825,0.330533,0.202450
-0.128743,0.060060,0.527669,0.281866,-0.683528,0.673306
0.002788,0.294360,0.880030,-0.344498,0.703664,0.621432
-0.138471,0.221229,0.832283,0.674671,-0.201988,-0.709944
0.121529,0.083756,-0.225850,0.889174,-0.425076,-0.169350
0.421857,0.360795,0.585675,0.961327,-0.257698,-0.097172
-0.328033,0.623511,0.531117,0.595113,0.115367,0.795318
-0.016941,0.323299,0.641481,0.938468,0.254319,-0.233667
-0.097595,0.178082,0.768375,-0.136936,-0.869518,0.474538
0.125683,0.356893,-0.970997,-0.242698,0.234693,0.941285
-0.019454,0.777051,-0.992466,-0.217895,0.060704,0.974083
-0.626230,0.358407,0.507577,-0.556940,0.711779,-0.428006
-0.451858,-0.210749,0.666482,0.374816,0.723336,0.579912
0.043388,-0.184607,-0.959816,0.439051,-0.084492,-0.894480
0.135792,0.144197,-0.952736,-0.439087,0.261372,0.859586
0.408688,-0.676904,-0.910636,-0.371523,0.105807,0.922375
0.194808,0.660134,0.782068,0.185058,0.210410,-0.959938
-0.308907,-0.575418,0.477084,-0.746512,0.595640,-0.296534
0.140710,-0.358645,-0.951189,0.329200,-0.039847,-0.943419
-0.049289,0.672771,0.556147,0.825190,0.247327,0.507829
0.280656,-0.056392,0.857852,-0.628417,0.597029,0.498646
-0.805738,0.088764,0.596927,-0.661269,0.141746,-0.736635
-0.040219,0.249877,0.156805,0.249457,-0.963309,-0.099026
0.326229,-0.219601,-0.934134,0.199914,0.071164,-0.977226
-0.069836,0.671723,0.570648,0.910977,0.368660,0.184960
0.033442,0.696002,0.641410,-0.655345,0.130345,0.743998
-0.099727,-0.181696,0.755364,-0.765309,-0.570388,0.298261
0.010163,0.445280,0.807736,0.947751,0.305583,0.091578
0.222295,-0.401845,0.793618,0.463453,0.756707,-0.461092
0.114153,0.469329,0.746708,0.883403,0.332593,0.330124
-0.084536,0.518937,0.626142,0.852036,0.458735,0.252183
0.035246,0.121196,0.976077,0.854722,0.021230,-0.518651
0.154153,0.141051,0.968543,0.245467,0.768108,0.591402
0.375792,-0.033161,0.711959,0.415818,0.897999,0.143854
-0.171530,0.475616,0.504143,0.174551,-0.975462,0.134183
-0.084318,0.480449,0.423435,0.114166,0.989982,-0.083078
-0.363825,0.308916,0.711547,0.133309,-0.904282,-0.405590
0.002077,0.271594,0.825643,0.984142,0.165868,0.062868
-0.229781,-0.041544,0.809311,0.821111,0.285368,0.494309
-0.386557,-0.248714,0.756598,0.918266,-0.094285,0.384575
-0.177705,0.170107,0.852716,0.999158,-0.024219,-0.033120
0.223770,0.025182,0.711661,0.098414,0.567665,0.817356
-0.083497,0.298145,0.854248,-0.566450,0.816678,-0.110322
0.203388,0.005501,0.779712,-0.635219,-0.754676,-0.164196
-0.309399,0.307928,0.727425,-0.601794,0.745599,-0.286227
0.153169,0.566160,0.786424,-0.578858,0.592050,-0.560714
-0.048852,-0.022855,0.399413,-0.196415,0.452268,-0.869986
-0.124918,0.914524,0.569059,0.505948,-0.553974,0.661157
0.297485,0.280095,0.609896,-0.480286,0.593901,-0.645451
0.621420,0.797723,0.481781,-0.394796,0.811129,0.431516
-0.291367,0.312353,0.792312,-0.220048,0.913378,-0.342520
-0.316558,-0.022446,0.721607,-0.308129,-0.602363,-0.736353
-0.243224,-0.528080,0.498851,-0.527553,0.821460,-0.216544
0.135464,-0.014702,-0.840045,0.998921,-0.008540,-0.045659
0.129509,0.342049,0.555508,-0.036675,0.947983,0.316202
-0.701530,-0.077530,0.623602,0.945776,0.151926,-0.287100
0.060000,0.507060,0.465634,0.997428,-0.046283,0.054736
0.159016,0.263502,-0.967620,-0.181186,0.111370,0.977123
0.487432,0.687619,0.679366,-0.475882,-0.875859,0.080045
-0.059290,0.029955,0.856831,0.796364,-0.239673,-0.555302
0.155190,0.278289,-0.963250,-0.214866,0.164906,0.962621
-0.100437,0.120731,0.055295,-0.442951,0.767957,0.462641
-0.063826,0.344433,0.546583,-0.217388,-0.066072,-0.973847
-0.468252,-0.257563,0.763409,0.924161,0.332613,0.187868
0.789454,0.747416,0.516672,0.658969,-0.429496,-0.617489
0.348798,-0.294886,-0.928387,0.367296,-0.160898,-0.916081
0.503005,-0.104020,0.717549,0.752678,0.654771,-0.068934
0.083716,0.051033,0.161246,0.781158,-0.510096,-0.359991
-0.227650,-0.074616,0.470458,0.925180,-0.110598,0.363057
0.021367,0.183498,0.864138,0.287116,0.948305,0.135210
0.036720,-0.012257,0.889225,-0.104436,0.896604,-0.430341
-0.220765,0.317300,0.835391,-0.665751,0.481193,-0.570288
0.203988,-0.056275,0.770957,-0.114418,0.487512,0.865587
-0.690163,-0.475210,0.554245,0.338457,0.739671,0.581664
0.111912,0.074499,-0.798967,0.864136,-0.503063,-0.014021
0.141913,0.125155,0.914184,-0.441548,0.072274,0.894322
-0.034591,0.078984,0.597565,0.058643,-0.948710,-0.310661
0.204972,-0.321436,0.650264,0.607222,0.192951,0.770747
0.221475,0.686162,0.796626,-0.428318,-0.789024,-0.440437
-0.137432,-0.373315,0.638274,0.914704,0.099558,0.391668
-0.094535,0.748347,0.672655,0.032667,-0.474121,0.879854
-0.195247,0.987540,0.585774,0.113963,0.778588,0.617100
-0.915410,0.016913,0.569300,0.066735,-0.707704,0.703350
-0.037541,-0.053656,0.822379,0.212526,0.720611,0.659964
0.150001,-0.353694,0.776917,0.727448,0.429261,-0.535307
-0.446777,-0.421935,0.549790,-0.374392,-0.029083,0.926814
-0.105792,-0.193225,0.772660,0.490465,0.830658,-0.263537
0.090164,0.650062,0.773710,-0.191851,-0.481620,0.855123
-0.016449,0.414014,0.587945,-0.321780,0.942572,0.089529
-0.478088,0.581413,0.442959,0.888010,-0.418637,-0.190214
0.104316,0.103381,0.116110,-0.319291,0.943588,0.087726
0.123989,0.102912,-0.121956,-0.038468,0.937409,0.346099
-0.009181,-0.132902,0.862251,0.858800,0.505596,-0.082672
-0.001312,0.902529,0.534338,-0.404008,0.515223,0.755859
0.097322,0.087367,0.190306,0.937895,-0.346844,-0.007182
-0.531804,-0.012257,0.433069,-0.327533,-0.030333,0.944353
-0.319945,0.183790,0.674485,-0.652877,-0.367734,-0.662211
-0.328141,0.446503,0.461675,-0.091244,0.552651,0.828403
0.063989,0.138955,0.060035,-0.223776,0.908533,-0.352834
-0.733935,0.128009,0.558928,-0.246679,0.389382,-0.887430
0.097048,0.085562,-0.324082,-0.265449,0.956181,-0.123510
-0.212513,-0.077178,0.822833,0.907024,-0.002249,-0.421074
-0.533225,0.272525,0.685666,-0.575224,-0.267996,0.772849
0.287268,0.035780,-0.934616,-0.045991,-0.158520,-0.986284
-0.523497,0.161781,0.672796,0.676912,-0.090402,0.730491
0.223770,0.408715,0.531429,-0.450894,-0.662750,-0.597877
0.088087,-0.057092,0.922669,-0.221746,-0.776933,0.589240
-0.070328,0.034906,-0.160494,0.213527,-0.874956,0.434578
0.546010,-0.154854,0.723140,-0.655646,0.748079,0.102497
0.290765,0.017264,0.721593,0.132572,0.645810,0.751901
-0.156229,0.888264,0.584908,0.744784,-0.396814,0.536503
0.166940,0.365863,0.844472,-0.448208,0.704075,-0.550806
0.327815,-0.234915,-0.937823,-0.289312,0.090691,0.952929
-0.102021,0.242538,0.900363,0.474024,-0.879380,-0.044627
0.334480,0.526506,0.503590,0.033742,0.909905,0.413441
-0.176339,-0.352994,0.686759,0.088429,0.980376,-0.176192
-0.049618,0.379079,0.675166,0.798053,0.487820,0.353755
-0.655465,-0.197998,0.614337,-0.417234,-0.423725,-0.803973
-0.345465,-0.205159,0.749319,-0.349901,-0.271554,-0.896565
0.044371,0.113335,0.910111,-0.021143,0.442083,0.896725
0.164099,0.195610,-0.960398,-0.481658,0.189001,0.855736
-0.118963,0.562258,0.487741,0.102109,-0.994531,-0.021952
0.049671,-0.068852,-0.963647,-0.528443,-0.004234,0.848958
-0.565683,0.099418,0.683396,-0.044767,-0.700251,0.712491
0.809399,0.613031,0.492565,-0.329739,-0.578984,0.745688
-0.126283,0.211446,0.881946,-0.065479,-0.595782,0.800472
0.115027,0.436840,-0.974686,-0.448894,0.135169,0.883302
-0.509781,0.216979,0.666581,0.406482,0.019428,0.913452
0.129617,-0.154154,0.863684,-0.576961,0.718635,-0.388174
0.117924,0.389151,0.846842,-0.405882,0.913604,0.024264
-0.000711,-0.059363,0.863812,0.899178,0.419845,-0.123323
0.204535,-0.467001,0.658863,-0.449134,0.277034,0.849430
-0.172842,-0.263093,0.708653,-0.244378,0.007789,-0.969649
0.044863,0.253836,0.646234,0.971984,0.234885,0.008709
0.096011,0.476490,0.766885,0.996511,-0.083430,-0.002365
0.106120,0.104952,-0.086427,0.369475,-0.885142,-0.282862
-0.019454,0.145941,0.042511,-0.081753,0.992352,-0.092492
0.044808,0.215987,0.718088,0.895420,-0.359307,-0.262910
0.389290,-0.220007,0.686546,0.638100,0.078306,-0.765961
-0.403770,0.724184,0.420072,-0.142994,0.630550,0.762863
0.167651,0.119274,-0.254299,0.503123,0.829087,0.243889
-0.750546,0.064484,0.649498,0.917247,-0.062914,-0.393319
-0.529617,-0.241902,0.455673,-0.218969,0.456954,0.862117
-0.137705,0.797315,0.679182,0.751233,0.024100,-0.659597
-0.466776,-0.415762,0.545902,0.425351,-0.170315,-0.888859
0.494862,-0.873885,-0.895170,0.426213,-0.023503,-0.904318
-0.198962,-0.405338,0.615245,-0.514270,0.854013,0.078668
0.104589,-0.196018,0.862918,-0.418723,0.879058,-0.227878
-0.064371,0.276484,0.863769,0.960417,-0.107400,0.257030
0.062459,-0.127078,0.884996,0.498932,0.048694,-0.865272
0.140218,0.128823,-0.591350,0.527015,-0.849831,-0.006554
0.204372,0.083814,0.773341,-0.090554,-0.312310,0.945654
0.000601,0.113801,0.095508,-0.126193,0.683285,0.719164
0.232568,0.656992,0.801890,0.977286,-0.118928,-0.175409
-0.693880,-0.201317,0.612336,-0.066977,0.323617,0.943815
-0.080601,0.765931,0.673775,-0.561188,0.449652,-0.694897
0.010929,0.359516,0.644205,0.940540,0.320826,0.111602
-0.065192,-0.214068,0.838654,0.347062,0.690798,-0.634308
-0.243388,0.225071,0.774178,-0.602482,0.659212,-0.449951
0.054152,0.129406,-0.125419,0.194586,0.978453,-0.069044
0.247595,0.537687,0.759933,0.705708,-0.538345,0.460609
0.346229,-0.202305,0.582425,-0.755323,-0.398955,0.519926
-0.338252,0.358176,0.377121,-0.802078,0.073857,0.592634
-0.159726,0.766222,0.675010,0.968802,0.194363,0.153772
0.194481,0.538269,0.709660,0.158208,-0.358591,0.919991
-0.489126,0.054526,0.703828,0.425357,0.656815,0.622627
-0.348470,-0.515912,0.529840,0.223975,-0.829212,0.512096
-0.480984,-0.103324,0.561085,0.999661,0.017405,0.019383
-0.090983,0.072228,0.748950,0.302578,-0.702248,0.644433
-0.024974,0.298027,0.906195,0.076182,0.912164,0.402682
0.137705,0.105940,-0.657444,0.782853,-0.593913,0.185496
0.135901,0.063087,-0.421917,0.996207,-0.080394,0.033302
0.004043,0.375526,0.662041,0.867660,0.367937,0.334348
-0.453989,-0.015868,0.735470,0.488727,-0.861407,-0.138292
0.234317,0.707762,0.792809,0.844773,0.517595,0.135844
0.121147,0.099305,-0.510599,-0.672357,0.740185,-0.007918
0.152130,-0.161432,0.847877,0.647720,-0.732069,0.211030
0.500656,0.885119,0.500908,-0.204260,-0.852486,0.481192
-0.428032,-0.191594,0.777683,0.992669,0.060904,0.104397
-0.019017,-0.156717,0.207858,0.883788,0.134898,-0.448019
-0.085957,-0.215699,0.842443,0.887833,0.158273,-0.432090
-0.514699,0.744388,0.484874,0.299009,0.586295,-0.752895
-0.423333,-0.622641,0.541035,0.986641,0.147926,0.068249
-0.829835,-0.271306,0.584128,-0.049698,0.086702,0.994994
0.094917,0.065764,0.940292,0.990214,-0.038548,0.134129
-0.296120,0.394976,0.379193,0.900114,-0.258359,-0.350779
0.357595,-0.795627,-0.914042,0.404130,-0.004856,-0.914689
0.596721,0.509562,0.491302,0.183971,0.675432,-0.714105
-0.758579,0.186757,0.649824,0.716205,-0.231583,0.658346
0.162186,0.133656,-0.491132,-0.637132,0.769752,-0.039299
0.202951,0.499781,0.761692,-0.459816,0.590828,-0.662942
-0.232568,0.760749,0.534423,0.835037,-0.003072,-0.550185
-0.306776,0.906545,0.584071,0.994030,-0.108628,0.010219
0.376174,0.540480,0.644233,0.047244,-0.335440,0.940876
0.446119,-0.982416,-0.898050,-0.449235,0.171577,0.876783
0.058469,0.181401,0.046810,0.097785,-0.954325,0.282316
0.008579,-0.115784,0.861683,0.923987,0.325172,-0.201274
0.096722,0.410868,0.490919,0.949714,0.087110,0.300757
-0.201367,0.872020,0.527910,-0.499133,0.826884,0.259094
-0.231968,0.458209,0.549379,0.768728,0.205063,-0.605810
0.115519,0.514803,0.762770,0.682528,0.376030,0.626703
0.026995,-0.062682,0.276832,0.844254,0.443667,-0.300659
0.127377,0.085096,-0.528407,0.798210,-0.597830,-0.073896
0.091912,0.170338,0.995488,0.955063,-0.260927,-0.140610
0.395629,-0.155377,0.796612,-0.700374,0.070402,0.710296
-0.228361,0.595155,0.731682,-0.514965,0.447660,-0.731034
0.077049,0.097499,0.256158,-0.619491,0.766069,0.171371
0.075628,0.468280,0.794483,0.440929,0.560399,-0.701095
0.026721,0.025822,0.153528,-0.531796,0.142344,0.834824
0.833771,0.777694,0.506768,0.270462,0.806906,0.525122
0.035901,0.184721,0.830325,-0.726041,0.145307,0.672123
-0.427158,0.407435,0.486691,0.379044,-0.827532,-0.414146
-0.249563,-0.309325,0.654365,-0.540977,-0.165218,0.824649
-0.575027,0.166671,0.548328,0.943819,0.082686,-0.319950
0.516175,-0.148855,0.739046,-0.146455,0.895232,-0.420846
0.097267,-0.203762,0.882329,-0.240599,0.939340,-0.244443
0.460217,0.785029,0.480660,0.896192,0.079845,0.436423
-0.406066,-0.201143,0.759124,0.897324,0.070540,0.435700
0.349344,0.281552,0.808148,0.442888,0.666455,-0.599740
-0.162404,0.725115,0.574891,0.404722,0.164179,0.899580
0.075464,-0.355617,0.744934,-0.702013,0.537104,0.467651
0.082132,0.708231,0.647625,-0.500328,-0.076726,0.862430
-0.178579,0.499547,0.725254,-0.429372,-0.518660,0.739346
0.464972,0.728609,0.488847,-0.223269,0.450722,0.864292
-0.233770,0.563306,0.536367,-0.638257,0.754459,0.153037
0.965410,0.829747,0.489230,0.010470,0.719044,-0.694886
0.090875,0.240676,0.187865,0.938097,-0.215147,0.271451
0.135355,-0.159684,0.230305,0.017015,0.295683,0.955135
0.286393,0.001485,0.834554,0.733417,0.193881,-0.651544
-0.991475,-0.206150,0.579687,0.878856,-0.261709,-0.398899
0.104044,-0.066115,-0.952963,-0.656725,-0.152109,0.738631
0.346229,-0.012492,0.701459,0.811790,0.573995,0.107364
-0.518306,0.335701,0.473083,0.957400,0.150158,0.246652
-0.058743,0.687210,0.673832,-0.004720,0.345758,0.938312
-0.284590,0.208244,0.771823,0.736200,0.505316,-0.450184
-0.014207,0.252670,0.874794,-0.602443,0.601292,-0.524891
-0.301695,0.353400,0.732292,-0.102579,0.934770,0.340123
0.276230,0.561618,0.594983,0.996131,-0.031786,-0.081930
-0.037869,0.316952,0.609541,0.947185,-0.024687,-0.319735
-0.137595,0.533493,0.717677,0.425824,-0.093015,0.900012
-0.306831,0.117180,0.605114,0.426341,0.902859,0.055494
0.225682,-0.034035,0.236165,-0.611973,-0.386138,0.690208
-0.521093,0.228738,0.666894,0.325975,-0.016160,0.945240
0.001585,0.359107,0.819002,-0.375294,0.503251,0.778391
-0.486066,0.157996,0.644077,-0.645846,0.566529,-0.511788
0.060437,0.139946,0.945882,0.842888,0.095437,0.529558
-0.165464,0.030421,0.851439,0.861123,0.089757,0.500411
0.262240,0.017670,0.839974,0.663017,0.314794,-0.679200
0.126394,0.128357,-0.959986,-0.371730,0.263224,0.890242
0.421912,0.156482,-0.937610,-0.344347,0.148341,0.927049
-0.502022,0.289875,0.492466,0.844892,0.520820,0.122084
0.073988,0.341988,0.880484,0.828998,-0.545546,0.123051
0.017159,0.221521,0.915446,-0.247288,0.833976,0.493287
0.134427,0.607441,0.754966,-0.516416,0.844534,-0.141691
-0.107486,0.423971,0.781912,0.347559,0.891353,-0.291021
-0.423170,-0.571807,0.540468,0.995714,0.020590,-0.090167
-0.840054,-0.341174,0.593138,0.161471,0.343664,0.925107
0.096066,0.150949,0.033870,-0.651818,-0.758232,-0.014761
0.136011,0.285219,0.832950,0.775653,-0.313608,0.547734
-0.273662,0.267344,0.784040,0.432743,-0.432821,0.790822
0.121092,-0.146467,0.886359,0.969972,-0.230236,-0.078397
0.017870,0.425194,0.515253,0.818914,0.530177,0.219753
-0.399836,0.067277,0.686716,0.041790,0.784162,0.619147
-0.035136,0.096334,0.853454,0.559618,-0.378556,-0.737240
0.098853,0.226002,0.580084,0.228567,0.306686,0.923959
-0.383717,-0.293663,0.754796,-0.560977,-0.820685,0.108545
-0.235957,0.799877,0.566320,0.662517,-0.086904,-0.743989
0.308689,-0.331685,0.571187,-0.231878,-0.930640,0.283094
-0.475520,-0.280155,0.637437,0.828387,0.531181,-0.177824
0.347323,0.623629,0.660381,-0.815618,0.378484,0.437628
-0.389180,-0.317246,0.527158,-0.636614,-0.306825,-0.707517
-0.527323,0.147807,0.631449,-0.383803,0.501115,0.775615
-0.487650,0.192290,0.639792,-0.617104,0.591895,-0.518501
0.145410,0.132316,-0.959121,-0.421315,0.250104,0.871746
-0.323497,-0.454367,0.663971,0.915454,-0.224547,-0.333950
0.145136,0.105126,0.704694,0.050726,-0.973733,-0.221969
0.044482,0.135696,-0.154960,0.268688,-0.323827,0.907162
0.075191,0.405164,0.886444,0.680727,-0.730886,0.049156
-0.411148,0.677078,0.419675,-0.538617,0.056621,-0.840646
-0.482677,-0.054761,0.701643,0.714436,-0.479999,0.509100
0.081475,0.371510,0.875021,-0.434310,0.892545,-0.121400
0.149454,0.641910,0.805693,0.641901,-0.549000,0.535315
-0.043989,0.365571,0.777995,0.371217,0.827545,-0.421150
0.374208,0.556319,0.494636,0.063731,0.779782,0.622798
0.421202,0.700484,0.656834,-0.576963,0.809535,-0.108473
-0.128798,0.571455,0.689185,0.567987,-0.781361,0.258585
0.734317,0.859848,0.465889,-0.261000,0.784028,0.563186
0.096393,0.077004,-0.034607,0.902465,-0.430576,0.012727
-0.646611,0.316894,0.506683,0.860015,-0.233545,0.453687
-0.249836,-0.008181,0.831560,-0.671089,0.551409,0.495568
-0.062950,0.602665,0.647398,-0.525641,0.645920,0.553614
-0.712514,0.074207,0.623077,0.917935,-0.381002,-0.110604
0.177813,-0.361555,0.654805,0.238455,0.267997,0.933444
-0.054480,-0.030424,0.881719,0.962794,0.108113,0.247667
0.304316,0.217849,0.775158,-0.322295,0.222398,-0.920144
-0.589672,0.128300,0.632755,-0.038997,0.981850,0.185606
-0.082131,0.276136,0.819811,0.279374,-0.959762,0.028395
-0.133661,-0.365049,0.696322,0.432310,0.819376,-0.376471
0.273607,0.639930,0.777513,0.969403,0.042156,-0.241826
-0.231312,0.817579,0.569953,-0.575176,0.066164,0.815350
0.066612,0.216513,-0.145241,0.996928,0.002664,0.078281
0.131420,0.123758,-0.397752,0.831989,-0.554762,-0.005825
0.597813,0.790850,0.471338,-0.537136,0.822614,0.186525
0.110491,0.105709,-0.228361,0.885496,-0.402286,-0.232513
-0.082678,0.054992,-0.136359,-0.385582,0.805748,-0.449552
-0.136011,0.694428,0.755931,-0.338174,0.892914,0.297224
-0.214973,0.648957,0.737613,0.926566,-0.010879,0.375974
0.083442,0.177386,0.459064,0.802389,-0.104206,-0.587634
0.049126,0.117354,0.956326,0.286242,-0.887639,-0.360779
0.125957,0.304431,0.742863,0.956909,-0.288693,-0.031316
-0.414153,0.427404,0.463676,0.081319,0.719928,0.689269
0.142405,0.044803,-0.762699,0.916731,-0.398023,0.034390
-0.279017,0.196192,0.781812,-0.303212,0.690991,-0.656197
-0.525792,0.121605,0.682857,-0.293022,0.869846,0.396870
0.074043,0.373432,-0.975651,-0.304090,0.259927,0.916497
0.236339,0.475793,0.734321,0.550820,0.464549,-0.693391
0.349399,-0.141286,0.750440,0.427152,0.900931,-0.076583
0.486119,0.766048,0.671761,0.339216,0.651351,-0.678730
0.141802,0.425603,-0.972416,0.394222,-0.111577,-0.912217
-0.238415,-0.305540,0.729482,0.260693,-0.077496,0.962306
0.461366,-0.295934,0.589662,0.108506,0.937668,-0.330160
0.202841,-0.351946,0.802628,-0.642418,0.368854,0.671749
-0.201694,0.182158,0.052798,-0.110027,-0.476475,0.872276
-0.386175,0.158170,0.580794,0.858849,0.286985,-0.424284
0.324481,-0.152871,0.628937,-0.642026,-0.313267,-0.699762
-0.273989,0.524004,0.532465,-0.617667,0.758997,-0.205938
-0.363607,0.367782,0.742579,-0.769726,0.332214,-0.545119
0.140874,0.050162,0.223168,0.844054,0.482926,0.233144
-0.429181,-0.157939,0.760018,0.987634,0.033971,-0.153051
0.068689,-0.158230,0.826906,0.251151,0.815176,0.521930
-0.054262,0.192699,0.881293,0.954194,0.251339,-0.162304
0.173824,-0.128069,-0.947954,0.376352,0.078788,-0.923121
-0.242022,0.935253,0.602219,0.898039,0.438780,0.031585
0.051147,0.347578,0.890942,0.836875,-0.479538,-0.263975
-0.345520,0.247254,0.729340,0.886624,-0.461069,0.036230
-0.421912,-0.335875,0.664013,0.926681,0.140402,-0.348639
-0.464153,0.223500,0.674897,-0.255226,0.362206,-0.896475
0.440601,-0.153863,0.739571,0.317453,-0.782532,-0.535600
0.454918,-0.815482,-0.900832,0.451107,-0.007619,-0.892437
0.094590,0.256920,0.584809,0.918658,-0.380254,0.107121
0.173771,0.134704,0.697230,0.137552,0.953476,-0.268258
-0.450000,0.250108,0.514728,0.395332,-0.733475,0.552926
-0.664590,-0.470263,0.548258,0.124439,0.667835,0.733833
-0.496503,0.732045,0.416610,-0.291451,-0.064181,-0.954430
-0.664262,0.314272,0.521071,0.731533,-0.109844,0.672899
-0.130765,0.268100,0.316831,0.945459,-0.028991,-0.324448
-0.496503,0.529882,0.506782,0.838139,0.522983,-0.154958
-0.025137,0.345830,0.812702,-0.488695,-0.093996,-0.867377
0.097485,-0.091504,-0.954637,-0.592860,-0.012131,0.805214
-0.258470,0.266178,0.843507,0.961276,-0.132031,0.241902
-0.170164,0.344899,0.542866,0.824911,-0.121371,-0.552079
0.088252,0.353865,0.842939,-0.661448,0.467092,-0.586781
-0.265902,-0.025708,0.704907,0.342589,0.749143,0.566937
0.137158,0.681272,0.790950,0.950027,0.057427,-0.306840
-0.479290,0.002182,0.706482,0.981345,0.100292,0.164024
0.317485,0.372732,0.486151,0.428602,-0.549330,-0.717312
0.034371,0.098839,-0.103823,0.038462,0.571890,0.819428
-0.715409,-0.074616,0.591166,0.312524,-0.630722,-0.710295
0.181365,0.684239,0.798797,0.217560,0.937834,0.270435
0.043388,-0.045155,0.212796,-0.223503,0.563805,0.795091
-0.115192,0.808321,0.545860,-0.577857,-0.545850,-0.606737
-0.175410,0.215870,-0.137238,-0.695060,-0.479129,-0.536029
0.144973,0.380185,0.852673,-0.476074,0.707643,-0.522106
-0.289126,0.575592,0.427521,-0.697778,0.420800,-0.579684
0.251857,0.202771,0.787602,-0.672994,0.308549,-0.672218
0.114864,0.074442,-0.372127,0.939205,-0.341653,0.034173
0.177595,-0.120034,0.782437,0.548218,0.827389,-0.122003
0.108797,0.257155,0.893623,-0.093635,0.887937,0.450334
-0.256996,-0.298496,0.719564,0.246680,0.549878,0.797987
-0.242787,0.000085,0.836285,0.920895,-0.341157,-0.188587
-0.110438,0.692335,0.736449,0.008187,-0.985139,0.171564
0.093388,0.094528,0.649810,-0.317831,-0.947463,-0.036017
-0.216612,-0.020410,-0.221820,-0.538816,0.041568,-0.841398
0.402294,0.434800,0.495360,0.241496,-0.381298,0.892352
-0.342460,0.592128,0.474360,-0.465190,0.190591,-0.864450
-0.386338,-0.145828,0.737173,0.252662,0.673934,0.694244
-0.322405,0.303909,0.798939,-0.815193,0.568996,0.108181
-0.193497,0.348453,0.819385,0.555649,-0.535137,0.636304
-0.305683,0.309673,0.804515,-0.500849,0.794917,0.342429
0.057049,0.103960,0.912779,-0.018051,0.388502,0.921271
-0.625246,0.168533,0.611712,-0.637243,0.713568,-0.291106
0.005901,0.102738,0.289134,0.215954,0.902462,-0.372727
-0.330054,-0.073280,0.735697,-0.228128,-0.547158,-0.805342
-0.283826,0.750269,0.566661,-0.118907,-0.367769,0.922283
-0.233170,0.279803,0.803380,-0.115877,0.834602,0.538527
0.134427,0.300067,0.741401,0.956909,-0.288693,-0.031316
0.135409,0.270780,-0.963519,-0.281674,0.146699,0.948230
-0.491476,0.230952,0.497929,-0.633290,0.744995,-0.209584
-0.195739,0.039856,0.695272,-0.603654,-0.536273,-0.589926
-0.186885,0.627236,0.575317,-0.226055,-0.131469,0.965202
0.369999,-0.317651,-0.927876,0.353027,-0.234878,-0.905651
-0.395519,-0.401788,0.545320,0.079995,0.320098,0.944001
-0.904208,-0.124110,0.567030,0.488741,0.136529,0.861680
0.171640,0.375586,0.835377,0.802175,-0.465013,0.374537
0.116885,0.129466,-0.609300,-0.333216,0.927919,-0.167133
0.029126,0.237765,-0.149938,-0.266312,0.230207,0.935993
0.324152,-0.202422,0.619033,0.061899,-0.595078,0.801281
-0.346449,0.152463,0.731994,-0.731434,0.161766,0.662447
-0.303224,0.291158,0.792667,0.313736,-0.557468,0.768634
0.014536,-0.467001,0.743728,0.765900,0.345029,-0.542543
-0.023716,-0.167545,0.222955,0.897852,0.265744,-0.351058
0.242622,0.619666,0.725439,0.194146,0.901638,-0.386467
0.174645,0.057032,-0.274150,0.887890,0.453940,0.074760
0.885956,0.781653,0.482150,-0.073514,-0.698906,0.711426
0.131475,0.024191,0.204055,-0.714712,0.323353,0.620185
-0.895847,0.004688,0.571414,-0.010674,-0.676646,0.736231
0.388032,0.190659,-0.938717,-0.302327,0.062025,0.951184
-0.372077,-0.112582,0.751731,-0.505546,-0.632694,-0.586619
-0.390164,-0.211914,0.758883,0.917552,0.167702,0.360521
0.102897,0.083000,-0.352035,0.950719,-0.303245,0.064621
0.364973,0.677892,0.648505,-0.733289,0.679905,-0.003969
-0.145356,0.952137,0.573741,-0.641092,0.152791,-0.752101
0.266503,0.491920,0.573429,-0.810511,0.538111,0.231319
-0.306939,0.341988,0.368381,0.015917,-0.670583,0.741663
0.434536,0.501235,0.610506,0.904132,-0.304015,-0.300200
0.063169,0.224605,0.896007,-0.354215,0.924336,0.141899
0.443825,0.109376,-0.932672,-0.359326,0.230303,0.904348
-0.394098,-0.419664,0.546725,-0.253515,-0.369986,-0.893779
-0.005411,0.013188,0.921647,0.848558,-0.406375,-0.338835
0.033715,0.600803,0.686163,0.690343,0.556451,0.462373
-0.792077,0.065650,0.591563,0.695777,-0.020702,0.717959
0.024809,-0.400509,0.748425,0.843814,0.041064,-0.535062
-0.199071,0.516548,0.489997,0.293037,-0.932508,-0.211088
0.107649,0.067569,0.564178,-0.210901,-0.972544,0.098384
-0.156066,-0.250168,0.708142,-0.130376,-0.162735,-0.978018
0.103279,0.152406,0.182559,0.692812,-0.553257,-0.462513
0.007814,-0.095754,0.879122,-0.104871,-0.813849,0.571535
-0.655847,0.072576,0.690519,-0.464016,-0.618359,-0.634288
-0.432623,-0.522899,0.554884,-0.634220,-0.086541,-0.768294
-0.600547,0.021515,0.634301,-0.187698,0.489005,-0.851847
0.101584,0.191882,0.074380,0.000633,0.896093,0.443865
0.097759,-0.096742,-0.956326,-0.552486,0.033294,0.832857
0.113606,0.125038,-0.130626,0.103007,0.949379,0.296764
-0.819344,-0.202131,0.569584,0.205355,0.464412,0.861482
0.163170,0.422749,-0.970259,0.300969,-0.106276,-0.947693
-0.272459,0.173135,0.769610,0.904904,-0.424294,-0.033516
0.218907,0.151649,-0.948280,-0.438930,0.326627,0.837052
0.481420,0.774606,0.672754,0.224120,0.969490,-0.099292
-0.020327,0.145185,0.914978,0.912637,0.007512,0.408701
-0.016667,0.611109,0.683084,0.629105,0.777270,-0.008899
-0.459344,0.389385,0.698720,0.734650,-0.661042,0.152681
-0.218141,-0.243881,0.663134,0.279165,0.739665,0.612343
0.120819,0.478530,-0.975963,0.473552,-0.115021,-0.873223
0.089289,0.048997,0.755789,0.916331,0.388604,-0.096562
0.423278,0.086202,-0.933169,0.344019,-0.174401,-0.922624
-0.394208,-0.037759,0.699359,-0.399042,0.171853,0.900684
-0.940656,-0.366968,0.605568,0.854243,0.496665,0.153601
-0.622186,0.136801,0.665915,0.095149,-0.471495,0.876721
0.003059,0.190833,-0.281202,-0.034989,0.936965,0.347666
0.058414,0.412965,-0.980376,-0.402995,0.275891,0.872628
0.033497,0.572681,0.465520,0.969808,-0.078953,0.230736
-0.928744,-0.239745,0.583674,-0.673657,0.157445,-0.722079
-0.202022,0.399866,0.365912,0.475261,0.000917,0.879845
0.179181,-0.160384,-0.944094,-0.342785,-0.033647,0.938811
0.367212,0.253601,-0.942803,-0.452289,0.036579,0.891121
-0.121147,0.511250,0.462072,-0.099748,-0.994203,0.040132
0.006666,0.294768,0.651300,0.966085,0.190075,-0.174790
0.461638,0.510027,0.474601,0.734497,0.326413,-0.594953
0.156503,0.062853,-0.882244,0.733433,-0.679554,-0.016814
0.756611,0.723832,0.491543,0.524154,0.461992,0.715420
0.292459,-0.328597,0.788708,0.902163,-0.404820,0.149072
-0.528578,0.099479,0.672201,-0.338949,0.542130,-0.768901
-0.086120,0.421292,0.671945,0.855563,0.516309,0.037910
0.016228,0.470960,0.800045,-0.777215,-0.163845,-0.607530
0.209235,0.332848,0.806516,0.356438,0.897404,-0.260035
-0.499837,0.399805,0.486378,-0.652287,-0.252237,-0.714771
0.165791,-0.070483,0.761763,-0.523735,0.025831,0.851490
-0.078635,0.737866,0.671576,0.207988,-0.820923,0.531814
0.538469,0.581239,0.496708,-0.158428,0.458794,0.874304
0.438305,-0.062156,0.729681,0.042202,0.924238,0.379477
-0.295574,0.293194,0.807991,0.821017,0.494196,-0.285834
-0.747815,-0.093714,0.603808,-0.285868,0.650020,0.704097
-0.420491,-0.354860,0.664779,0.985221,-0.047097,-0.164686
-0.309344,0.502692,0.521809,-0.615231,0.788232,0.013441
0.002788,0.437536,0.638799,0.807039,0.590299,-0.015305
0.151256,0.083174,-0.810205,0.250297,-0.920053,0.301420
-0.461858,0.175520,0.631449,-0.536853,0.331938,-0.775633
-0.640656,-0.341061,0.548683,0.006097,-0.669642,0.742659
0.178305,0.023086,0.422811,0.063816,0.995878,-0.064458
-0.811366,0.116363,0.560432,-0.636342,0.450144,-0.626450
-0.485027,0.122653,0.610506,0.090364,0.991073,-0.098026
0.363770,0.718885,0.614507,0.970955,0.011412,-0.238990
-0.484371,0.021163,0.717890,0.984969,0.009552,0.172468
0.212076,-0.256632,0.775413,-0.192925,0.424172,0.884793
-0.639070,-0.355034,0.547151,-0.061590,-0.517728,0.853325
0.332622,-0.728900,-0.915049,-0.440705,-0.000314,0.897652
-0.049618,-0.218493,0.747290,-0.154610,-0.781670,0.604225
0.129836,0.104312,-0.517439,-0.575547,0.814743,-0.070288
-0.323442,0.290518,0.785799,0.892548,0.265268,-0.364678
-0.400601,0.195492,0.746637,0.853572,0.515918,0.072413
-0.479125,0.632304,0.436078,0.811378,-0.562321,-0.159564
-0.051475,0.512184,0.816249,-0.519115,0.850743,0.082198
0.196502,-0.217562,0.765793,-0.001150,0.168433,0.985712
0.340492,0.408484,0.632329,0.355255,-0.290602,0.888451
0.103005,0.258203,0.580822,0.935987,-0.340000,-0.091262
0.419344,-0.188449,0.745857,0.084025,-0.992498,0.088811
-0.190055,-0.164169,0.383024,-0.433198,0.746532,-0.505005
-0.239180,0.266995,0.723040,0.897874,-0.327949,-0.293719
0.076011,0.063784,0.129832,-0.253681,0.958507,-0.130041
-0.651695,0.160032,0.571925,-0.758597,0.625905,0.181035
-0.181420,0.094528,0.849878,0.776893,-0.303462,0.551678
0.069836,0.344028,0.867572,0.146202,0.961392,-0.233133
-0.106284,0.742117,0.671406,0.150641,-0.941341,0.301969
0.370819,0.679523,0.658167,-0.180095,-0.221594,0.958364
0.050710,-0.027279,0.946946,0.791855,-0.499279,-0.351690
0.112130,0.137092,0.157742,0.964365,-0.258938,-0.054327
-0.248361,-0.013888,0.839265,0.804747,-0.354754,-0.475954
-0.016339,-0.145014,0.735115,-0.081430,0.471284,0.878214
-0.453115,0.002473,0.449756,-0.244714,0.074333,-0.966742
