-0.415907,0.304923,0.458299,0.929686,-0.183873,0.319177
0.540133,-0.017650,0.644471,-0.078475,-0.356410,0.931028
-0.281335,-0.718091,0.583930,0.271686,-0.959008,-0.080559
-0.607089,0.168846,0.075657,-0.592802,0.804212,-0.042760
-0.125212,0.490565,0.347756,0.144006,-0.405673,0.902603
-0.623500,-0.930620,0.117034,-0.062225,-0.251355,0.965893
0.697906,0.180369,0.378107,-0.068734,0.706909,0.703957
-0.320219,-0.510075,0.792221,-0.753286,0.588989,0.292664
0.046595,-0.245847,0.896758,0.790998,-0.191311,-0.581139
-0.683208,0.359854,0.626225,-0.792354,0.220153,-0.568953
0.108740,-0.701570,0.628492,0.920306,-0.015574,-0.390889
-0.290562,0.605426,-0.972874,-0.128580,-0.023135,0.991429
0.326019,0.084895,0.783382,0.883054,-0.465285,-0.061034
-0.396732,0.602926,0.476693,0.766890,0.472191,-0.434643
-0.056940,-0.001982,-0.035844,0.170406,0.911124,0.375252
0.191709,0.330711,-0.097938,0.913196,0.062921,-0.402635
0.507315,-0.207133,0.843046,0.737394,0.622350,-0.262546
-0.038156,0.044535,-0.094186,-0.035901,0.377853,0.925169
0.608674,0.140984,0.604969,-0.496064,0.180845,-0.849244
0.346908,0.237372,0.799873,-0.043675,-0.720162,0.692430
-0.130682,0.393873,0.316851,0.528568,0.688769,-0.496199
0.350270,0.474835,-0.969405,-0.113512,0.028876,0.993117
-0.324173,0.121231,0.737253,0.916728,0.339447,0.210679
0.058521,0.294314,0.704432,-0.147634,-0.923225,0.354768
0.235139,-0.051852,-0.782504,-0.341154,0.937095,0.073937
-0.063859,-0.245055,0.885220,-0.014997,0.811969,0.583508
-0.349281,0.646577,-0.979487,-0.135664,0.001492,0.990754
-0.141687,0.045267,0.795028,0.965529,0.235172,-0.111567
0.628379,0.345831,0.635564,-0.662681,-0.568283,0.487759
0.461645,-0.952203,0.470188,0.463470,0.782709,-0.415405
0.798340,-0.045268,0.443777,0.076645,-0.360100,0.929760
-0.256952,0.032282,0.705323,-0.436327,0.790962,-0.428951
0.242716,0.568419,-0.050042,0.954889,-0.210042,-0.209926
0.479174,0.533242,0.089503,-0.097496,0.079764,0.992034
0.318771,0.395458,-0.059489,0.983107,-0.182990,-0.003858
-0.086923,0.378936,0.776823,0.082306,-0.873137,0.480477
0.846845,-0.010822,0.436868,0.633757,0.181889,0.751844
0.210095,-0.821917,0.154890,-0.724138,-0.332969,-0.603950
0.295836,0.001799,0.703784,-0.549740,0.795443,0.255062
-0.280547,0.010334,0.815812,0.335217,-0.837040,0.432427
0.278109,0.515135,0.758779,-0.730670,-0.653336,0.198174
0.155926,-0.100320,-0.748252,-0.437446,0.883287,0.168657
-0.405099,-0.240787,0.649086,0.380922,-0.867015,-0.321223
0.451694,0.056851,-0.971673,-0.037718,0.035552,0.998656
0.203571,0.073251,-0.970229,0.024797,0.169247,0.985262
0.307106,-0.071484,0.828538,0.925756,0.345167,-0.154391
-0.119480,-0.140863,-0.981093,-0.148662,-0.061115,0.986998
-0.066823,0.023929,0.859241,0.832732,0.528756,0.164240
0.177607,-0.239567,0.784286,-0.519757,0.784546,-0.338142
-0.260049,-0.440574,0.787133,-0.292646,-0.488598,-0.821967
-0.396861,0.005822,-0.990013,0.332309,0.111612,-0.936543
0.506526,-0.335101,0.737699,0.830984,-0.143597,-0.537444
0.471202,-0.184758,0.695093,-0.814537,0.005556,0.580085
0.633978,-0.941960,0.690424,0.822859,0.527945,0.210183
-0.611968,0.711507,0.469513,0.095622,-0.455657,0.885005
-0.039805,0.639262,0.066196,-0.197518,-0.045879,-0.979225
-0.109332,0.028624,0.763206,0.929714,-0.244959,-0.275003
-0.600368,-0.202988,0.533820,0.189909,0.057962,0.980089
-0.478844,-0.406371,0.568625,-0.119669,0.953763,0.275707
0.162515,0.022527,0.087182,0.987584,-0.088813,-0.129577
0.190788,0.625178,0.463643,0.759013,0.578844,-0.298059
-0.685843,0.201036,0.586413,0.886695,0.203582,-0.415123
0.467642,0.116110,0.703015,0.728029,-0.350022,-0.589455
-0.073150,-0.390337,-0.986153,-0.231853,-0.151440,0.960890
-0.824107,-0.867886,0.473319,0.772439,0.562183,0.295446
0.589560,0.491907,0.449297,0.737699,0.007076,0.675093
-0.366480,0.031611,0.596413,-0.521733,-0.709701,0.473413
0.224198,-0.763268,0.614592,-0.568240,-0.820353,-0.064221
-0.412681,-0.224447,0.522524,0.679936,-0.390629,-0.620561
0.148018,0.330407,0.722557,-0.790218,-0.203519,0.578045
0.289243,0.304862,0.558558,0.785330,-0.557135,0.269921
0.723934,-0.300777,0.657656,-0.613894,-0.776558,0.141743
-0.531038,-0.359671,0.545899,0.257042,0.703350,0.662742
0.160866,-0.158543,-0.081608,-0.862640,0.479773,0.160218
0.392975,-0.242372,0.817674,-0.740996,-0.313157,0.594019
0.496177,0.507758,0.524090,-0.864165,0.259225,-0.431301
0.338670,-0.876055,0.633985,-0.044662,0.074185,0.996244
-0.317581,0.020454,0.687967,0.165231,0.729333,0.663907
0.019376,-0.609815,0.713771,0.538831,0.624283,0.565625
0.533609,-0.405517,0.743029,0.748291,-0.171844,-0.640727
0.099183,0.395458,0.712651,-0.081706,-0.274769,0.958032
0.320022,-0.831306,0.659654,-0.760862,-0.615648,-0.205102
0.731911,0.284194,0.256930,0.439274,0.391745,-0.808440
-0.836628,-0.622802,0.315218,0.691320,-0.340152,-0.637473
-0.545209,-0.606036,0.135591,-0.704577,-0.633068,0.320619
0.547056,-0.686694,0.566385,0.644280,0.128973,0.753836
-0.576117,-0.621582,0.601136,0.218368,0.580547,0.784398
0.544550,-0.715592,0.564401,0.643955,0.292257,0.707042
0.343416,0.730833,0.580164,0.404406,0.487280,-0.773960
-0.302754,-0.123792,-0.986815,-0.219640,-0.113459,0.968961
0.478121,-0.888188,0.492375,0.224696,0.579811,-0.783155
0.376500,-0.158909,0.829213,-0.276755,-0.929308,0.244527
-0.142612,0.238225,0.109639,-0.506111,-0.788761,-0.348867
-0.033345,-0.754001,0.384234,0.339506,0.749964,-0.567705
0.260777,0.446548,0.453494,0.652425,0.488466,-0.579433
-0.394162,0.465081,0.277187,-0.414529,0.377995,-0.827820
-0.202980,0.613961,0.518961,0.420284,-0.242087,0.874503
-0.439305,0.224142,0.657116,0.718398,0.523244,0.458387
0.353367,0.730589,0.585846,0.341714,0.702377,-0.624419
0.091999,-0.022649,0.825879,0.096755,0.575396,0.812132
-0.093580,-0.567627,0.765851,0.996840,-0.034886,-0.071366
0.661330,0.381679,0.560177,-0.547152,0.750320,0.371005
-0.421510,0.045450,0.427083,0.362138,0.316593,-0.876713
-0.230593,-0.449718,0.731653,0.685731,0.471172,0.554770
0.028406,-0.005640,0.848512,0.991871,-0.122191,0.035511
-0.182812,-0.079348,0.747159,0.551561,0.447992,-0.703622
-0.263544,0.588111,0.337877,0.858615,0.393549,-0.328482
0.075721,-0.131169,0.719790,0.785696,0.306131,0.537555
0.898906,-0.337297,0.701530,-0.198126,-0.979897,-0.023406
0.199090,0.545008,0.543375,0.407221,0.234291,0.882768
-0.463226,-0.288462,0.654836,-0.285273,0.793951,-0.536899
0.588176,-0.917695,0.654485,0.014812,0.999864,-0.007303
0.102610,-0.005457,0.756674,-0.386047,0.812519,-0.436784
0.222420,0.630727,0.480971,-0.485998,-0.681390,0.547279
-0.161328,-0.310715,0.440889,-0.073986,0.079382,0.994095
-0.484315,-0.524828,0.733299,0.811506,0.508981,0.287048
0.503296,0.685474,0.089301,-0.041964,0.201334,0.978623
-0.351324,-0.512575,0.622918,-0.613288,-0.696762,0.372023
0.260974,-0.583173,0.653796,0.654719,0.490757,-0.574893
0.821601,0.381557,0.639140,-0.320251,-0.345386,0.882127
0.487279,-0.365706,-0.969284,0.146214,-0.107398,-0.983406
0.177740,-0.330102,0.774501,0.694490,-0.141031,0.705545
0.117702,-0.053254,-0.968042,0.499288,-0.027287,-0.866006
-0.265254,-0.100442,0.766458,0.675923,-0.653690,0.340321
0.152101,0.145679,0.812869,0.114004,-0.993477,-0.002514
-0.299721,0.541960,0.320225,0.251863,0.966918,0.040438
-0.067616,0.437220,0.526735,0.649854,0.675695,0.348031
-0.111178,0.090260,0.821129,0.703792,0.162280,-0.691623
0.254450,0.188538,0.651151,0.021439,0.111642,0.993517
-0.262949,-0.579759,0.606994,0.689302,0.233401,0.685847
0.246015,-0.117147,-0.640975,0.588832,0.793419,-0.154152
-0.124818,-0.486237,0.838484,0.251757,-0.954827,0.157870
-0.802688,-0.547996,0.504912,0.970192,0.115650,-0.212961
-0.211612,-0.209389,-0.987705,-0.231246,-0.135016,0.963481
0.068669,-0.149277,0.947192,0.942435,0.058491,-0.329234
-0.188612,-0.466850,0.732355,0.937699,-0.017806,0.346992
-0.017594,-0.682121,0.272909,-0.308015,0.949164,-0.064927
0.133980,0.651577,0.450889,-0.681705,0.272641,0.678929
0.099380,0.237433,-0.179330,0.902089,0.401028,0.159414
0.189996,0.379302,0.679775,0.392943,0.529281,0.751969
-0.100764,0.375948,0.778699,-0.293821,0.946811,-0.131215
-0.008435,0.497515,0.483306,0.507018,-0.214362,0.834854
-0.674178,-0.284866,0.180680,-0.219225,-0.390264,0.894223
0.639252,-0.116416,0.589922,0.154479,-0.559602,0.814237
0.215831,0.641456,0.467961,0.584524,0.707856,-0.396576
0.226639,-0.121110,-0.448177,0.703260,0.710726,0.017141
-0.591933,-0.979272,0.114565,-0.211504,-0.431621,0.876909
-0.399830,0.259746,-0.141961,-0.456060,-0.411720,-0.788984
0.552787,0.447462,0.496869,0.249942,-0.559259,0.790417
0.120799,-0.424051,0.576169,0.879295,0.467400,-0.091530
0.653551,0.306142,0.620800,0.456789,0.786274,-0.416074
0.411953,-0.177137,0.761546,-0.634564,0.561997,0.530555
0.436469,-0.624021,0.616764,0.729427,-0.339551,0.593837
0.658825,0.297180,0.649262,0.626972,0.645223,-0.436571
0.794450,0.304496,0.669289,0.824895,0.488061,-0.285209
-0.352511,-0.304496,0.697441,-0.494332,0.815412,0.301231
-0.149861,-0.835757,0.563996,0.418264,0.612043,0.671162
0.096086,0.557506,0.055292,-0.504396,-0.289069,-0.813648
0.282128,0.669074,-0.965964,-0.044788,0.050436,0.997723
0.180241,-0.628837,0.122541,-0.744811,-0.434079,-0.506786
0.198169,-0.355464,0.894883,-0.171926,0.037338,0.984402
0.523987,-0.281634,-0.972442,-0.129567,0.135993,0.982201
-0.664625,-0.788385,0.512187,-0.339986,-0.614938,0.711520
0.883219,0.360341,0.640975,-0.374684,-0.416739,0.828215
0.279360,0.477274,-0.970930,0.097317,0.047313,0.994128
0.830301,0.105197,0.583160,0.415652,0.503536,-0.757420
0.282590,0.561469,0.732530,0.981537,-0.046360,0.185570
0.169236,-0.404664,0.793544,0.663216,0.363036,0.654484
-0.273166,-0.794605,0.616265,0.880887,0.374234,0.289805
-0.318309,-0.209145,0.444816,0.339876,0.572847,0.745875
-0.372413,-0.941960,0.421118,0.103561,0.440060,0.891976
0.329905,0.558482,0.348916,0.388245,-0.368609,0.844626
0.182220,-0.246151,0.106616,-0.679279,-0.669612,0.300333
-0.329048,-0.271453,0.690086,-0.371955,0.817377,0.439937
0.580007,-0.938851,0.477557,0.666016,0.308922,-0.678962
0.657377,0.178844,0.590191,-0.437999,0.312413,-0.842944
-0.249635,-0.366499,0.612999,0.362033,0.929899,-0.064964
-0.294979,-0.826673,0.639032,-0.740806,-0.501563,-0.446812
-0.117240,0.041670,-0.981295,0.220252,0.072718,-0.972729
0.049032,-0.167383,0.823356,0.804708,0.593513,-0.013666
-0.481612,-0.695534,0.467840,0.943753,-0.202776,0.261175
-0.221036,-0.444414,0.792801,-0.285699,-0.734136,-0.615971
-0.325094,-0.286146,-0.995762,-0.257867,-0.203302,0.944549
-0.436537,-0.334736,0.654795,-0.018729,-0.725278,0.688201
-0.139909,0.741686,-0.977287,0.109810,-0.130600,-0.985335
-0.528995,-0.481177,0.511269,0.912171,0.007804,0.409734
-0.264992,0.062947,0.777659,-0.433001,0.512468,0.741543
-0.177740,-0.055754,0.819901,-0.695066,-0.393180,-0.601907
0.526493,0.266575,0.635159,-0.226127,-0.194865,0.954408
0.232637,-0.847645,0.691274,-0.725977,-0.651230,-0.221037
-0.057729,-0.886359,0.540487,-0.299886,0.948709,0.100102
-0.223144,0.676756,0.518773,0.677415,-0.089440,0.730143
-0.210292,-0.030819,0.778995,-0.449576,0.819013,-0.356510
-0.353697,0.517878,0.481848,-0.346000,0.168230,0.923029
-0.560168,-0.585002,0.585225,0.852957,0.218713,0.473950
-0.189601,0.724310,-0.976234,-0.136165,0.081764,0.987306
-0.442334,-0.191404,0.632730,0.338444,0.625947,-0.702599
0.351191,0.361805,0.667751,-0.743334,0.558179,0.368634
-0.275933,-0.225789,0.641677,0.750392,-0.549184,-0.367844
-0.519901,0.412162,0.664822,0.969811,-0.227558,0.087656
0.267430,0.535010,0.292356,0.487939,0.614905,-0.619522
-0.108080,0.032769,0.787876,0.806535,-0.142076,-0.573861
0.039411,0.609266,0.694216,0.349723,0.902093,-0.252827
0.119150,-0.103612,0.798011,-0.376701,0.454997,-0.806892
0.149531,-0.115562,0.943386,0.153936,0.971447,0.180537
0.350994,0.270294,0.818956,0.168902,0.906236,-0.387568
-0.516345,0.445450,0.668169,0.795180,-0.504658,-0.336170
0.245090,0.320774,-0.973576,0.007638,-0.152180,0.988323
0.342628,-0.836488,0.580529,-0.277839,0.051978,0.959221
-0.183274,-0.330407,0.776728,-0.472542,-0.548803,-0.689579
0.344208,0.359670,0.666577,-0.743334,0.558179,0.368634
-0.445234,0.258466,0.617169,0.787232,-0.605505,0.116748
0.100370,-0.176284,0.766350,0.375527,0.865205,0.332265
-0.055951,0.079530,0.866069,-0.629366,-0.171007,-0.758060
0.379267,-0.488737,0.745405,-0.063963,0.797942,0.599331
0.323582,0.431184,0.544306,0.391733,0.419495,-0.818883
0.550941,0.132144,0.438406,-0.726137,-0.593728,0.346715
0.542772,0.488248,-0.968204,-0.182974,-0.019834,0.982918
-0.855477,-0.669807,0.457907,-0.411361,0.904396,0.113357
-0.521353,0.079103,0.529556,-0.390973,-0.808930,0.439059
-0.575063,0.622313,0.312829,-0.017258,-0.062962,0.997867
0.724067,0.286206,0.249521,0.397359,0.463970,-0.791731
-0.490115,-0.257491,0.523105,0.077583,-0.086428,0.993233
0.059708,0.448803,-0.969108,0.362193,-0.212049,-0.907663
-0.370237,0.069532,0.720627,0.512925,-0.781508,0.355180
-0.117107,0.299924,-0.974966,0.033097,-0.056646,0.997846
-0.196850,-0.061302,0.690842,-0.721083,-0.629040,0.290427
-0.308156,0.207498,0.662569,0.313856,-0.627045,0.712958
-0.051929,0.644383,0.480769,0.181625,0.568033,0.802714
0.333533,0.399238,0.713771,-0.104797,-0.941198,0.321193
0.257217,0.302057,0.446125,0.414087,-0.572116,-0.707965
0.365825,-0.697790,0.438973,0.710437,0.621424,-0.330320
0.342559,0.275598,0.549543,-0.728792,0.660941,-0.178938
-0.181295,0.074409,0.770007,0.845850,0.182402,-0.501266
-0.472586,0.171163,-0.991376,0.187933,0.060155,-0.980338
-0.290695,-0.346685,-0.992442,-0.288273,-0.255418,0.922854
0.419796,0.659746,0.518327,0.693562,0.141201,0.706423
-0.116383,0.650784,0.260385,-0.488217,0.582456,-0.649915
0.234744,0.044170,0.880996,0.624693,-0.780025,0.036341
0.109794,0.053437,0.915086,0.170906,0.775457,-0.607830
-0.367273,0.299070,0.594834,0.984737,-0.156732,-0.075681
-0.597009,0.330772,0.539111,-0.513851,0.610769,0.602428
-0.138855,-0.303216,0.764893,-0.668029,-0.742740,0.045551
-0.030972,-0.843683,0.523159,0.224234,-0.054564,0.973007
0.413538,-0.667307,0.659033,0.921470,-0.199482,0.333318
-0.200671,-0.159823,0.741950,0.039120,-0.416742,0.908183
0.184264,0.922329,0.365516,0.720763,0.667248,0.187833
-0.132725,0.353695,0.774515,0.820535,0.268909,0.504391
0.740478,0.243225,0.648047,0.358514,0.862960,-0.356046
-0.600565,0.431245,0.492604,0.800765,0.598971,0.003019
0.240742,0.077640,0.852074,-0.566989,-0.139042,0.811905
0.168050,-0.225240,0.801587,-0.043136,-0.812865,0.580853
0.575654,0.330529,0.615968,-0.188943,-0.908485,0.372768
0.261634,0.518853,0.768914,-0.508288,-0.808983,0.295279
-0.427045,-0.328944,0.644349,-0.387844,-0.335285,0.858581
-0.660208,-0.712239,0.637723,-0.488889,-0.864146,-0.119331
-0.102345,-0.050876,0.808969,0.991600,0.033760,0.124860
-0.664029,-0.786069,0.466194,0.922923,0.376196,0.081786
0.229013,-0.113549,-0.481511,0.277943,0.958772,0.059193
0.030248,0.170919,0.817445,0.384468,0.741443,-0.549951
-0.170487,-0.725957,0.511971,0.711165,0.459743,-0.531865
-0.095688,-0.471057,0.858026,-0.035743,-0.604718,0.795637
-0.541915,-0.800762,0.472482,-0.461414,-0.206319,0.862861
0.355676,0.161408,0.774043,0.898442,0.145350,-0.414338
0.080994,0.536046,-0.132865,0.962585,0.004055,-0.270950
-0.218796,-0.581832,0.596400,0.213572,0.265131,0.940262
0.296890,0.048316,0.851103,0.880740,-0.473600,0.000249
-0.275076,-0.105136,0.636320,-0.762347,0.647001,0.014734
-0.672203,0.184209,0.530824,-0.645702,-0.229457,-0.728298
-0.578160,0.767717,0.462860,-0.468941,0.527096,-0.708706
-0.091935,0.345038,0.782815,-0.670003,0.704057,-0.235372
-0.247990,0.614022,0.288996,-0.098028,0.987890,-0.120266
0.322194,-0.729126,0.416570,-0.020655,0.633898,0.773141
-0.541782,0.207011,-0.993738,-0.252184,-0.047667,0.966505
-0.169039,0.137144,0.804799,-0.286292,-0.958041,0.013948
0.370108,-0.528486,0.627007,0.653106,-0.236010,0.719550
0.478515,0.631763,0.509704,-0.064200,-0.225601,0.972102
0.172796,-0.631946,0.127250,-0.739687,-0.405033,-0.537411
0.250299,-0.110746,-0.385449,-0.786364,-0.616952,-0.031669
0.657638,0.371071,0.457826,0.712419,-0.283744,0.641832
0.153223,-0.117818,-0.929904,-0.311163,0.935782,-0.165802
-0.115723,-0.896906,0.305892,0.248695,-0.965899,-0.072038
-0.638656,0.424356,0.423885,0.586760,0.675968,-0.445848
-0.108410,-0.454839,0.660274,0.442757,0.753226,0.486432
-0.015816,-0.297486,0.715377,-0.091828,-0.949681,0.299456
0.543230,-0.614510,0.511930,0.832236,0.375876,-0.407555
0.056675,0.333881,0.617345,0.234871,0.795773,-0.558194
-0.113221,0.454290,0.763111,-0.356127,-0.919244,-0.167824
-0.639582,-0.612560,0.600246,-0.582441,-0.411761,-0.700867
0.427773,0.272977,0.476005,-0.145156,0.397240,-0.906162
-0.291484,-0.735650,0.611622,0.858344,-0.379205,-0.345613
0.574798,-0.850389,0.657076,0.032885,0.853851,0.519478
-0.878477,-0.807895,0.483535,-0.123080,0.509280,-0.851754
-0.153618,-0.510075,0.704918,-0.387463,0.737295,0.553416
0.387111,0.447767,0.668763,0.900401,-0.385205,0.202227
-0.099316,-0.159214,0.936368,0.099097,0.943008,0.317671
-0.195796,-0.119647,0.740371,-0.440268,0.554843,-0.705914
-0.118229,-0.014785,0.773975,0.204096,0.832757,-0.514646
-0.267892,0.139155,-0.982550,-0.112661,-0.096509,0.988936
-0.198366,-0.322481,0.760911,0.680155,0.732126,0.037172
-0.604849,-0.112391,0.546533,0.429919,0.248333,-0.868044
0.566628,0.734369,0.526168,0.454695,0.548974,-0.701342
-0.226635,-0.297790,-0.989865,-0.216468,-0.160082,0.963076
0.505139,0.006980,0.554293,-0.158261,0.710173,-0.686008
0.442338,-0.907818,0.643040,-0.455345,0.482065,0.748515
-0.280676,-0.154336,0.652784,-0.807844,-0.397457,0.435219
0.313429,-0.032465,-0.972887,0.341744,0.202307,0.917760
-0.699684,-0.889651,0.418999,0.625587,0.738242,0.252269
0.129894,0.721567,0.444115,0.866859,0.444078,-0.226607
-0.202055,0.500746,0.507450,-0.024741,-0.634698,0.772364
0.865626,-0.272916,0.537909,0.929711,0.080205,0.359450
0.389810,0.218839,-0.972901,-0.043762,0.025307,0.998721
-0.491696,-0.379851,0.508340,0.108187,-0.725732,0.679418
-0.326744,-0.790520,0.653459,0.802291,0.570799,0.174691
-0.145513,0.580430,0.413277,-0.399678,-0.352030,-0.846364
-0.656387,-0.733699,0.457462,0.927153,-0.258918,-0.270830
0.045143,-0.571102,0.700923,-0.053221,0.614024,0.787491
0.139909,0.172870,0.703730,0.225562,0.817361,0.530135
-0.631078,0.475872,0.622352,0.931803,-0.356353,-0.068959
0.168050,0.138180,0.771613,-0.337619,0.630793,0.698651
-0.561616,-0.585124,0.593849,0.682470,0.474589,0.555878
0.509623,-0.809602,0.630476,0.335961,-0.661794,-0.670193
0.180507,0.053497,-0.597439,-0.773310,0.619254,0.136074
0.699816,-0.306143,0.532727,-0.534904,0.284697,0.795503
0.473310,-0.047950,0.588329,0.737907,0.388698,-0.551730
0.434426,0.341991,0.279184,-0.394411,-0.561333,0.727561
0.857979,0.400701,0.291142,0.655305,0.356329,-0.666036
0.044222,0.007712,0.212327,0.502173,0.849481,0.161875
0.192896,-0.130376,-0.553740,-0.786113,0.599014,0.152344
0.087784,-0.080201,-0.169708,0.808972,0.521251,0.271774
0.077567,-0.125926,-0.970660,0.470137,0.203781,-0.858746
-0.636416,0.046242,0.544509,-0.453275,0.748156,-0.484566
0.076248,0.472702,0.643135,0.478350,0.397826,-0.782890
0.592725,-0.207987,0.543267,0.848634,0.517776,-0.108297
0.668579,-0.322359,0.380037,0.525127,0.183740,-0.830952
-0.252668,-0.489346,0.174782,-0.173972,0.637800,0.750296
-0.212139,-0.704557,0.518853,0.826100,0.550263,-0.121534
-0.449385,-0.132572,0.505115,0.989355,-0.064199,0.130593
-0.680968,-0.654870,0.150368,-0.416727,-0.099644,0.903554
0.588506,-0.368573,0.694310,0.969652,-0.244269,-0.010353
-0.023261,-0.009725,0.724136,0.406228,0.627221,0.664510
0.636154,0.412772,0.459270,0.712482,-0.509963,0.481982
0.164229,-0.587745,0.674242,0.174020,-0.693732,-0.698894
-0.038948,-0.005884,0.865084,0.755754,0.594839,0.273866
-0.044877,-0.441975,-0.985573,0.044719,0.006754,-0.998977
0.203969,0.398689,-0.970431,0.122868,0.180060,-0.975952
-0.103925,-0.492760,0.655321,-0.454725,-0.740796,-0.494415
-0.001187,0.437280,-0.205795,-0.465524,-0.734220,-0.494175
-0.210095,-0.709618,0.582148,0.123183,-0.960126,0.250965
-0.134439,-0.829782,-0.077573,0.072306,0.328764,0.941640
0.023000,0.835024,-0.972185,-0.191299,0.076585,0.978539
-0.340580,0.734309,0.521620,0.654423,0.419603,-0.629018
-0.546066,0.364304,0.656765,0.979649,-0.085070,0.181801
-0.196914,0.002286,0.758671,0.130090,0.422562,0.896949
0.110385,-0.036427,0.710235,0.032140,0.375413,0.926300
-0.220509,0.073617,0.751613,-0.334530,0.017289,-0.942227
-0.675694,0.430208,0.644768,0.829710,-0.417212,0.370831
0.848293,0.189270,0.599018,-0.015692,-0.813340,0.581576
0.136683,-0.779972,0.488380,0.365602,0.716322,0.594322
-0.662976,-0.757781,0.335596,-0.058244,-0.217289,0.974368
0.446420,0.747843,0.085117,-0.010128,0.227857,0.973642
0.183471,-0.915562,0.150503,-0.735941,-0.327180,-0.592743
0.797877,0.267428,0.660342,0.032195,-0.917219,0.397079
0.325424,-0.934034,0.590313,-0.193763,-0.909995,0.366557
0.076380,-0.061485,0.844341,0.510176,-0.091466,0.855193
0.286677,-0.601646,0.670409,0.874250,0.462188,-0.148558
-0.196584,0.117939,0.268374,0.721823,0.304944,0.621273
0.560365,-0.880628,0.366069,0.911249,0.160354,-0.379358
0.114472,-0.201524,0.891225,-0.858008,-0.130291,0.496836
0.376435,0.826246,0.396637,-0.614941,-0.258705,0.744929
0.444839,0.675659,0.583538,-0.034887,-0.835574,0.548269
-0.324503,0.236458,0.638708,0.194487,-0.595567,-0.779407
0.227166,-0.619692,0.779738,0.922443,-0.271164,0.274897
0.826086,0.192440,0.610637,0.090279,-0.879363,0.467516
0.045935,-0.005151,0.710181,0.280704,0.296075,0.912987
0.018189,0.538972,0.661705,-0.052617,-0.744252,0.665823
0.132927,-0.673221,0.580272,0.931430,0.260395,0.254229
0.650587,-0.894894,0.642312,0.050401,0.877702,0.476549
0.242588,0.584026,0.355678,0.121480,-0.355693,0.926674
0.241731,0.361987,0.689506,0.889899,-0.190896,-0.414292
0.129958,0.153666,0.828673,-0.246028,0.293908,-0.923628
-0.513972,-0.639202,-0.063430,-0.295581,0.333971,0.895039
0.224793,0.482334,0.696024,0.764386,-0.188280,-0.616656
0.372546,-0.225240,-0.971200,-0.121966,-0.003636,0.992528
-0.603992,-0.739613,0.594173,0.806086,0.251009,0.535930
0.613943,0.727480,0.541162,0.874818,-0.300331,-0.380126
-0.091078,0.168968,0.720114,-0.687160,0.375449,-0.621972
0.117107,-0.059900,-0.100637,0.752860,0.657146,0.036891
0.179188,0.195244,0.792991,-0.110613,0.973682,-0.199270
-0.278765,0.612558,0.503334,0.080103,-0.991966,-0.097913
-0.067616,0.684134,0.512875,0.762468,-0.016874,0.646806
0.541452,0.267307,0.554550,0.859729,-0.339575,-0.381517
0.417624,0.514037,0.307269,0.341715,-0.853855,0.392634
-0.140107,-0.797713,0.360523,0.371075,0.849229,-0.375651
-0.226768,0.634506,-0.975155,-0.052694,-0.037189,0.997918
0.258601,-0.210243,0.437245,0.564907,0.787194,0.247395
0.166405,0.139644,0.744663,0.493255,0.306718,-0.814017
0.183210,-0.111904,-0.686132,-0.390852,-0.920097,-0.025623
0.149599,0.180308,0.616494,-0.297997,0.891762,-0.340527
0.104983,0.053376,0.818754,0.942575,0.319916,-0.095951
0.115067,-0.239628,0.872669,0.919423,0.263138,-0.292266
-0.165218,0.101783,0.809347,-0.208046,-0.876842,0.433435
0.945895,0.182442,0.477948,-0.525212,0.024127,-0.850630
0.277908,-0.745771,0.660706,0.820573,-0.410525,-0.397654
-0.939238,-0.738089,0.459540,0.085414,0.602903,0.793229
0.249836,0.584575,0.555454,0.523477,0.454891,-0.720448
0.326546,-0.198598,0.904397,0.273903,0.955144,0.112590
0.196061,0.432221,0.711463,-0.527905,0.426494,-0.734452
0.605577,0.224325,0.444951,-0.202896,0.419340,-0.884865
0.362329,0.730162,0.504670,-0.314539,-0.582299,0.749662
-0.194541,0.102209,0.808537,-0.545435,-0.717540,0.433169
-0.758864,-0.380826,0.470431,-0.759352,0.649431,-0.040294
-0.268552,-0.036245,0.625483,0.970284,0.229784,-0.075815
0.305590,0.680719,0.569111,0.407251,0.589272,-0.697785
0.090881,-0.205060,0.917150,0.749900,0.410017,-0.519168
-0.263412,0.678402,0.378094,0.478115,0.519775,-0.707983
0.085805,-0.111111,0.840023,0.916506,-0.240804,0.319421
0.871755,0.079408,0.457097,0.412045,0.559903,-0.718837
0.028736,0.562018,0.341588,-0.060733,0.113016,0.991735
0.570912,0.338759,0.635726,-0.057388,-0.540794,0.839195
-0.684065,0.212681,0.587452,0.914799,0.062237,-0.399085
0.079345,-0.579577,-0.988583,-0.008771,-0.054947,0.998451
0.117835,0.157628,0.735040,0.442020,0.885522,-0.143070
-0.176814,-0.093553,0.645146,0.749190,-0.631821,-0.198786
-0.842429,-0.660906,0.489514,0.992362,-0.005037,0.123255
0.288982,-0.273647,0.635807,-0.283743,-0.064310,0.956741
0.166336,-0.881665,0.387285,0.513147,0.791808,0.331240
-0.127585,-0.399787,0.775554,0.232515,0.610824,0.756856
0.289444,-0.023930,-0.968758,0.447973,0.226060,0.864996
-0.134902,0.401127,-0.978690,0.045869,-0.039330,0.998173
-0.535519,-0.391373,0.507355,0.328933,-0.650200,0.684867
0.101291,-0.426125,0.576385,0.899097,0.363805,0.243454
-0.091605,0.853802,-0.975020,0.146419,0.010379,-0.989168
0.004219,0.125621,-0.976410,-0.103209,0.000681,0.994660
0.520363,-0.212011,0.704567,-0.286772,-0.719970,-0.631985
0.157507,-0.399665,0.721234,-0.538136,0.817042,-0.207007
0.524184,-0.866240,0.706011,-0.543289,-0.747772,-0.381673
0.299524,0.216704,0.767767,0.852897,0.029591,-0.521240
-0.471990,0.396494,0.683581,0.865457,-0.185678,-0.465304
0.303611,0.243530,0.108208,0.790122,-0.568107,0.230133
0.517069,0.199451,0.616899,0.362874,0.612032,-0.702666
0.284698,-0.776376,0.488151,-0.570217,-0.626283,-0.531622
-0.152495,-0.452889,-0.991565,-0.324397,0.027258,0.945528
0.442599,-0.343942,0.722786,-0.663852,0.554616,-0.501699
0.910438,-0.043804,0.448474,0.376155,-0.288365,0.880541
-0.609792,0.340527,0.615037,0.447730,-0.546840,0.707463
0.492158,-0.058193,-0.968474,0.000459,0.039917,0.999203
0.039938,0.409114,-0.967867,0.432397,-0.007260,-0.901654
0.000394,0.157385,0.636346,-0.843053,0.210981,0.494721
0.762621,0.279865,0.673743,0.824895,0.488061,-0.285209
-0.262092,0.109343,0.692218,0.256854,0.593921,0.762419
-0.505537,-0.246762,0.294826,0.182289,0.150477,0.971662
0.152958,-0.188721,-0.576129,0.186689,-0.981690,-0.037834
0.004348,0.250602,-0.971443,-0.145673,-0.091175,0.985123
-0.641625,-0.503856,0.529745,0.449315,0.755090,0.477446
0.293925,0.007042,0.878296,0.983098,0.182305,0.016817
0.237709,0.506356,0.485411,0.909927,-0.401476,-0.104162
-0.002176,-0.160433,0.941132,-0.360016,0.870486,0.335622
0.269212,-0.544582,0.674539,0.825823,0.539350,-0.164675
-0.639316,0.400701,0.505587,0.992620,-0.035006,0.116108
0.587388,0.791799,0.530419,0.740902,0.376105,-0.556426
-0.299524,0.229263,0.724176,0.821545,-0.548849,0.154367
-0.297481,0.296997,0.628533,0.096302,0.876232,0.472169
0.176090,-0.056912,0.865840,-0.638719,0.341139,-0.689683
0.089365,-0.475202,0.792262,0.921280,0.333676,0.199757
0.174510,-0.218107,0.773017,-0.159427,0.584139,0.795842
0.546263,0.441548,-0.964668,-0.035020,0.195320,0.980114
0.196914,0.209084,-0.969581,-0.019794,0.089785,0.995764
-0.525307,0.741990,0.471578,-0.332381,0.394329,-0.856754
0.694873,0.040390,0.552660,-0.244023,0.897199,-0.368086
0.094372,-0.459899,0.798200,0.942437,-0.095130,-0.320567
-0.522338,-0.768999,0.480337,0.530897,0.076215,0.844002
-0.543097,0.041426,0.210613,0.337290,-0.589835,0.733710
0.307106,0.114708,-0.971578,-0.085342,-0.285343,0.954618
0.724067,0.049596,0.525628,-0.215793,-0.825564,0.521419
0.297549,0.719433,0.396529,-0.468976,-0.330332,0.819111
0.289311,-0.528670,-0.975209,-0.054265,-0.098712,0.993635
0.215763,-0.211036,0.910700,-0.197300,0.964984,-0.172852
-0.205482,-0.474593,0.614295,-0.647276,0.036025,-0.761404
-0.197771,0.394422,0.554172,0.680979,0.389990,0.619819
0.111508,-0.165371,0.980418,0.283676,0.758606,-0.586554
0.526626,-0.418137,0.777659,0.985598,0.013221,0.168589
-0.469947,-0.466118,0.646536,0.900259,0.079465,-0.428040
0.177542,-0.095443,0.936598,0.873476,0.389222,-0.292482
0.261107,-0.057888,0.844449,0.807099,0.586507,-0.067835
-0.233031,0.427404,-0.204607,-0.388126,-0.759278,-0.522356
-0.075721,0.539033,0.489001,0.035094,0.206050,0.977912
-0.152234,0.007224,-0.985263,-0.119858,-0.017329,0.992640
-0.011729,0.000884,0.862520,0.717113,0.543954,0.435732
-0.333135,0.450998,0.480148,0.409961,0.548484,-0.728764
-0.219520,-0.306387,0.667683,-0.653919,-0.142248,-0.743072
0.921641,0.258528,0.623161,-0.340688,-0.458545,0.820773
0.718532,0.363877,-0.960593,-0.010606,-0.103142,0.994610
-0.672203,-0.587076,0.521107,0.135676,0.610397,-0.780390
0.129894,0.239140,0.497584,-0.539476,0.556820,-0.631598
0.568209,-0.932815,0.487881,0.666016,0.308922,-0.678962
-0.487939,-0.237312,0.670423,-0.499560,0.343461,0.795283
-0.298667,0.132632,0.739399,-0.747011,-0.632610,-0.204398
-0.314419,0.829355,0.367297,0.425592,0.146808,-0.892927
-0.041913,0.178113,0.640841,-0.706140,0.145447,0.692973
0.299066,-0.258528,0.613444,-0.156442,-0.662064,0.732937
-0.602608,-0.419052,0.635402,0.775204,0.578768,-0.253154
-0.382364,0.242250,0.369227,-0.419057,-0.443239,0.792421
-0.293394,-0.186100,0.671651,0.318026,0.049465,0.946791
-0.391326,0.372961,0.621920,0.924775,-0.015793,0.380186
0.363978,0.737601,0.503252,0.369902,0.699387,-0.611580
0.016805,0.181588,0.713393,-0.034427,-0.829476,0.557481
0.386057,0.497454,0.482510,0.634377,0.772860,0.015940
0.591800,-0.269379,0.681827,0.653930,-0.306936,-0.691496
0.087848,-0.553239,0.823396,0.903635,0.393737,-0.168568
-0.192699,0.092699,0.806877,-0.723192,0.460115,-0.515060
-0.644787,-0.818869,0.313099,0.050134,-0.431775,0.900587
-0.471926,0.371559,0.009069,0.814227,-0.573436,0.090582
-0.507512,-0.504466,0.639532,-0.597804,0.550183,0.583034
0.189601,-0.339430,0.503198,-0.464459,-0.448276,-0.763758
0.120864,0.518976,0.472671,-0.603546,-0.151117,-0.782877
0.603006,0.085627,-0.960755,-0.170401,-0.183852,0.968071
0.197706,0.398323,0.701949,-0.617336,-0.127233,-0.776343
0.262885,0.341198,0.698116,0.601166,-0.161444,0.782646
-0.479701,0.304191,-0.989541,-0.259638,-0.061068,0.963773
0.328984,-0.695778,0.324341,0.533809,0.763901,0.362635
-0.713456,0.204206,0.536708,0.908709,0.064473,0.412422
0.153815,-0.600914,0.782950,0.917932,0.334904,0.212697
0.219125,0.865325,0.391212,0.290851,0.550646,-0.782429
-0.214512,-0.078250,0.631016,0.960633,0.128760,-0.246179
-0.057861,0.012345,0.839227,0.308099,0.950846,-0.031114
0.156582,-0.207804,0.853275,0.797747,0.531249,0.285261
-0.453210,-0.498613,0.642568,-0.447761,0.701305,0.554690
0.107091,-0.343332,0.843383,0.501733,0.854438,0.134906
0.121921,0.656027,0.358714,-0.044433,-0.217109,0.975136
-0.283708,-0.487213,0.756714,0.226377,0.692688,0.684789
-0.750956,-0.728822,0.449486,-0.047709,0.054033,0.997399
0.604257,-0.530620,0.634498,0.895334,-0.150050,-0.419359
-0.469159,-0.722847,0.210262,-0.360489,-0.339615,0.868740
0.091935,0.640908,0.194391,0.981605,-0.169268,0.088322
0.176617,-0.641030,0.773098,0.963504,-0.267665,0.003863
0.356794,-0.254016,0.709048,0.226878,-0.545274,0.806971
0.411888,0.456303,0.303342,0.049349,-0.900366,0.432327
0.049426,0.175979,0.639720,0.026127,-0.539923,0.841309
0.039608,-0.062460,0.804111,0.960929,0.260727,-0.092932
0.630290,-0.979027,0.700680,0.813199,0.448493,0.370891
-0.110981,0.425392,-0.979878,0.046344,-0.057344,0.997278
0.232765,0.390276,-0.011053,0.981189,0.174288,0.083017
0.284633,0.683463,0.565332,0.391378,0.601701,-0.696261
-0.121258,0.433806,0.355934,0.937656,0.287204,-0.195742
0.489520,0.508245,0.304691,0.183004,-0.883679,0.430838
0.271846,-0.402957,0.642582,0.850296,-0.423059,0.313077
0.172004,-0.145740,-0.741626,0.502977,-0.856731,-0.114135
0.463753,0.637189,0.506788,0.571595,0.178729,-0.800834
0.589230,-0.051487,0.518651,-0.440359,0.570528,-0.693240
0.155528,0.024965,0.784421,0.205301,-0.961641,0.181929
-0.683670,-0.561774,0.621137,0.945238,-0.323573,-0.042736
0.269542,-0.717055,0.652447,-0.677760,0.568975,0.465736
0.482537,0.283279,0.686982,0.796024,0.521714,0.306855
-0.069920,-0.416979,0.758050,0.308218,0.941994,-0.132848
0.158167,-0.920378,0.377014,-0.403854,0.180778,0.896784
-0.071702,0.657674,0.360172,0.677520,0.449340,0.582289
0.618690,-0.317422,0.050393,-0.056858,-0.946144,0.318713
-0.432053,0.408260,0.450957,0.877073,-0.128203,-0.462933
0.163239,-0.137753,0.913479,-0.661502,-0.736545,0.141125
-0.585143,-0.762658,0.477516,-0.415352,0.534743,0.735889
-0.282916,-0.729675,0.462739,-0.259174,-0.800482,0.540424
-0.583104,-0.674562,0.583106,0.760416,0.146079,0.632794
0.825229,0.340953,0.272194,0.640985,0.321755,-0.696859
0.544485,-0.226216,0.726740,0.939043,-0.257474,0.227827
0.313759,-0.604817,0.596575,0.085534,-0.734379,0.673328
-0.592854,-0.911355,0.410038,0.362527,0.930888,-0.044968
-0.410239,-0.285353,0.654822,-0.448291,0.803860,-0.390952
0.445696,-0.193477,0.773449,-0.522074,0.730179,0.440770
0.153686,0.003384,0.922225,0.975336,-0.095557,0.198969
0.076710,-0.697241,0.726943,0.107503,-0.890858,-0.441379
-0.307300,-0.032526,0.799941,-0.690846,0.466421,-0.552434
-0.104718,0.204084,0.229291,0.815733,-0.058048,0.575508
0.454461,-0.167871,0.773597,0.923493,0.062044,-0.378564
0.080403,0.352599,0.730978,0.903051,-0.159940,0.398644
0.373600,0.346745,0.573632,-0.505908,0.860361,0.061930
0.753458,0.293827,0.628964,0.280182,0.092663,0.955464
-0.179123,-0.156958,0.975492,-0.052684,-0.976682,0.208125
-0.682021,-0.905807,0.117763,-0.062177,-0.553850,0.830292
0.092329,-0.047707,0.869092,-0.027356,0.977068,0.211164
-0.636943,0.174455,0.600313,-0.625128,-0.630065,0.460688
0.143799,-0.198720,-0.972091,-0.223349,-0.322842,0.919722
0.288716,0.486175,0.769279,0.862567,0.441176,-0.247674
0.224660,0.414479,0.722165,0.903719,0.381134,-0.195008
-0.292409,0.288706,-0.978407,-0.136265,-0.220926,0.965724
-0.689008,-0.663466,0.626792,0.923107,0.271855,-0.271973
0.343943,0.105075,0.060704,-0.638015,0.426329,-0.641234
0.102216,-0.410822,0.878917,0.871374,-0.108267,-0.478525
0.802953,0.093430,0.574523,0.253185,0.296911,-0.920729
0.001516,-0.166591,0.907933,-0.069019,0.796712,0.600405
-0.397983,-0.858558,0.404694,-0.426247,-0.028271,-0.904165
0.014368,-0.640543,0.728211,0.600348,0.744716,0.291516
0.121193,0.626459,0.385584,0.360664,0.216429,-0.907238
-0.640438,-0.138302,0.531958,-0.546803,-0.080205,-0.833411
0.082905,0.162750,0.811871,0.375678,-0.524221,0.764237
-0.311716,-0.016675,0.805825,-0.714391,0.694496,0.085561
-0.149993,0.425941,0.780898,0.909315,0.197191,0.366417
0.123369,0.216339,-0.180896,0.927458,0.332014,0.172012
0.201069,0.399420,0.706740,-0.528939,0.230580,-0.816735
-0.110188,0.336564,0.756647,0.377422,-0.661198,0.648360
-0.662581,0.417772,0.510122,0.974103,0.188302,0.125160
-0.768289,-0.689194,0.556128,-0.700211,-0.566025,0.435110
0.318638,-0.760890,0.581811,-0.401411,-0.088616,0.911601
-0.923222,-0.796190,0.249292,0.164482,-0.986004,0.027237
-0.294782,0.376375,0.770925,0.414042,0.588990,-0.694017
-0.258730,0.119463,0.618222,-0.525160,-0.843205,-0.114947
-0.107554,0.011675,0.773206,0.828828,0.411565,0.379024
0.446553,-0.105198,0.619342,0.709664,0.655482,0.258303
-0.426650,-0.499771,0.692097,0.300093,0.916105,0.265888
-0.587058,0.644261,0.451024,-0.264705,-0.550617,0.791677
0.329378,0.821186,0.401738,-0.652412,-0.183415,0.735335
0.070649,0.252309,-0.347067,0.943088,0.231240,0.238981
-0.772243,-0.603597,0.520891,0.983224,-0.013534,0.181899
0.149201,-0.406859,-0.978987,-0.044950,-0.186538,0.981419
-0.589560,0.326566,0.603795,0.635283,-0.755178,0.161624
0.235006,-0.567444,0.763098,-0.721288,0.689604,0.064721
-0.691840,0.219935,0.543888,0.853748,-0.028603,0.519900
-0.204428,-0.874836,0.577856,-0.361690,-0.675804,0.642237
-0.698497,-0.626887,0.624241,-0.633810,0.236202,0.736541
0.324109,-0.194269,0.758347,-0.018479,-0.388923,0.921085
0.010084,-0.118123,0.734689,-0.489546,-0.805215,-0.334625
-0.450044,-0.648042,0.468731,0.777886,-0.331883,0.533617
0.085869,0.577503,0.357297,0.470403,0.175148,-0.864895
-0.021483,0.553787,0.486167,-0.397390,-0.263665,-0.878955
0.867600,-0.175370,0.545453,-0.752677,-0.232918,0.615814
0.880782,-0.312788,0.473117,0.988218,-0.070972,0.135602
-0.503952,0.112086,0.673595,-0.506552,-0.172063,-0.844867
0.717016,0.240603,0.615550,0.319468,0.811208,-0.489777
-0.436006,-0.416613,0.693420,0.977934,0.104921,-0.180658
0.089562,0.119585,0.810170,0.149144,-0.166663,0.974669
0.161855,0.428501,0.681476,0.910699,0.266603,-0.315515
0.274746,-0.132145,0.838673,-0.578041,-0.753714,0.312703
0.059973,-0.125438,0.884221,0.346809,-0.642829,-0.683004
-0.282192,-0.078616,0.697333,0.080492,0.935439,-0.344203
0.003624,0.357902,0.752841,0.481606,-0.758492,0.439029
0.380587,-0.140192,-0.970647,-0.114219,-0.155223,0.981254
0.363914,0.020271,0.618262,-0.267071,0.508949,0.818318
0.367735,0.327358,0.622001,0.061632,-0.946970,0.315355
0.223671,-0.416797,0.649289,-0.662736,0.700543,-0.264614
0.479637,-0.139338,0.766458,0.837948,-0.425553,-0.341684
0.077237,-0.176772,0.756620,-0.387009,0.902907,0.187035
0.123832,-0.330042,0.859578,-0.567731,0.712507,-0.412331
-0.204890,0.426063,0.527909,0.916469,0.399193,0.027012
0.372478,0.363816,-0.965910,0.111310,0.276109,-0.954659
-0.106564,-0.680963,0.718481,0.142900,0.459412,0.876653
-0.411559,-0.189819,0.023901,0.523398,0.553810,0.647572
0.646500,-0.358878,0.743246,-0.282707,0.958256,0.042693
0.284762,0.584758,0.079233,-0.436441,-0.021231,0.899482
-0.321800,0.179759,0.451294,-0.042009,-0.178102,0.983115
-0.297284,-0.647737,0.484615,0.696743,0.493424,-0.520655
-0.237315,-0.378266,0.609895,-0.638612,0.043688,-0.768288
-0.584749,0.212010,0.300615,-0.595249,-0.440902,-0.671777
-0.327930,0.175918,0.643324,-0.592905,-0.352172,-0.724182
-0.253790,-0.034049,0.769576,0.606380,-0.442137,0.660923
0.433307,-0.164030,0.095927,0.430990,0.896330,0.104118
-0.414656,0.379057,0.617480,0.855922,0.264850,-0.444131
0.187755,-0.264929,0.313882,0.983880,-0.175658,0.033544
0.378740,-0.268221,0.805393,-0.079738,-0.984840,0.154055
0.119283,-0.677427,0.466801,0.679083,0.721154,-0.137055
0.656914,0.259624,0.248603,-0.334156,-0.453381,0.826308
-0.584286,-0.609450,-0.071365,0.480519,-0.223764,-0.847957
0.429285,-0.910807,0.645888,-0.565103,0.475286,0.674361
0.153553,-0.115440,0.879916,0.892127,0.045679,-0.449469
-0.309411,-0.092761,0.669033,-0.193577,-0.679854,0.707338
0.839263,0.056546,-0.962590,0.169313,0.281457,0.944518
0.815672,-0.260113,0.540622,0.306537,-0.014715,-0.951745
0.551798,-0.217924,0.736943,-0.516019,0.680170,0.520666
-0.011202,-0.522390,0.682151,0.550549,0.792208,0.263253
-0.041981,0.309312,0.759089,0.390928,-0.640297,0.661207
-0.270925,-0.509343,0.698993,0.060744,0.786299,0.614854
0.062543,-0.339247,0.626063,0.620040,0.768383,-0.158549
0.226836,0.585978,0.283098,0.798418,0.388219,-0.460233
-0.590811,0.350648,0.498529,0.293284,-0.395101,0.870563
-0.078621,-0.180491,-0.975074,-0.031240,-0.103274,0.994162
-0.446159,0.008809,0.739440,0.879562,-0.444009,0.170957
0.115856,-0.712300,0.660396,0.979737,0.181299,-0.085122
-0.636219,-0.743575,0.514643,0.805434,0.073858,0.588066
-0.498683,0.083615,0.335947,0.463798,0.800450,0.379699
0.413666,0.443561,0.325407,0.427571,-0.877366,-0.217745
0.918543,0.248163,0.484035,-0.380357,-0.054793,-0.923215
-0.236916,0.077885,0.716848,0.250846,-0.650715,0.716692
0.301439,-0.826002,0.491295,0.583017,0.728291,0.360114
0.151972,0.354488,0.669843,-0.715134,-0.662298,-0.223482
0.088769,0.353026,0.634795,0.410490,0.687178,-0.599404
-0.232435,-0.449475,0.794246,0.299026,0.842987,0.447164
-0.034665,0.103247,0.746808,-0.120527,0.978829,0.165428
-0.012586,-0.538668,0.704149,0.535347,0.719025,0.443178
0.502568,0.711385,0.314327,0.852900,0.427679,-0.299421
0.439305,0.694924,0.324138,0.888511,0.415767,-0.194130
-0.116910,-0.063558,0.791951,0.920053,0.387201,0.059811
-0.146502,0.129340,0.706983,-0.754049,0.653679,0.064145
0.134113,0.210425,0.840414,0.823802,0.564278,0.054226
-0.106431,0.645908,0.506775,0.778001,-0.254808,0.574272
0.460261,-0.370280,0.626252,0.900964,0.394484,-0.180682
-0.828917,-0.550617,0.602149,-0.087394,0.160388,0.983177
0.002836,0.014540,0.826217,-0.074084,-0.904117,0.420814
0.452747,0.699862,0.323099,0.987788,0.056936,0.145029
0.387505,0.472763,0.539947,-0.426624,-0.053620,-0.902838
0.179783,-0.176589,-0.652042,-0.683615,-0.728490,0.044428
0.442929,0.127328,0.701544,0.727908,-0.350466,-0.589342
0.020956,-0.117087,-0.151502,-0.650032,-0.757551,-0.059784
0.593843,-0.014297,0.651745,-0.001953,-0.732046,0.681252
-0.282325,-0.495016,0.771222,0.996751,-0.071196,-0.037669
0.203969,-0.467520,0.761181,-0.107838,0.992330,0.060436
0.245090,0.280354,0.475762,-0.716288,0.579442,-0.388816
-0.158822,0.059046,0.757807,0.855958,0.458740,-0.238525
-0.087913,-0.082640,0.805123,0.905023,0.272951,0.326238
0.171807,0.348636,0.622594,0.140759,0.910855,0.387983
0.088640,0.200732,0.847837,0.874007,0.326029,-0.360301
0.320549,-0.197378,0.499406,0.379364,0.684249,-0.622806
0.104388,0.698826,0.483697,-0.254800,0.892864,-0.371310
0.143336,-0.173114,0.871846,-0.737337,0.199646,0.645349
0.106761,-0.398324,0.738428,0.478366,0.835813,0.269411
0.063726,0.446060,0.647251,-0.271703,-0.567992,0.776893
-0.679978,-0.582381,0.574874,0.832894,-0.060319,-0.550135
0.296097,-0.850266,0.681476,-0.396878,-0.853018,-0.338894
0.896996,-0.085384,0.448150,0.232081,-0.402665,0.885438
0.720773,0.159092,0.576142,-0.157397,-0.613024,0.774227
-0.226507,-0.006310,0.638924,0.844270,0.444099,-0.299975
0.095293,-0.181771,0.801250,0.826178,0.531064,0.188151
0.523529,0.539704,-0.968785,-0.121599,-0.092438,0.988266
0.612889,0.761195,0.536411,0.654510,0.446312,-0.610264
-0.506522,0.027526,0.301223,0.259509,-0.554712,0.790537
0.404375,0.690229,-0.967651,-0.084572,0.194136,0.977322
-0.203044,-0.330469,0.344665,0.024411,-0.495824,0.868080
-0.052524,0.751683,0.339240,-0.231790,0.493201,0.838466
0.327665,-0.196952,0.899593,0.273043,0.886227,0.374231
-0.455185,0.194574,0.633647,0.976861,-0.179282,-0.116624
-0.216358,0.745404,0.545008,0.510301,-0.763849,0.395130
-0.756821,-0.350708,0.077897,0.985357,0.165192,0.042222
0.773361,0.262064,0.668601,-0.248729,-0.893068,0.374918
0.294585,-0.190672,0.802208,-0.339104,0.885473,0.317721
-0.184525,-0.441427,0.747591,-0.407622,-0.891836,0.196146
-0.014565,-0.337662,0.687454,0.085161,0.996230,0.016562
0.041784,-0.177015,0.715026,0.692737,0.179852,0.698405
0.122316,-0.675050,0.641380,0.894640,-0.280558,-0.347715
0.117436,-0.256150,0.833194,-0.156875,0.547235,0.822146
-0.555028,-0.474593,0.674377,-0.622284,-0.479542,-0.618710
0.315276,-0.702850,0.388863,-0.002119,0.843230,0.537549
0.079675,0.081664,0.714864,0.700020,-0.154674,-0.697172
0.830301,0.356805,0.632689,0.309650,0.510995,-0.801874
0.933832,0.168358,0.483184,-0.525212,0.024127,-0.850630
0.515223,-0.713337,0.610745,0.838070,-0.005731,-0.545533
-0.443062,-0.049962,0.772140,0.074240,0.960329,0.268807
-0.114866,0.048925,0.791519,0.971689,-0.041032,0.232675
0.376500,0.534765,0.470310,0.370817,0.925359,-0.078777
-0.267169,-0.902393,0.502254,0.506220,-0.421671,-0.752287
0.569790,-0.847279,0.594281,0.685764,0.536533,0.491793
-0.126664,0.131412,0.629882,0.259160,0.421659,-0.868930
0.093713,0.665600,-0.969662,0.110210,-0.091339,0.989702
0.078818,-0.217559,0.255149,-0.784216,0.608152,0.123112
-0.167523,-0.066301,0.750871,-0.720102,0.596892,-0.353798
-0.394029,0.313215,0.624700,0.969223,-0.232174,-0.081870
0.250954,-0.481725,0.063646,0.993298,-0.089525,-0.073105
-0.208317,0.536412,0.354180,-0.372019,-0.605023,0.703953
0.248187,-0.741991,0.642541,0.762548,0.641129,0.086452
-0.339595,-0.437829,0.771613,-0.192620,0.970635,0.144104
0.035718,0.469471,0.480013,0.473795,-0.246834,0.845335
0.430801,0.683645,0.391401,-0.238645,0.655169,-0.716800
0.529196,0.834720,-0.964655,0.084503,0.042867,-0.995501
0.169369,-0.147081,-0.661745,-0.591863,0.800985,0.090124
0.561882,0.784728,0.528341,-0.381828,0.328684,0.863814
-0.831291,-0.512757,0.516519,0.948860,0.278543,-0.148587
-0.059245,-0.377839,0.036681,-0.821048,0.527643,-0.217883
-0.299062,-0.035818,0.787228,0.969838,-0.151483,0.190966
-0.317452,0.096784,0.829051,-0.707779,-0.650232,-0.276128
-0.002767,0.204755,-0.973603,-0.069021,-0.127031,0.989494
-0.304862,0.024112,0.760601,0.965727,0.242699,-0.092028
-0.456834,0.520560,0.435261,0.560812,0.342146,0.753940
-0.178596,-0.541473,0.334840,0.787870,0.113127,-0.605362
0.238433,0.132692,-0.969905,-0.094740,0.151877,0.983848
-0.261433,0.112026,0.768955,0.008758,0.931954,0.362471
0.267631,-0.288158,0.733893,0.726548,-0.429043,0.536703
0.128377,0.021186,0.903911,-0.207133,0.970278,-0.125128
0.307698,0.278768,0.776431,0.736407,0.605452,-0.301882
-0.323710,-0.064411,0.652690,-0.769378,0.112284,0.628848
-0.363781,0.115927,-0.030757,0.908970,0.344046,0.235383
0.354160,-0.265417,0.779711,-0.370979,0.915444,-0.156003
0.513115,0.096479,0.619099,0.914629,-0.021915,-0.403699
0.062741,0.203048,-0.977827,-0.065472,-0.106088,0.992199
0.335838,0.466788,0.543739,0.163497,0.222797,-0.961057
0.206210,0.259869,0.691139,0.972134,-0.207451,-0.109172
0.090089,0.366377,0.068356,0.487173,0.170892,0.856422
0.321667,0.417223,0.685174,-0.772543,0.589189,0.236716
-0.461709,-0.541717,0.161840,-0.462240,0.416193,0.783018
0.365889,-0.575492,-0.979838,-0.045547,-0.108945,0.993004
0.366484,-0.162506,0.733987,0.945515,-0.150882,0.288506
0.290168,0.468617,0.764002,0.921129,0.385796,0.051801
0.370108,0.248589,0.801223,-0.151322,-0.766066,0.624695
-0.123502,-0.259869,0.534495,0.624981,-0.070329,-0.777466
0.285225,-0.229995,0.813018,-0.288990,0.786621,-0.545630
0.603928,-0.523061,0.641812,0.735676,0.138452,-0.663033
-0.165347,0.080628,0.771978,0.768862,0.187654,-0.611258
0.798601,-0.149032,0.103255,-0.244419,0.906286,-0.344825
0.109464,0.145008,0.804799,0.552300,0.397255,0.732907
0.187425,-0.069106,0.965924,0.804257,0.594014,0.017842
-0.187558,0.589758,0.515601,0.307711,-0.237687,0.921314
0.152761,0.455570,0.740182,0.581507,0.571164,-0.579328
0.022408,0.004786,-0.083390,0.521592,0.851037,0.060639
-0.216752,0.031428,-0.984197,0.017659,0.041908,0.998965
-0.238960,-0.803932,0.513253,0.944551,-0.211817,-0.250911
-0.340516,-0.502698,0.685430,0.181816,0.671227,0.718608
0.193290,0.558360,0.532228,-0.623275,0.342488,-0.703015
-0.171215,-0.742479,0.048085,-0.133868,-0.290010,-0.947615
-0.402400,0.239994,0.583754,0.183960,-0.908128,0.376115
-0.235006,0.671574,0.526155,-0.460685,0.108157,-0.880949
0.283644,-0.634202,0.678480,0.961147,-0.041200,0.272945
0.745550,0.062643,0.526681,0.141952,-0.885207,0.443010
0.238304,0.041243,0.863573,0.755832,-0.384950,0.529653
-0.133848,-0.366499,-0.988178,-0.113194,-0.127818,0.985317
-0.164558,-0.359610,0.739183,0.746180,-0.401903,-0.530745
-0.195929,-0.123853,0.650935,0.765828,-0.627054,0.142513
-0.152825,0.127328,0.736457,0.671177,-0.281466,0.685783
0.103600,-0.006189,0.699142,0.571783,-0.088745,0.815591
-0.392710,-0.162079,0.201881,-0.302636,0.843163,-0.444395
-0.812905,-0.665295,0.510918,0.602683,-0.080189,-0.793941
-0.357715,-0.270904,-0.993725,-0.238775,-0.213490,0.947316
-0.251747,0.141045,0.478043,0.318611,-0.703577,-0.635190
-0.298736,-0.646579,0.589112,0.053080,-0.621515,0.781602
0.333662,-0.104039,0.759494,0.005766,0.327087,0.944977
-0.006987,0.259624,0.735094,-0.058891,0.794517,-0.604379
0.132070,-0.013078,0.896529,-0.591031,0.674321,0.442690
0.422962,-0.580735,0.588599,0.562790,0.010195,0.826537
0.089823,-0.049596,0.198224,-0.293105,-0.907382,-0.301243
-0.639710,-0.637677,0.196524,0.293699,0.911252,-0.288724
-0.264662,-0.256699,0.759805,-0.425545,-0.899496,-0.099094
0.201857,0.135497,0.806122,0.093346,-0.805208,0.585599
-0.704824,-0.696327,0.512686,0.318126,0.720977,0.615620
-0.473374,0.265416,0.631987,0.900767,-0.245324,0.358378
0.252998,-0.131596,0.759494,0.605338,0.759279,0.238876
-0.498944,-0.451609,0.725323,0.910708,0.159126,0.381169
0.623697,-0.913611,0.669937,0.837716,-0.330107,-0.435041
-0.145444,-0.378266,0.756984,0.411094,0.524176,-0.745816
0.510677,0.241518,-0.964695,-0.128126,-0.116045,0.984945
0.241928,-0.087822,0.816352,0.937600,0.206541,-0.279726
0.197244,0.341868,0.682043,-0.581563,0.520055,0.625561
0.180640,0.086359,0.588734,-0.094485,0.981903,-0.164134
-0.077040,0.427892,0.540001,0.546490,0.496236,0.674610
-0.221957,-0.360952,0.769522,0.833075,-0.549440,0.064049
-0.197441,0.040695,0.738846,-0.349695,-0.448206,-0.822694
-0.037235,0.206584,0.453130,-0.052033,-0.386760,0.920711
0.153883,0.190184,0.833450,-0.527639,0.623676,-0.576737
0.913009,0.228837,0.620476,-0.482003,-0.413747,0.772325
0.179847,-0.120501,0.753610,0.085213,0.253748,0.963509
0.141032,0.486602,0.429053,-0.685430,-0.364505,0.630335
0.203112,-0.002043,0.760412,-0.224617,-0.972858,0.055634
0.054370,0.140436,0.644970,-0.774518,0.604446,0.186459
-0.170029,-0.220973,0.766404,0.905182,0.287896,-0.312667
0.617833,-0.348270,0.642514,-0.509407,0.771051,-0.382079
-0.177277,0.191099,0.265527,0.638727,0.173184,0.749690
0.286806,0.324128,0.708994,-0.025609,0.708165,0.705583
