0.869278,0.232544,0.526455,0.893694,-0.142109,0.425577
0.608563,0.764516,0.558986,0.125447,-0.340027,0.932011
0.325642,0.467839,0.639197,-0.744001,-0.047943,0.666457
0.012668,0.205108,0.773814,0.819836,0.155042,-0.551208
-0.229297,0.028037,0.424893,0.168934,-0.706274,0.687486
0.835634,-0.089042,0.399337,-0.720872,-0.419878,0.551403
-0.564145,0.067674,0.565809,0.838890,0.134944,-0.527308
-0.539478,0.551854,0.542611,0.234742,-0.760820,0.605020
0.290801,0.472201,0.765337,0.763921,-0.330743,0.554107
0.177700,0.138224,-0.267270,0.269388,0.962985,-0.009502
-0.265400,0.477574,0.340837,0.598288,0.727914,0.334953
0.888693,-0.261308,0.524663,0.485737,0.113576,-0.866695
0.198844,-0.678604,0.532589,0.726259,-0.168290,-0.666504
-0.175768,0.495275,0.683224,0.821742,0.405846,0.400036
0.007482,0.244809,0.214835,0.681076,0.709710,-0.180129
0.644536,0.369283,0.708353,-0.646843,-0.759365,-0.070412
0.675521,0.301640,0.692239,0.964972,-0.023828,-0.261270
0.201169,-0.364731,0.550426,-0.707221,0.059314,-0.704500
0.494731,0.054841,0.341939,-0.441469,-0.725640,0.527780
0.050699,0.313399,0.757369,-0.313028,-0.257998,-0.914030
0.215466,0.359421,0.790975,0.112790,-0.993617,0.001938
-0.766614,0.425040,0.362533,0.149460,-0.546028,0.824327
-0.686556,-0.037140,0.475357,0.801700,-0.209925,0.559651
0.325974,-0.394506,0.386586,0.262243,0.615442,0.743276
0.158285,0.099662,-0.492725,-0.621995,0.776990,-0.097004
0.144320,0.400575,0.831418,0.813504,0.330604,0.478448
0.137603,-0.468787,0.534009,0.957916,-0.152123,0.243426
-0.264933,0.100547,0.427912,0.381130,-0.733447,0.562846
0.426312,-0.512596,0.581896,-0.663193,0.387315,0.640440
-0.140063,-0.439454,0.686436,0.934591,-0.355723,0.000477
-0.389937,0.495907,0.537262,0.835648,0.531694,-0.137821
0.115729,-0.432310,0.330498,-0.201515,0.384876,0.900701
-0.024766,0.210608,0.824471,0.574193,0.806708,0.139732
0.530704,0.092961,0.581841,0.267170,0.748327,-0.607147
0.262409,0.083541,0.834534,-0.748413,0.091291,-0.656921
0.545464,-0.343616,0.645634,-0.390900,-0.865460,-0.313331
-0.232819,-0.166735,0.656179,0.133122,0.397375,0.907949
0.867813,-0.349559,0.314578,0.967867,-0.174408,-0.181149
-0.208815,0.330341,0.172048,0.474962,0.520602,0.709497
0.803184,-0.393621,0.503298,0.480769,0.627919,0.612029
0.273711,0.140247,0.852260,0.813848,-0.463634,-0.350278
0.266199,0.330847,0.752834,0.967225,-0.124199,0.221471
-0.535290,0.520435,0.533417,0.959674,-0.090163,0.266263
0.438544,-0.269400,0.666793,-0.318427,-0.344472,0.883144
0.327305,0.028416,0.426478,-0.627935,-0.521995,0.577251
-0.014462,-0.356829,0.770354,0.831453,0.549845,0.079729
0.728649,0.115340,0.131123,-0.516925,-0.182459,0.836359
0.669470,-0.457471,0.583040,-0.102446,-0.967719,-0.230270
0.300443,-0.318204,0.542156,-0.151996,-0.363818,0.918985
0.095783,-0.661662,0.525242,0.343449,0.819897,-0.458052
-0.026961,-0.235895,0.599801,0.843081,0.029577,0.536973
0.210677,-0.792016,0.424962,0.767494,0.116836,-0.630319
0.105356,0.165155,0.095008,-0.301950,-0.948584,0.094945
0.659629,0.340898,0.692721,0.992598,-0.006059,-0.121297
-0.611091,0.640484,0.435562,0.619670,0.170310,0.766161
0.136341,0.840440,0.640961,-0.279524,-0.866404,0.413776
0.148577,0.072732,0.853887,-0.136159,0.447280,0.883969
0.589416,-0.706925,0.330609,-0.485100,0.836810,-0.253823
-0.230559,0.375288,0.491016,0.772936,0.086070,0.628620
-0.011203,-0.306003,0.425072,0.917145,-0.217819,-0.333766
0.976328,0.383949,0.284238,0.987738,-0.119870,0.100020
0.349115,-0.095300,0.744302,0.281028,-0.386987,0.878217
-0.049103,0.222492,0.714211,-0.585176,-0.506627,-0.633165
0.264669,-0.170022,0.877223,-0.396831,0.138795,-0.907337
0.106951,0.407719,0.786826,0.940708,0.081451,-0.329295
-0.332492,-0.076651,0.560199,-0.110246,-0.505608,0.855690
-0.549453,0.100420,0.633931,0.942060,0.184172,0.280362
0.003091,0.115403,-0.962355,0.247967,0.270988,-0.930096
-0.236277,-0.078357,0.634758,-0.130302,0.643769,0.754044
0.074371,0.130259,-0.712088,-0.584775,0.803522,0.111311
-0.000899,0.128552,0.843300,-0.349060,0.764324,-0.542187
0.063864,0.138667,0.032138,-0.217111,-0.975745,-0.027996
-0.016921,0.276164,0.188438,0.909777,0.404131,0.094778
0.393728,-0.137971,-0.045412,0.738634,0.663742,0.117753
0.367134,0.325663,0.359128,-0.300640,-0.240873,0.922819
0.316600,0.432184,0.743461,-0.722741,0.320211,-0.612463
0.275176,-0.783039,0.565231,0.130011,-0.927387,-0.350785
0.028625,-0.230837,0.713315,0.659172,0.633130,0.405758
-0.108615,0.256630,0.771664,0.690601,-0.340873,0.637868
0.822002,0.113696,0.350224,-0.523840,0.774555,-0.354479
0.371988,0.075766,0.845644,-0.260845,0.957089,0.126259
0.071713,0.168189,0.874701,-0.137910,0.974813,-0.175274
-0.697927,0.623163,0.440111,-0.085725,0.412689,0.906829
-0.121248,0.608117,0.465805,0.437806,0.497561,-0.748839
0.748794,-0.385214,0.279607,0.773048,-0.022857,-0.633935
-0.143719,-0.580365,0.305025,-0.287366,0.040090,0.956981
0.050301,0.911686,0.565479,-0.507670,-0.626122,0.591813
0.214801,-0.525872,0.370776,-0.519591,-0.792264,0.319912
0.841551,-0.036824,0.324420,-0.204434,-0.628258,0.750665
-0.215929,-0.378323,0.723639,0.323191,0.805710,0.496365
-0.125968,0.011600,0.806179,-0.654250,-0.755807,0.026708
0.042322,0.208142,0.803395,0.173407,-0.715540,0.676707
0.051031,-0.418529,0.783311,-0.697968,0.485897,0.526066
0.063933,-0.022790,0.860820,0.070079,-0.755174,0.651768
0.438946,-0.273825,0.564031,-0.014287,0.776401,0.630077
0.031552,0.216677,0.700937,-0.541661,0.085704,0.836217
0.067257,0.136012,0.704948,0.578636,0.373235,0.725173
0.171714,0.089041,0.074318,0.159039,0.971066,-0.178150
0.153630,-0.166735,0.553638,-0.901468,0.431699,0.031488
0.535688,-0.167873,0.547173,-0.180560,0.504846,0.844114
0.364009,0.153839,0.085290,-0.184369,0.798408,0.573196
0.143589,-0.054145,0.864308,-0.396703,0.604752,0.690581
0.481233,0.482884,-0.949701,-0.099517,-0.133840,0.985993
0.874797,0.576825,0.454598,0.490007,0.001104,-0.871718
0.345056,-0.571893,0.585480,0.794570,-0.424032,-0.434575
-0.439676,-0.306951,0.445942,0.909326,0.394192,-0.133188
-0.166060,-0.457913,0.525711,0.970931,0.099448,0.217721
-0.341266,0.024054,-0.981433,-0.127172,-0.154021,0.979849
0.455902,-0.785504,0.466673,-0.171941,-0.122348,0.977480
0.118586,-0.034738,0.328196,-0.054229,-0.340191,0.938791
0.299380,-0.442931,0.572067,0.014390,-0.454984,0.890383
0.017786,-0.497171,0.788219,-0.697553,-0.705711,0.124063
0.263740,0.712299,0.626515,0.879296,0.139379,0.455425
0.079691,-0.005468,0.907990,-0.542315,0.357468,0.760336
-0.660359,-0.050795,0.496351,0.859082,0.500741,-0.106005
-0.382157,-0.386415,-0.990806,-0.062558,-0.154004,0.986088
0.715082,-0.077789,0.734046,0.946271,-0.218893,0.238028
-0.177764,-0.295445,0.796792,-0.556375,-0.763499,-0.327896
0.133813,0.433195,0.822872,0.990928,0.064765,-0.117757
-0.180423,0.399943,0.166838,0.044925,-0.997045,0.062317
-0.477706,-0.347093,0.364739,-0.032539,0.282158,0.958816
-0.132283,-0.304485,0.633352,0.738200,0.374840,0.560853
0.122377,0.298163,0.881180,0.240584,-0.900219,0.362940
-0.179161,-0.242469,0.550233,0.000389,-0.186668,0.982423
0.047042,-0.670323,0.476970,-0.516515,0.259403,0.816041
0.886830,0.146253,0.512712,0.906815,0.177659,0.382261
0.633165,0.641875,0.587327,0.252983,0.737951,-0.625642
0.558963,0.421184,0.537662,-0.088741,-0.541134,0.836241
0.467800,-0.560957,0.408572,-0.189168,0.030319,0.981477
-0.291332,-0.073237,0.721517,0.788981,0.562402,-0.247415
-0.043982,-0.304928,0.734391,-0.403028,-0.287800,-0.868757
0.070982,0.554951,0.805807,0.770068,0.524356,-0.363381
0.157818,0.528401,0.803326,0.741084,-0.426302,0.518711
0.209549,-0.348421,0.783780,-0.420778,-0.876400,-0.234242
-0.218790,0.503809,0.684299,-0.486666,0.561671,-0.669090
0.406694,-0.001486,0.803243,0.832979,0.291371,-0.470371
0.498855,0.018112,0.750519,0.055845,-0.835306,0.546941
0.666480,0.350002,0.669591,-0.582069,0.324086,0.745764
0.432363,-0.859974,0.439766,0.802998,0.463370,-0.374810
-0.183418,0.340645,0.741697,-0.003079,0.937029,0.349238
-0.141126,-0.394317,0.298477,0.349161,0.235028,0.907110
0.136073,0.482378,0.830150,0.770740,-0.436583,0.464064
-0.165464,-0.353479,0.677021,-0.027248,-0.539667,0.841437
-0.720934,0.680943,0.437919,-0.533788,0.826156,-0.180378
0.116991,-0.385593,0.760347,-0.388582,0.905465,0.170696
0.331827,-0.149919,0.637887,0.870663,0.331600,-0.363300
-0.295853,-0.295698,0.682038,-0.020515,0.293118,0.955856
0.285351,0.006796,0.889064,0.913783,0.356165,-0.195314
0.465008,0.110851,0.762511,0.069274,-0.041623,0.996729
0.720670,0.031324,0.592399,-0.358674,-0.730482,0.581162
-0.208218,0.576003,0.631946,0.698910,0.440770,-0.563247
0.918481,0.586560,0.467666,0.397747,0.701935,-0.590834
0.406629,0.236843,0.650624,-0.308255,0.402581,-0.861921
-0.045646,-0.604767,0.580793,-0.428611,0.848063,0.311580
0.320390,-0.326927,0.025466,0.899458,0.143511,-0.412770
-0.135477,-0.137908,0.633035,-0.294974,0.354238,0.887415
-0.119252,-0.204792,0.760664,0.842328,0.360908,0.400285
-0.490742,0.562348,0.543727,-0.305543,0.620451,-0.722277
-0.285878,0.293106,0.811734,-0.792458,-0.595058,-0.133851
0.755243,0.003066,0.387221,0.535481,0.702532,-0.468731
0.156755,0.543446,0.806827,0.871583,-0.090806,0.481764
0.354833,-0.845055,0.313158,0.441410,0.570686,-0.692441
0.421657,-0.083921,0.627411,0.998799,-0.042642,-0.024147
-0.341400,0.513101,0.507240,0.351961,-0.293849,0.888694
0.041259,0.195752,0.888609,0.223310,-0.960003,0.168900
0.299445,0.063818,0.803891,0.933517,0.111697,0.340691
0.109743,0.206246,-0.107800,0.943675,0.329429,-0.030889
-0.236277,0.262130,0.794160,-0.603213,0.048164,-0.796124
0.839554,-0.410310,0.511403,-0.910068,0.239936,0.337945
0.019251,-0.532825,0.379253,0.951104,0.275601,0.139449
-0.545996,0.592503,0.551639,0.879723,-0.373063,0.294807
0.234415,-0.288997,0.537593,0.238777,-0.158170,-0.958106
0.168658,0.162057,0.881386,0.970529,0.239319,0.028283
0.224374,-0.114644,0.549599,-0.525396,-0.568734,0.632851
-0.194253,-0.425040,0.557759,-0.708969,-0.001576,0.705238
-0.256621,0.667541,0.613103,0.172297,0.984997,0.009732
-0.263671,-0.230015,0.541025,0.610797,-0.259585,0.748025
0.580240,0.094225,0.589339,0.156676,0.857431,-0.490169
-0.002295,0.147644,0.766963,0.136123,-0.946383,-0.292968
0.035873,-0.132787,0.755371,-0.286378,0.270379,0.919175
-0.251504,0.038657,0.822665,0.596753,0.429073,0.678073
0.226505,0.450769,0.641650,-0.325192,-0.361631,0.873769
0.591210,-0.212568,0.628817,-0.613338,0.783517,-0.099587
-0.552842,0.573348,0.434818,0.775511,0.047128,0.629573
0.342995,0.440781,0.675560,0.217948,-0.934190,0.282467
-0.123375,0.171603,0.799039,0.923489,0.181619,0.337909
-0.258553,0.237285,0.385015,-0.394855,-0.788435,0.471656
0.534028,0.609129,-0.942740,-0.009858,-0.119165,0.992826
0.021576,-0.332554,0.334482,0.327433,0.350690,0.877385
-0.350774,0.563992,0.616908,0.806438,0.431686,0.404111
0.577777,0.104719,0.586886,0.354783,0.327443,-0.875734
0.077496,0.773809,0.546429,-0.677505,-0.591970,0.436531
-0.331226,-0.372380,0.696236,0.128470,0.952009,0.277801
0.297582,-0.115339,0.844831,0.860880,0.240867,0.448184
0.621594,-0.490344,0.483807,0.237442,-0.324656,0.915544
0.157619,0.129500,0.524319,0.909232,-0.363053,0.203689
-0.049635,0.069886,0.891890,-0.320405,0.932150,-0.168635
0.550050,-0.260865,0.552880,0.325032,-0.078389,-0.942449
0.701385,0.085881,0.593281,-0.494737,-0.180304,0.850133
-0.359285,0.073806,0.565837,0.500423,0.350672,0.791584
-0.069716,0.643961,0.580242,0.385047,0.530443,-0.755228
0.296255,0.064703,0.843893,0.278270,0.912064,-0.301171
-0.229094,0.537883,0.705927,0.476990,-0.852724,0.212939
-0.858572,0.708190,0.693341,0.403389,-0.049512,0.913688
0.268525,0.062553,0.847560,0.882230,0.107274,0.458435
0.493266,0.892215,0.556808,-0.874341,0.168744,0.455031
0.433025,-0.528716,0.398979,0.339219,0.286449,-0.896034
0.241797,-0.829251,0.443571,0.483440,0.709418,0.512847
-0.426576,0.567595,0.156058,0.068449,-0.567259,0.820690
-0.207419,-0.339191,0.716292,0.533299,0.269760,0.801762
0.136674,-0.136391,0.791334,-0.599202,0.508804,0.618123
0.132019,0.507792,0.800142,0.908160,-0.281279,0.310045
0.195118,-0.136264,0.717643,-0.717659,0.404443,0.566914
-0.188937,0.365742,0.694348,0.270717,0.332803,-0.903302
-0.250506,-0.016784,0.665828,0.953512,0.281535,-0.107481
-0.151832,0.447798,0.572564,-0.048453,0.208432,0.976836
0.048308,0.154850,-0.884198,-0.148207,0.987773,-0.048375
-0.020578,-0.672725,0.477700,-0.222668,0.439804,0.870053
0.093055,0.175522,0.206385,0.735534,0.666010,-0.124175
0.384353,0.388880,0.656427,-0.846410,0.305465,0.436212
0.573325,-0.771344,0.317665,-0.760979,0.648506,0.018730
0.638286,0.684167,0.573336,0.689672,0.670448,-0.273590
0.290204,-0.913140,0.443198,0.010662,0.336521,0.941615
-0.919012,0.725828,0.694927,0.473058,-0.047685,0.879740
0.114065,0.305497,0.781464,0.935322,0.172396,0.308955
0.622662,-0.336473,0.549640,-0.266532,-0.130125,0.955002
0.154693,0.169390,0.024019,0.218041,0.962618,0.160703
0.647328,0.670513,0.588099,-0.742808,-0.634919,-0.212403
0.151901,-0.136264,0.844927,-0.656989,0.322164,0.681598
-0.176303,0.481556,0.668709,0.452044,0.860820,-0.233764
-0.374978,-0.194614,0.420785,0.900084,-0.334088,0.279705
0.974534,0.168568,0.503091,-0.853478,0.301387,-0.425138
-0.430500,-0.267187,0.360355,0.229943,-0.084547,0.969525
-0.604042,0.383886,0.436885,0.330535,-0.007096,0.943767
-0.097641,-0.552043,0.569352,0.859146,0.063047,-0.507833
-0.330098,-0.171476,0.397021,-0.549206,0.771466,-0.321268
-0.183284,-0.396972,-0.987125,-0.265444,-0.031043,0.963626
-0.111208,0.142839,0.737878,-0.176266,-0.854147,0.489248
0.740751,0.130069,0.608816,-0.702068,0.218258,0.677838
-0.614813,0.120587,0.629327,0.968763,-0.099781,0.227031
0.516606,-0.213895,0.468355,0.902416,0.409952,-0.132609
0.117592,-0.025634,0.766370,-0.400957,0.231502,0.886364
-0.476643,0.501280,0.518984,-0.200953,-0.619098,0.759168
-0.280959,-0.399816,0.309436,0.905833,0.350679,-0.237678
-0.669734,-0.096311,0.447251,-0.542871,0.833531,-0.102554
-0.249442,0.358725,0.746397,0.795411,0.413046,0.443525
0.071644,0.968139,0.578091,0.198929,-0.954332,0.222885
-0.061006,-0.133863,0.852067,0.319601,0.421184,0.848799
-0.179428,-0.626766,0.313406,-0.033301,0.628158,0.777373
-0.029688,-0.439707,0.777701,0.246118,0.897307,0.366424
-0.286081,-0.273003,0.566830,0.503009,0.092636,0.859303
0.144921,-0.178177,0.770161,0.756506,-0.522078,-0.393870
0.307890,0.011537,0.670308,-0.329012,-0.413193,0.849131
-0.049501,0.082909,0.877816,-0.437403,0.777227,0.452323
0.562485,-0.110914,0.707140,0.111616,0.275885,-0.954688
0.694137,0.072732,0.596342,-0.230607,-0.566633,0.791042
0.463811,-0.088662,0.713411,-0.654414,0.590453,-0.472343
0.896006,0.858267,-0.920024,-0.079166,-0.333019,0.939591
-0.208417,0.602491,0.688269,0.915844,0.153191,0.371163
0.723592,0.213516,0.013695,-0.440223,0.874859,-0.202051
-0.069716,-0.035244,0.361802,-0.578305,0.652394,-0.489842
0.873998,-0.289186,0.526814,0.485737,0.113576,-0.866695
0.175305,0.126782,-0.161228,0.830696,0.555906,-0.030225
-0.227698,0.128299,0.815980,-0.439115,-0.772641,-0.458480
0.574189,0.017922,0.768080,0.858430,0.101464,0.502794
-0.130290,0.129563,-0.973259,-0.227789,0.039905,0.972892
-0.218989,0.287037,0.795745,0.621833,-0.363832,0.693506
-0.233883,0.072668,0.441007,-0.415367,0.641815,-0.644627
0.120315,0.088219,0.956262,0.267021,0.513843,-0.815270
0.158617,0.101495,0.957090,-0.114488,0.935177,0.335166
-0.509159,0.181085,0.215276,-0.429926,0.264394,-0.863284
-0.185077,-0.512153,0.310043,0.236695,0.496683,-0.835034
0.920940,0.244618,0.516737,0.798031,-0.219188,0.561341
-0.324111,-0.309922,0.560241,0.743344,0.550802,-0.379549
0.242462,0.132345,0.779286,-0.548553,-0.522192,0.652997
0.270720,-0.154534,0.862543,0.473357,0.878920,0.058585
-0.764220,0.701109,0.498225,0.834641,-0.411331,0.366308
-0.064464,-0.393116,0.760746,0.841752,0.264775,0.470476
0.325244,0.202895,0.819991,0.212404,-0.745813,0.631385
-0.666877,0.462654,0.366048,-0.484725,0.847807,-0.215094
0.738819,0.209597,0.147430,0.811782,0.217501,-0.541944
-0.480965,0.629737,0.531101,-0.603413,0.103876,-0.790634
0.222645,0.105794,0.851268,-0.484471,0.228312,0.844489
0.581303,0.468470,-0.947882,-0.271082,-0.098364,0.957517
0.659897,-0.166356,0.719835,0.925635,-0.376228,0.040649
0.110275,0.159971,0.945800,-0.940787,0.061107,-0.333445
0.248777,-0.241331,0.158788,-0.365316,0.267043,0.891758
-0.637288,0.349433,0.592703,0.895690,-0.235998,0.376889
-0.629573,0.732908,0.440207,0.759613,0.098909,0.642810
-0.602979,0.096121,0.646241,0.924583,0.373655,0.074349
0.446523,0.005911,0.872358,0.884044,-0.387786,-0.260938
0.330163,0.352910,0.350444,-0.300640,-0.240873,0.922819
-0.190532,0.448620,0.609216,0.769148,0.593411,-0.237223
0.252900,0.198976,0.726437,0.793278,-0.605337,-0.065407
-0.143987,0.180769,0.417422,0.104340,0.749210,0.654063
-0.651650,0.236400,0.232079,-0.481926,0.216497,-0.849045
0.003825,-0.201694,0.703266,0.336209,0.487025,0.806084
-0.217061,0.331415,0.400633,-0.342242,-0.413528,0.843721
0.096046,0.542055,0.829613,0.710467,0.595044,0.375713
0.189335,0.121472,0.949508,0.916251,-0.308037,0.256118
0.313941,0.022600,0.813485,0.827548,-0.410484,-0.382972
0.755312,0.109207,0.409840,0.297125,0.194982,-0.934719
-0.207419,0.345829,0.140124,0.179568,0.969808,0.165008
-0.342861,0.417644,0.509142,0.774413,0.280620,0.567043
0.047310,0.163321,0.837153,-0.613305,0.749658,0.248736
-0.195649,-0.198660,0.509446,0.803342,0.164151,-0.572448
0.653379,0.543320,-0.942506,0.018373,-0.081780,0.996481
-0.658630,-0.061415,0.502843,0.739409,0.634526,0.225058
0.159746,0.110535,0.432805,0.009598,-0.128055,0.991721
0.579972,-0.382179,0.647867,0.468565,0.852520,0.231640
0.780246,0.180453,0.602407,0.340125,-0.702299,-0.625373
0.126699,0.168885,-0.329892,0.864953,-0.501167,-0.026231
0.630239,0.400196,0.691949,0.909042,0.388464,-0.150788
0.274312,0.120397,0.571103,-0.371821,-0.789733,-0.487925
-0.090393,0.207131,0.761201,0.080531,0.412772,0.907267
-0.241930,0.356387,0.675822,0.977970,0.169683,-0.121580
0.476047,-0.339824,0.692763,-0.461606,0.452966,0.762720
0.886696,0.444828,0.424149,0.457648,0.887011,0.061403
0.155756,0.599140,0.666669,-0.025040,-0.710690,0.703059
0.266333,-0.329772,0.326225,-0.647643,0.437908,0.623534
0.128095,-0.101179,0.837235,0.931293,0.144705,-0.334297
0.348315,-0.192654,0.842184,0.967677,0.250679,0.027582
-0.469464,0.529917,0.540309,0.532492,-0.514812,0.671879
0.360815,0.226223,0.817731,0.025055,-0.989887,0.139624
-0.145915,0.155167,0.794628,0.938629,-0.070301,0.337688
-0.014993,-0.784746,0.474613,-0.630115,-0.714758,-0.303440
0.033414,0.278629,0.817565,-0.425613,0.816020,-0.391108
0.606303,-0.346714,0.705637,0.495178,0.859640,0.125768
-0.091923,-0.054904,0.700578,-0.349468,-0.211901,-0.912672
-0.053093,-0.223314,0.275403,0.845687,0.258746,0.466758
-0.371188,-0.573537,0.333986,0.544871,-0.283867,0.789009
-0.289936,-0.151563,0.487294,-0.787404,-0.047912,0.614573
-0.477175,-0.171476,-0.989110,-0.165935,-0.197558,0.966145
-0.193657,0.219521,0.781864,0.094105,0.864552,0.493654
-0.000696,-0.550842,0.412239,0.946814,0.239764,0.214606
-0.265002,-0.375920,0.716582,0.066344,0.787501,0.612732
0.151832,0.170591,0.589160,0.954721,-0.287017,-0.078287
0.735033,0.630622,0.392762,-0.269253,0.496664,0.825123
-0.001962,0.884249,0.597279,-0.740505,-0.665575,-0.093076
0.001297,-0.602933,0.327604,-0.625021,0.214749,0.750488
0.591875,0.509182,0.499328,-0.323538,0.816145,-0.478780
-0.782105,0.584284,0.300697,-0.428542,-0.805637,0.409024
0.701584,0.360812,0.708311,-0.574679,-0.681334,0.453351
0.351509,-0.183804,0.839868,0.991458,0.128700,-0.021150
0.059079,-0.361254,0.329409,-0.280095,0.089324,0.955808
-0.290269,0.306508,0.546787,-0.481616,-0.586523,-0.651182
0.246451,-0.358852,0.352663,-0.618726,0.779132,0.100656
0.194322,0.469672,0.754778,-0.596975,0.627235,-0.500197
-0.068652,0.341467,0.304639,-0.700657,-0.711821,0.048901
0.147713,-0.228245,0.785379,-0.578049,0.759375,0.298679
0.286613,0.068433,0.832563,0.789757,0.580363,0.198652
0.312809,0.514366,0.779631,0.943855,-0.130595,0.303451
-0.126698,0.012106,0.785972,-0.656876,-0.671490,0.342951
0.344992,-0.063755,0.471346,-0.098175,-0.986865,-0.128297
0.116196,-0.114139,0.836326,0.998768,-0.045518,-0.019758
0.324245,-0.173310,0.833252,0.321414,0.885854,-0.334597
0.215730,0.362582,0.585645,0.944502,0.072510,-0.320404
0.157420,0.175143,-0.889753,-0.203600,0.978747,-0.024534
-0.707699,0.170402,0.206220,0.484770,-0.423780,0.765120
0.080089,0.329772,0.620244,-0.017784,-0.359157,0.933108
-0.012400,0.152575,0.905509,0.735627,0.668866,0.107106
-0.270651,0.309100,0.756418,0.766721,0.465838,0.441740
0.511618,0.292348,0.709359,0.442556,0.485215,-0.754129
-0.239800,-0.539653,0.553183,0.165531,0.454679,0.875138
0.531366,-0.576509,0.611063,-0.742423,0.091693,0.663627
-0.135477,0.600531,0.464536,0.437806,0.497561,-0.748839
0.626582,0.851756,0.576120,-0.482139,-0.815845,0.319278
0.324976,0.317255,0.546773,-0.344236,-0.025657,0.938533
-0.332224,-0.239688,0.661844,-0.516946,-0.422855,-0.744285
0.131289,-0.579353,0.518984,0.915686,-0.335728,-0.220920
0.719603,0.242343,0.569572,0.544472,-0.136295,0.827631
-0.047841,-0.277239,0.731207,-0.335284,-0.711397,-0.617656
0.988231,0.168189,0.498832,0.836781,-0.251097,0.486567
0.780579,0.122926,0.414389,0.273169,0.294277,-0.915849
0.161543,0.277934,0.879209,0.981609,0.105791,-0.158909
0.736692,-0.476625,0.589105,0.491667,0.651582,0.577672
0.745004,0.532320,0.415079,-0.423248,-0.740078,0.522634
-0.266796,-0.132914,0.634014,-0.869260,0.477551,-0.127799
0.042055,-0.265607,0.433343,0.845954,-0.215738,-0.487668
-0.143123,0.322060,0.677186,-0.320892,0.025695,-0.946767
-0.581567,-0.041565,0.451483,-0.318226,-0.799057,0.510138
-0.423386,0.217815,0.272839,-0.415338,-0.796489,0.439432
-0.114865,-0.428454,0.561867,0.291759,-0.598437,-0.746157
0.297781,-0.171476,0.863977,0.473357,0.878920,0.058585
0.596660,0.865790,0.570827,0.693885,0.459096,-0.554756
-0.254629,-0.318267,0.681073,-0.011452,0.498677,0.866712
-0.229958,0.321112,0.168892,-0.319920,-0.882712,-0.344197
0.171381,0.108702,-0.077571,0.572115,-0.818102,0.058265
0.138667,0.304422,0.503188,0.913302,-0.205224,0.351799
0.240733,0.053766,0.668130,0.756607,0.637826,-0.143958
0.465142,0.250814,0.704190,0.315172,0.039516,-0.948211
-0.695269,0.772608,0.349934,-0.232333,-0.959785,0.157590
0.580106,-0.518412,0.691343,0.955968,0.291493,-0.034007
-0.486619,0.341720,0.548993,0.048764,-0.534724,0.843618
0.178564,0.205803,0.838090,-0.142861,0.022969,0.989476
-0.232953,0.348484,0.133907,0.073749,0.990108,0.119364
0.186011,-0.500205,0.630361,-0.759716,0.610185,0.224735
0.404568,0.478838,0.380287,-0.136904,-0.761545,0.633487
0.164798,0.088219,0.034509,0.750213,0.661152,0.007666
0.102828,-0.564118,0.505145,0.425741,0.271627,-0.863113
0.189936,-0.823624,0.414968,-0.186833,-0.397336,0.898453
0.095713,0.066157,0.952899,-0.568057,-0.547048,0.614857
-0.132814,0.061036,0.668764,-0.543068,0.754464,0.368595
0.250441,0.006859,0.901332,0.861467,0.464187,0.205924
-0.504970,0.433954,0.236683,-0.411494,-0.019332,-0.911207
-0.586818,0.532699,0.424259,0.903682,-0.249819,0.347779
-0.013662,0.042387,0.845533,0.509469,-0.647092,-0.567199
-0.063531,0.490343,0.691205,0.195219,0.842313,-0.502392
0.388943,-0.854095,0.428945,0.342269,0.562164,-0.752877
0.162871,0.027847,-0.962245,-0.064406,-0.401477,0.913602
-0.121711,0.362329,0.624282,-0.037884,-0.941683,0.334363
-0.235279,-0.373708,0.330305,-0.569566,-0.768630,0.291210
0.708166,0.080128,0.400398,0.620412,0.565641,-0.543267
0.235880,-0.301008,0.748782,0.843565,-0.375186,-0.384231
-0.264203,0.414104,0.635075,0.975603,0.008318,0.219384
0.180159,-0.177166,0.727554,-0.538662,0.448613,0.713154
-0.285014,0.330278,0.805959,0.305608,-0.803230,0.511298
0.079691,-0.862629,0.431303,-0.050976,-0.998428,0.023300
0.087605,0.694661,0.529130,-0.726772,-0.476260,0.494954
0.250043,-0.800424,0.577292,-0.310770,-0.950479,0.003470
-0.236943,0.102253,0.428477,0.504394,-0.653556,0.564314
-0.238205,0.170086,0.481643,0.506026,0.860316,-0.061594
0.516740,0.284951,-0.949908,0.208522,0.160366,-0.964780
0.660558,0.679173,-0.935352,-0.186108,-0.052468,0.981127
0.313742,0.233935,0.831377,-0.057127,-0.570730,0.819148
0.322983,0.198091,-0.351561,0.914669,-0.403093,0.029926
0.582034,0.869836,0.586141,0.908639,0.417295,0.015490
0.144121,-0.376932,0.616150,0.713572,0.390456,0.581687
-0.068320,0.192401,0.740842,0.354614,0.804023,-0.477280
0.021710,0.273193,0.310539,0.675183,0.737242,0.024548
0.081952,0.186332,-0.600932,-0.757701,0.652014,0.027671
0.096379,0.972184,0.610167,-0.816819,0.537806,-0.208736
-0.694470,-0.094541,0.455067,0.840213,-0.508798,0.187529
-0.428702,0.752442,0.409813,-0.459522,0.321979,-0.827749
0.595796,0.531308,0.418125,0.361118,0.645050,-0.673428
-0.227166,-0.076335,0.369122,-0.512291,0.542292,-0.665941
0.448584,0.127414,0.580352,0.319792,0.480141,-0.816822
0.192991,0.290072,-0.364642,0.833485,-0.548720,0.064880
0.633696,-0.335082,0.620643,0.935810,0.111055,0.334553
-0.712821,0.498119,0.261591,-0.138983,-0.987648,0.072358
0.046579,0.004583,0.798832,0.243052,-0.348582,0.905216
0.777584,0.746879,-0.930886,-0.050264,-0.166468,0.984765
-0.125039,-0.622088,0.307658,0.128666,0.536131,0.834271
0.141260,0.759585,0.559386,0.215773,-0.614983,0.758444
-0.089131,-0.559756,0.587726,0.043936,0.997270,-0.059346
-0.059542,0.213074,0.737961,0.704286,0.505676,-0.498270
0.578844,-0.333755,0.719201,0.892963,-0.122288,-0.433201
-0.047574,0.018554,0.325812,0.527073,-0.710560,0.466153
-0.120916,-0.072668,0.712695,0.023631,0.876156,0.481448
0.958175,0.092329,0.484276,0.794373,-0.582167,0.173356
-0.089528,-0.142144,0.869435,0.849677,0.368262,0.377402
-0.201035,-0.220975,0.650527,-0.237532,-0.406663,-0.882159
0.117856,-0.284888,0.822872,-0.673950,0.667613,0.316362
0.296186,0.248032,0.715396,-0.467844,0.648190,-0.600809
0.641545,0.785631,0.552080,0.205526,-0.385190,0.899659
0.513416,0.075386,0.783022,-0.660029,-0.676334,0.327007
0.560756,-0.020008,0.285796,0.440665,0.856944,-0.267322
0.323048,-0.077220,0.402066,0.986551,-0.064672,0.150119
-0.169518,0.212441,0.782277,0.399572,0.867953,0.294958
0.263671,-0.125770,0.849035,0.893766,0.284178,0.347024
0.575054,0.491419,-0.947358,-0.251457,-0.152758,0.955738
0.179230,0.053134,0.925923,0.315910,0.054769,-0.947207
-0.840484,0.458798,0.169181,-0.021344,-0.705059,0.708828
-0.220454,0.435850,0.631809,0.930033,0.358368,0.081307
0.847602,0.632392,0.451138,-0.414985,-0.336279,0.845402
-0.119852,0.088978,0.851406,0.987252,0.150897,-0.050641
-0.669868,-0.073237,0.513581,0.739409,0.634526,0.225058
0.209947,-0.586876,0.646902,0.905324,-0.090867,-0.414887
0.747731,0.536366,-0.941830,-0.091124,-0.155760,0.983583
-0.162805,0.434080,0.323124,-0.706960,-0.657504,-0.260568
0.062468,-0.286721,0.439766,-0.686680,-0.048359,0.725350
-0.088067,0.630496,0.470230,0.336586,0.427328,-0.839107
0.173313,-0.469987,0.621567,-0.140347,-0.328485,0.934024
0.108481,-0.454310,0.258214,-0.640225,-0.418785,-0.643996
0.204894,0.239688,0.788977,0.964821,0.219370,-0.144904
-0.151300,0.158580,0.749609,0.284698,0.957864,0.037995
0.294125,-0.144103,0.855844,0.491595,0.840141,0.229123
-0.030752,0.250435,0.613393,-0.623839,-0.497317,0.602911
-0.145716,-0.116161,0.881566,0.973139,0.178289,0.145647
-0.252235,0.262509,0.515869,-0.039301,-0.925983,0.375515
0.238607,0.361507,0.799067,0.837926,0.533089,0.117029
-0.274645,0.070582,0.839000,0.556130,0.707996,0.435271
0.574851,-0.540285,0.599719,-0.424630,0.742663,0.517823
0.245522,0.284824,-0.951865,0.013631,0.114062,0.993380
-0.529503,0.513039,0.538875,0.152903,-0.875402,0.458577
-0.220052,-0.161551,0.425403,0.512181,0.174818,-0.840898
0.157952,0.439327,0.603248,0.986062,0.151955,-0.067757
-0.264069,0.106932,0.828165,0.035513,0.683319,0.729256
0.528241,0.759333,0.551240,0.468656,0.469692,-0.748165
-0.330694,0.284382,0.802223,0.295546,-0.724481,0.622720
-0.103627,-0.160730,0.724783,-0.291237,-0.204952,0.934439
0.336680,-0.285015,0.757962,-0.558539,0.617629,0.553686
-0.054091,0.322123,0.710503,0.936085,0.346218,-0.062276
0.345921,0.447798,-0.946407,-0.023537,-0.072064,0.997122
-0.125104,-0.018365,0.787695,-0.681489,-0.689252,0.245976
-0.014462,0.485033,0.460718,-0.294631,-0.418436,0.859130
0.373582,0.031893,0.829695,0.249144,0.311799,-0.916902
-0.122510,-0.147327,0.191098,0.008443,0.111455,0.993734
0.348315,-0.022537,0.504855,0.660148,0.495425,-0.564588
0.579376,0.615198,0.590332,-0.189168,0.654651,-0.731879
-0.113136,0.046686,0.550564,-0.376613,0.072005,-0.923568
0.215600,-0.456775,0.649025,-0.215301,-0.655988,-0.723412
0.738555,0.661219,0.538310,-0.660003,-0.149339,-0.736270
0.934438,0.119322,0.504456,0.845061,0.197104,0.497013
-0.393927,0.313336,0.509211,0.646134,0.715780,0.264895
0.074837,0.539716,0.805325,-0.593655,-0.756847,0.273416
-0.211741,-0.681259,0.322462,0.036117,-0.662623,-0.748082
-0.271982,0.048519,0.818530,0.422990,0.014478,0.906019
0.150038,0.264658,0.707925,-0.036061,0.492391,0.869627
-0.141860,-0.350633,0.538572,-0.144362,-0.374269,0.916014
-0.128492,0.391029,0.327342,0.761642,0.605963,0.229585
0.102629,-0.052691,0.835953,0.996917,-0.008165,0.078037
0.291398,-0.291463,0.763214,-0.519424,0.614814,0.593466
-0.178828,-0.002307,0.079666,-0.035898,0.657209,0.752853
0.002096,-0.177103,0.543644,-0.298874,0.025325,0.953957
-0.879184,0.219585,0.449994,0.779868,-0.254446,0.571894
-0.250173,0.302652,0.772449,-0.391035,0.731263,0.558879
-0.100835,-0.331669,0.782429,-0.008224,-0.116401,0.993168
-0.023504,-0.471442,0.581262,0.648220,-0.711111,-0.272272
-0.177367,0.521636,0.653422,0.950476,-0.306669,0.050491
0.264868,-0.071277,0.841274,0.978646,0.184164,0.091298
-0.413411,-0.198028,-0.985513,-0.163334,-0.176817,0.970597
-0.324578,-0.375920,0.702867,0.058071,0.992382,0.108658
-0.158747,0.216487,0.738375,0.763719,0.595192,0.249959
0.713820,-0.507349,0.584253,0.491095,0.286816,0.822534
0.158682,0.463287,0.770506,0.788474,-0.115939,0.604042
0.112405,0.551222,0.818061,0.928828,-0.366609,0.053626
0.148508,0.392168,0.790217,0.377006,0.383532,0.843071
-0.274774,0.022031,0.853583,0.538385,0.763703,0.356229
0.594602,0.598887,0.578257,-0.560864,0.502512,-0.657961
0.692940,0.810412,-0.927729,-0.099952,-0.442536,0.891163
0.688419,-0.004204,0.750877,0.566864,-0.517255,0.641180
0.123241,-0.268515,0.825643,-0.673950,0.667613,0.316362
-0.246184,0.367007,0.726699,-0.222960,0.487801,0.844002
0.622990,0.098018,0.590097,-0.064793,-0.973410,0.219714
-0.130822,0.266618,0.731551,0.195221,0.476154,0.857418
0.681304,0.357588,0.705375,0.508808,0.789153,-0.344022
-0.175439,0.270917,0.713577,-0.432181,-0.901784,0.002239
-0.193389,-0.329330,0.330374,-0.505439,0.409067,-0.759734
0.458227,0.036065,0.330595,0.315513,0.751577,-0.579296
-0.306957,0.042767,0.833018,-0.902580,-0.153833,-0.402101
-0.161807,0.195752,0.764317,-0.144789,0.189102,-0.971224
0.952725,0.027026,0.448009,-0.511432,-0.639816,0.573649
0.527113,-0.011917,0.303798,0.369141,0.904197,-0.214853
0.422854,-0.216550,0.542638,-0.133875,0.256425,0.957248
0.454104,-0.378766,0.542817,-0.293930,-0.426009,0.855641
-0.034274,0.043272,0.862709,0.833504,-0.464759,0.298781
0.174575,0.681323,0.668764,0.207404,-0.889259,0.407679
0.184282,-0.511268,0.522872,-0.564081,0.107089,-0.818746
0.320122,0.112116,0.080314,-0.251534,0.426522,0.868798
0.250839,-0.790625,0.569697,0.276951,0.958764,0.063801
-0.030618,-0.459557,0.591848,-0.539583,0.564004,0.625100
0.955582,0.256061,0.496144,0.930925,-0.125093,0.343119
0.652450,-0.041629,0.736596,0.307348,-0.784234,0.538993
0.222317,-0.314663,0.543920,-0.014778,0.072644,0.997248
0.071713,0.108323,0.927619,-0.733471,0.659490,0.164602
-0.246516,0.190758,0.791486,0.773174,0.339518,0.535658
-0.155890,0.214022,0.758445,-0.024377,-0.314630,0.948901
-0.429368,-0.508676,0.351575,0.737837,-0.471697,0.482802
0.047042,0.078673,0.924724,0.304110,0.777011,0.551154
-0.259284,0.350697,0.753496,0.840853,0.377975,0.387429
0.620933,0.327560,0.678661,0.769589,-0.458425,-0.444499
0.264073,0.288049,0.345454,-0.608163,0.124747,0.783949
-0.082349,0.094478,0.874439,0.087267,0.861659,0.499929
-0.523452,0.256440,0.538213,0.134079,-0.745434,0.652956
0.044583,0.062869,0.894206,0.657578,-0.064413,-0.750628
0.124174,0.251130,0.669122,-0.171044,0.087198,0.981397
0.640879,0.719379,0.549903,-0.167012,-0.447153,0.878727
0.068519,0.192654,-0.844665,-0.399487,0.916462,0.022531
-0.696864,0.728103,0.458664,0.810968,-0.027606,0.584439
-0.091992,0.511458,0.688159,-0.493815,-0.595149,0.633991
0.663286,0.478838,-0.943953,-0.062799,-0.086741,0.994250
0.125502,0.896640,0.565934,0.377595,-0.536757,0.754529
-0.246119,-0.041945,0.555719,0.624240,-0.083162,0.776794
-0.013200,0.215033,-0.960012,-0.672769,0.093954,0.733863
0.704112,0.308026,0.582544,-0.212826,-0.836936,0.504225
0.163004,0.372950,0.822790,0.941907,0.230031,0.244738
-0.454968,-0.483010,0.377889,-0.762675,0.580316,-0.285587
0.181222,0.817429,0.575086,-0.406203,-0.903200,0.138671
-0.018784,-0.318709,0.707967,0.768396,-0.638642,0.041285
-0.486087,0.021020,0.593130,0.775395,-0.369987,0.511734
0.279365,0.132914,0.826525,0.269406,0.283792,0.920262
0.213405,-0.207574,0.239302,-0.589357,-0.010379,-0.807806
-0.242726,0.308721,0.401515,-0.393795,-0.555928,0.732031
0.281893,0.150994,-0.952968,-0.029399,-0.313062,0.949278
-0.732768,0.448620,0.221575,0.115844,0.923662,0.365280
-0.061137,0.393938,0.628983,-0.088786,-0.789122,0.607786
-0.124373,-0.081582,0.122590,-0.200611,0.852822,0.482130
-0.389406,0.072984,0.447968,-0.235887,-0.350023,-0.906555
0.433426,0.429718,-0.953685,-0.129938,-0.036214,0.990861
-0.336148,0.021336,0.427333,-0.458042,0.650536,-0.605805
-0.294392,0.078990,0.813623,0.996859,0.062822,0.048215
-0.160610,-0.043778,-0.978524,0.171019,0.197957,-0.965176
0.628976,0.063628,0.578753,-0.217836,-0.620909,0.753007
0.067853,-0.379714,0.333531,-0.115718,0.287147,0.950871
0.626984,-0.637639,0.423335,0.953238,-0.063707,-0.295429
-0.374780,-0.232101,0.168781,0.676912,-0.033958,-0.735280
-0.178897,0.528464,0.634483,0.949441,0.301309,-0.088176
-0.065394,0.036002,0.710310,-0.487084,0.418309,0.766660
0.565277,0.665329,-0.940866,0.160519,0.126760,-0.978859
-0.000899,-0.457977,0.789942,-0.468898,0.583832,0.662778
0.522190,-0.596801,0.402576,-0.018611,-0.323376,0.946088
0.172647,0.110346,-0.174185,0.553390,0.832874,0.008942
-0.213603,-0.325473,0.713935,0.802785,0.308412,0.510313
0.260745,-0.541549,0.677945,0.781333,-0.278645,-0.558458
0.227966,-0.223820,0.752435,0.963591,0.102596,-0.246915
-0.222446,0.149098,0.802003,0.754432,0.649249,0.096476
0.712821,-0.124822,0.565934,-0.314101,-0.413381,0.854668
0.088932,-0.670133,0.408159,0.018460,0.999693,0.016503
0.257356,-0.346841,0.766481,0.392489,-0.265015,-0.880749
-0.003691,0.942726,0.570441,0.860964,-0.506973,0.041475
0.078096,0.905301,0.598134,-0.632746,-0.774015,0.023095
0.088266,0.129437,0.952293,0.690401,-0.706841,-0.154023
-0.171381,0.095426,0.809570,-0.069612,0.939105,0.336506
0.695602,-0.629990,0.469954,0.929316,-0.340312,-0.143387
0.092788,0.180390,0.866017,0.708874,-0.656088,0.258933
-0.600917,0.364542,0.577264,0.783259,0.391418,0.483009
0.204164,0.049467,0.920754,-0.307354,-0.721693,0.620236
-0.404831,0.316496,0.540708,0.133418,-0.647369,0.750408
0.126033,0.435092,0.806455,0.951202,0.233234,-0.202033
-0.503242,0.466195,0.120688,0.131705,0.914718,-0.382027
-0.203096,0.441287,0.587423,0.106359,-0.699941,0.706237
-0.250372,0.284698,0.697160,0.815795,0.542617,-0.200113
-0.114199,0.669564,0.651244,0.353687,0.883082,-0.308337
0.527376,0.093846,0.793429,0.929800,0.315088,-0.190239
0.142790,-0.648387,0.397655,0.732914,-0.431666,-0.525834
0.098972,0.152891,-0.215152,0.332038,0.941889,0.050941
0.118322,0.137529,0.471884,-0.280726,0.959772,-0.005603
-0.252567,0.553560,0.683003,-0.739950,0.672105,-0.027351
0.382292,0.024054,0.709111,0.618561,0.685331,-0.384322
0.385417,0.009641,0.673079,0.124563,-0.206110,0.970568
-0.102694,-0.384645,0.714748,-0.321208,0.944825,-0.064278
0.297250,0.339191,0.732503,-0.206271,0.757658,-0.619199
0.158349,-0.505010,0.644531,-0.487953,0.809762,0.325864
0.933643,0.141069,0.506799,-0.407061,-0.229309,-0.884149
0.051433,0.229004,0.260847,0.550252,0.787363,0.277999
0.123375,-0.484464,0.625799,0.973474,0.197961,0.114715
-0.123972,-0.152385,0.885108,0.951721,0.229511,0.203844
0.256025,-0.147707,0.859580,0.543259,0.822624,-0.167807
0.132019,0.175206,0.995823,-0.567614,0.744063,0.352398
-0.110343,0.575055,0.682410,0.893078,0.132374,-0.429987
0.526050,-0.757562,0.327107,-0.646996,0.553218,-0.524734
-0.435285,-0.035307,0.585218,-0.447983,0.443749,-0.776143
0.527446,0.284635,-0.948543,0.208522,0.160366,-0.964780
0.210613,-0.104656,0.127429,0.239745,0.473782,0.847380
0.108014,-0.752821,0.541149,0.700825,0.542800,0.462831
0.863823,-0.253153,0.298202,0.907443,-0.077475,-0.412970
-0.914625,0.723994,0.694940,0.473058,-0.047685,0.879740
0.314936,-0.303727,0.764730,-0.429526,0.630517,0.646495
-0.189400,0.441856,0.693149,-0.495669,-0.180194,-0.849613
0.180825,0.136707,0.962190,0.856857,0.273628,0.436948
0.353571,-0.014698,0.437685,-0.369832,0.207540,0.905622
0.623323,0.529538,0.408986,0.183303,0.957402,-0.223117
-0.534625,-0.026330,0.461201,-0.543293,0.462449,-0.700696
0.242194,0.175396,0.465515,-0.409868,0.894640,-0.177841
-0.524982,0.573537,0.556588,0.100026,-0.782066,0.615116
-0.128626,-0.047255,0.891752,0.960031,-0.279465,-0.015502
0.195982,0.811234,0.563425,-0.401637,0.522569,-0.752070
-0.214667,-0.120018,0.548717,-0.518531,0.167393,-0.838514
0.072841,0.091128,0.739850,0.798833,-0.228397,0.556507
-0.245388,0.386478,0.699531,0.813359,0.133438,0.566252
0.152165,-0.452666,0.453661,0.228783,-0.124803,-0.965444
-0.088400,-0.055094,0.847615,-0.144838,-0.832924,-0.534097
-0.145249,-0.217751,0.346971,0.768821,-0.264025,0.582413
0.027031,0.164143,-0.600766,-0.694950,0.718413,0.030443
-0.130290,0.196131,0.729691,0.498585,0.458240,0.735819
0.054822,-0.063692,0.142343,0.356125,0.933526,0.041267
-0.151235,-0.440971,0.549682,-0.530396,0.798837,0.283796
-0.132352,0.485918,0.276933,0.311003,-0.174138,0.934320
0.126301,0.583968,0.579897,0.741479,0.355849,-0.568842
-0.089662,0.031197,0.696181,0.864302,-0.075426,-0.497285
0.736493,0.524039,0.467790,-0.264973,0.961753,0.069434
-0.249775,-0.098271,0.720538,0.699841,0.562857,-0.439789
-0.021844,-0.145051,0.699999,0.843448,0.535486,-0.043014
0.215799,-0.059519,0.793195,-0.705540,-0.580330,0.406731
-0.161673,0.419414,0.223753,0.254827,0.966761,-0.020900
0.268460,-0.820716,0.428380,0.819729,0.347314,-0.455430
0.178296,0.084426,0.261605,-0.116141,-0.158288,0.980539
0.406828,-0.286152,0.414279,0.703740,0.295105,-0.646268
0.739022,0.301198,0.579029,-0.397063,-0.827941,0.396050
-0.023836,-0.372443,0.537386,-0.211585,0.837341,-0.504075
-0.370989,0.683598,0.370376,0.981319,-0.046233,-0.186751
0.505770,0.486487,0.569669,0.061880,-0.716221,0.695125
0.914292,-0.209975,0.311821,0.962284,-0.232395,-0.141428
-0.070446,0.159465,0.426065,-0.368710,-0.750023,-0.549107
-0.251106,0.338054,0.476791,0.132787,-0.594564,0.793007
-0.054956,-0.015583,0.323661,0.681691,-0.645074,0.345220
0.669138,0.086829,0.597155,-0.648536,0.014430,0.761047
0.674056,0.031640,0.581482,0.449885,0.616268,-0.646388
0.028824,0.037962,0.534588,0.130755,0.464736,0.875742
0.208616,-0.090369,0.752310,-0.482507,0.612879,-0.625753
0.170983,0.110472,0.942809,0.459975,0.789846,-0.405668
0.087471,0.124822,0.982163,0.946249,-0.241075,-0.215630
-0.501314,0.400575,0.425362,0.522002,0.028847,0.852457
-0.237405,0.490976,0.439932,0.421673,0.524700,-0.739514
0.312809,0.198849,-0.953065,0.031417,0.022067,0.999263
-0.115530,0.379587,0.672665,0.953100,0.124996,0.275638
0.124507,0.167810,0.328541,0.492619,0.861252,-0.124786
0.440938,-0.096627,0.686118,0.821412,0.494480,-0.284205
0.036206,0.225401,0.605605,0.806682,0.539643,-0.240935
-0.110940,-0.636628,0.311435,0.288129,0.514471,0.807651
0.367929,-0.267566,0.730945,0.248551,0.804062,0.540098
-0.482297,-0.167304,-0.990737,-0.047899,-0.187870,0.981025
0.698260,0.019313,0.381955,0.630330,0.638493,-0.441601
0.062204,0.295192,0.832700,-0.176049,0.976881,-0.121286
0.017985,0.108385,0.739174,0.703304,0.222220,-0.675264
-0.219719,-0.690868,0.325605,-0.075172,0.605248,0.792480
0.011938,0.001802,0.756446,0.902795,0.147109,0.404128
-0.626383,0.361317,0.586003,0.760776,0.503734,0.409233
-0.543934,0.595158,0.435328,0.752514,0.258930,0.605539
0.579506,0.138920,0.585893,-0.126152,0.006162,0.991992
-0.081087,-0.025634,0.783173,0.332598,0.582938,0.741324
0.141727,-0.264848,0.781409,0.094415,-0.471612,0.876737
0.271585,-0.349812,0.779286,-0.052212,0.759994,0.647829
0.029023,0.124759,0.812906,0.988490,0.131938,-0.074027
0.433357,-0.874135,0.438305,-0.880079,0.259052,0.397935
-0.230092,0.604577,0.606845,0.409336,0.652397,-0.637827
0.333490,-0.586497,0.349121,0.845927,0.519767,0.119372
0.183150,0.357651,0.818186,0.962772,0.189691,0.192580
-0.588016,0.364099,0.573749,0.592788,0.344752,0.727838
0.611554,0.898979,0.543892,-0.095935,-0.326716,-0.940241
-0.238205,-0.176597,0.750560,0.467898,0.799277,0.377130
0.391869,0.026962,0.717450,0.755905,-0.305732,-0.578909
-0.253034,0.212883,0.793277,0.925026,0.077768,-0.371858
0.169786,-0.476562,0.454308,0.263230,-0.213773,-0.940750
0.545395,-0.348863,0.711440,-0.550155,0.624262,0.554640
0.483961,0.085501,0.779452,-0.682445,0.443006,0.581390
-0.278098,0.306571,0.398620,-0.031849,-0.388029,0.921097
-0.255428,-0.549831,0.561812,0.034272,0.086869,0.995630
0.682769,0.617094,0.583481,0.797863,0.602725,-0.011672
-0.242194,-0.322375,0.549323,0.170682,-0.810697,0.560035
-0.258484,0.465689,0.502760,0.389416,-0.290414,0.874080
-0.156154,0.350823,0.730256,-0.273265,-0.954747,-0.117410
0.856977,0.064576,0.350017,0.969316,-0.159964,0.186649
-0.208019,-0.188039,0.549709,0.242470,-0.128871,0.961562
-0.171247,-0.361254,0.717092,0.392498,0.616977,0.682118
-0.547323,0.554319,0.315143,0.114895,-0.442797,0.889230
0.559693,0.544900,-0.942409,0.269241,0.122998,-0.955186
0.480767,-0.463982,0.699944,0.825768,0.527666,0.199187
0.309818,0.294560,-0.955725,-0.026526,-0.044382,0.998662
-0.139068,0.389133,0.638080,-0.451165,0.804901,-0.385467
0.238871,0.152701,0.805931,-0.543101,-0.755342,0.366742
-0.424713,0.533205,0.355420,-0.103771,-0.633496,0.766756
0.781241,0.252457,0.016451,-0.440223,0.874859,-0.202051
-0.166194,0.466195,0.320836,-0.706960,-0.657504,-0.260568
-0.306226,-0.254923,0.665029,0.437356,0.700416,0.564037
0.626184,-0.185384,0.556877,0.529539,0.054288,-0.846547
-0.088534,-0.221292,0.663623,0.938012,-0.146285,-0.314222
0.554040,0.093403,0.791803,0.980383,0.178232,0.084164
-0.695999,-0.026646,0.487074,-0.572553,-0.819784,-0.011716
-0.511285,-0.406897,0.357819,0.733095,0.316047,-0.602235
0.605637,0.573727,0.531018,0.789891,-0.065909,0.609695
0.734497,-0.393242,0.498611,0.623999,0.462333,-0.629979
0.177566,0.188798,0.710117,0.553905,-0.782006,-0.285754
0.355300,-0.631444,0.553183,0.485244,-0.873897,0.029035
0.183219,0.751999,0.557704,0.449775,-0.652571,0.609798
-0.130489,-0.423587,0.547835,0.457829,-0.388826,-0.799505
0.498587,0.712994,0.613117,0.093708,-0.917188,0.387278
0.079955,0.090811,0.125168,0.937548,0.335582,0.091583
-0.152363,0.591048,0.614041,0.533466,0.842670,0.072953
-0.134413,0.109334,0.850096,0.945618,0.123921,0.300751
0.132417,-0.274520,0.814698,0.478825,0.871152,0.108725
0.097645,0.184562,-0.728147,-0.511915,0.859035,-0.000774
0.110011,0.117932,0.846581,-0.130844,0.073456,0.988678
0.183949,0.800550,0.566113,-0.494445,0.610914,-0.618311
0.024502,0.085627,0.867643,-0.374377,0.180294,0.909580
-0.025500,-0.263204,0.621691,-0.493624,-0.752193,-0.436510
-0.497057,0.055916,0.608472,0.843881,0.069781,0.531973
0.382758,0.054777,0.325894,0.369866,0.929082,-0.002359
-0.401374,0.457850,0.241314,-0.079756,-0.910040,0.406776
-0.420525,0.536934,0.349962,0.449723,0.835553,-0.315594
-0.214736,-0.230079,0.187569,0.524163,-0.024831,-0.851256
-0.578710,-0.409110,-0.997519,-0.033230,-0.193824,0.980473
0.101834,0.010526,0.899237,0.249973,0.962765,-0.102941
-0.468798,0.494326,0.416112,-0.203940,-0.377211,0.903394
0.929385,0.426495,0.442606,0.876681,0.263244,0.402657
0.365604,0.533015,0.776488,0.373144,0.926571,-0.047229
-0.005485,0.128362,-0.961569,-0.282278,-0.205502,0.937064
0.189603,0.017417,0.048803,0.918010,0.372877,0.134983
-0.678244,0.157632,0.226165,0.341568,-0.576739,0.742094
-0.098907,-0.088536,0.539771,-0.299345,0.577707,-0.759373
0.162205,-0.545722,0.674815,0.845151,0.303409,-0.440072
0.431296,0.310681,-0.951645,0.132090,0.056299,-0.989638
0.473851,-0.836900,0.313902,-0.416983,0.885150,-0.206483
0.551913,-0.322502,0.714376,-0.658630,0.550040,0.513481
0.640547,0.799918,0.559551,-0.314355,-0.739956,0.594681
-0.145448,0.228561,0.187390,0.467107,0.865387,-0.181430
-0.007546,0.068496,0.842666,-0.782007,0.622777,-0.024781
0.097377,0.122104,0.869932,0.629730,0.716190,-0.300852
-0.020180,0.224389,0.584294,0.880449,0.441744,-0.172254
-0.177034,-0.453172,0.747610,0.224894,0.924472,0.307856
0.401840,0.248095,0.652636,0.087170,-0.144107,0.985715
-0.010472,-0.022537,0.795483,-0.037140,-0.971133,0.235629
0.156223,0.731327,0.649728,0.795171,0.236791,-0.558241
0.447054,0.079938,0.772325,-0.625230,0.558928,0.544690
-0.563816,0.597433,0.556257,0.957829,0.179365,0.224480
-0.068518,0.002687,0.828441,0.585929,0.535421,0.608286
-0.192991,-0.618105,0.305866,-0.036160,0.486663,0.872841
-0.806175,0.557922,0.272218,-0.066714,-0.813146,0.578224
0.119783,-0.455890,0.549144,-0.598129,0.344270,-0.723685
0.577911,-0.242469,0.221520,0.917463,0.340978,-0.204927
0.464810,0.535101,0.578615,-0.313700,-0.590155,0.743848
0.150436,0.425167,0.780678,0.628656,0.470925,0.618888
-0.509090,-0.249360,0.363677,-0.374254,0.164776,0.912569
-0.651650,0.688909,0.442881,0.642261,-0.006885,0.766455
-0.074703,-0.113759,0.719187,-0.120722,0.261245,0.957694
0.394061,0.548946,0.393244,-0.398063,-0.690148,0.604352
0.219724,0.639283,0.661913,0.134351,0.523328,-0.841474
0.291332,0.382495,0.739946,-0.506504,0.715948,-0.480492
-0.048040,0.045359,0.906515,0.005681,0.948866,0.315627
-0.309217,-0.255113,0.657172,0.861379,0.320363,0.394200
0.022177,-0.434586,0.778115,-0.346416,0.797612,0.493773
0.400643,-0.479091,0.585273,-0.640021,0.352328,0.682816
0.516805,-0.458798,0.608113,-0.749160,0.459671,-0.476929
0.793610,0.688909,0.459050,0.395365,0.212026,-0.893718
0.029888,0.343364,0.681335,0.290091,-0.224904,0.930197
0.094317,0.113127,0.018795,-0.208650,-0.946962,-0.244394
-0.454038,-0.364921,-0.993866,-0.079215,-0.055400,0.995317
-0.704112,0.533711,0.197783,0.884419,0.059725,0.462857
-0.029688,0.254670,0.622656,-0.026725,-0.098269,0.994801
0.608563,0.358979,0.705954,0.550534,-0.827194,-0.112526
-0.179294,-0.297468,0.704093,0.724814,0.269084,0.634223
0.311945,-0.541739,0.658550,0.205698,0.977447,0.047805
0.111606,0.151310,0.965236,0.937977,-0.198261,-0.284413
0.415870,0.078610,0.735425,0.414975,0.896284,-0.156429
0.864489,-0.018301,0.414224,-0.573982,-0.633667,0.518663
0.613352,0.084932,0.594853,-0.024386,-0.948643,0.315407
0.833240,0.828239,-0.926378,-0.065052,-0.338827,0.938597
-0.271317,0.512470,0.584735,0.992333,0.074928,0.098287
0.803253,0.069507,0.615488,0.786916,0.320811,-0.527108
-0.122709,0.532004,0.650872,0.809443,0.380388,-0.447334
0.329034,0.079179,0.773180,0.211668,0.550948,-0.807250
0.568601,0.526061,0.566444,-0.264284,0.865964,-0.424572
0.099504,0.121092,0.947372,0.496927,-0.835996,-0.232754
-0.824328,0.672914,0.414486,-0.832972,0.543195,0.105339
0.371257,0.017922,0.658812,-0.038172,-0.408572,0.911927
-0.807973,0.680564,0.229391,0.820636,0.088338,0.564582
0.265802,-0.398552,0.395339,0.088299,-0.492665,-0.865728
0.255562,0.322565,0.722082,-0.016614,-0.864338,0.502636
-0.410618,-0.201694,0.564982,0.958240,0.184540,0.218453
-0.211209,0.141764,0.807737,0.543450,0.817986,0.188578
0.520331,0.067674,0.359307,0.335035,0.577165,-0.744736
0.605507,0.359927,0.724494,0.293806,-0.614170,0.732444
0.003557,-0.492809,0.781809,-0.697553,-0.705711,0.124063
0.122579,0.295698,0.752393,0.950208,0.155927,-0.269801
-0.129158,-0.040870,-0.978607,-0.156697,-0.155034,0.975403
0.005684,0.187976,0.172613,0.718549,0.644988,0.260149
0.155756,0.088409,0.986919,-0.009842,-0.945598,0.325187
-0.614147,0.587192,0.451455,-0.629301,-0.226748,-0.743348
-0.558958,0.190568,0.475040,-0.247325,0.025116,-0.968607
0.342066,0.119512,0.806510,0.790834,0.144995,0.594607
-0.604574,0.590606,0.437795,0.722692,0.115390,0.681471
0.616944,0.027089,0.572881,-0.301675,-0.613116,0.730124
0.124637,0.164333,-0.546208,0.753113,0.653305,0.077549
-0.372982,0.004457,0.572481,0.631921,0.091480,0.769615
-0.084277,0.703133,0.591807,0.477286,0.477608,-0.737624
