0.404413,-0.530753,0.649710,-0.498354,0.427245,-0.754391
-0.747684,-0.592851,0.695113,0.604453,0.379611,0.700380
-0.313182,0.241095,0.366061,0.067041,-0.664769,0.744035
0.080496,0.297747,-0.414657,0.836550,0.038706,-0.546521
-0.064832,0.387700,0.486301,0.547480,-0.668518,0.503338
-0.887851,0.410581,0.235328,-0.125100,0.928389,-0.349920
-0.066398,0.776226,0.343313,0.790774,0.308204,-0.528854
-0.396305,0.048172,0.826963,0.806926,-0.233498,0.542540
0.738561,-0.252140,0.758592,0.953776,0.299124,0.028932
0.035525,-0.085573,0.895177,-0.420354,0.802069,0.424249
0.577661,-0.454216,0.803884,0.166259,0.263399,0.950252
-0.152007,-0.703712,0.789600,-0.024297,0.760566,0.648805
-0.751739,0.477886,0.564427,0.344008,-0.632100,0.694340
0.072017,-0.051485,0.898639,-0.795391,0.036149,0.605017
0.117264,-0.137335,0.787586,0.997353,-0.016616,0.070792
-0.459430,0.384938,0.674205,0.938270,-0.262338,0.225453
0.549924,-0.588591,0.653030,0.759823,0.571094,-0.310676
0.633598,-0.184755,-0.706991,0.425572,0.903917,0.042691
-0.330047,-0.339646,0.273541,-0.675102,-0.616163,0.405686
-0.308207,-0.668442,0.576871,-0.538495,-0.841331,-0.046747
-0.102153,0.206297,0.309882,0.923345,-0.381776,-0.040998
-0.311433,0.291593,0.212878,-0.381978,-0.320501,0.866817
-0.395751,0.205035,0.352547,-0.015112,-0.995721,-0.091166
-0.071373,0.204561,0.899834,0.770613,0.021500,-0.636941
-0.269133,0.727385,0.619804,-0.102885,-0.809465,0.578084
-0.673963,0.283309,0.852843,0.519354,-0.614292,0.594068
0.084180,-0.343275,0.852811,-0.185584,0.425387,0.885779
-0.610931,-0.403795,0.614376,0.781206,-0.266903,0.564340
-0.189605,0.502111,0.489023,-0.608843,-0.000975,0.793290
0.279176,-0.961494,0.599525,0.136939,0.574369,0.807061
-0.258075,-0.237148,0.288408,-0.313935,0.436925,0.842936
-0.165647,0.439934,0.557111,0.990637,0.134338,-0.024303
-0.341659,0.780565,0.631964,0.353395,0.513512,-0.781932
-0.646962,0.398035,0.484854,0.869603,-0.067482,0.489119
-0.354191,0.235412,0.627119,0.408523,0.811794,0.417252
-0.248398,-0.475599,0.758765,0.136337,0.411885,0.900979
-0.422201,0.687932,0.620118,0.482008,0.232759,-0.844684
-0.491315,0.318894,0.685532,-0.794102,0.152517,-0.588337
0.023820,0.303902,-0.007087,0.199300,0.975078,-0.097478
-0.130721,0.377914,0.775378,-0.462966,0.629527,-0.623985
-0.037370,-0.714365,0.565607,-0.160374,0.905363,0.393190
0.269777,-0.878409,0.597102,0.085180,0.848421,0.522423
-0.269963,0.605635,0.589000,-0.108412,0.748467,-0.654251
-0.520158,-0.427545,0.858679,0.581204,0.479589,0.657416
0.903055,-0.363791,0.611214,0.040592,0.271501,0.961582
-0.154127,-0.444904,0.726357,0.884189,0.329173,-0.331443
0.615076,-0.429676,0.598314,-0.872584,0.453839,0.180633
-0.145466,-0.827752,0.721181,-0.630995,-0.359957,-0.687224
-0.336221,0.023791,0.741491,0.886067,0.377289,-0.269328
-0.637653,0.009035,0.794571,-0.333577,0.384234,0.860866
-0.171820,-0.898292,0.625766,0.892523,0.146527,0.426536
0.027507,-0.216712,0.244075,-0.118646,-0.991347,0.056172
-0.090449,0.091491,0.160852,0.407387,-0.020481,0.913026
0.572133,-0.182862,0.830047,0.568748,0.449954,-0.688525
0.014236,-0.004616,0.510324,0.759662,-0.166778,-0.628569
-0.206745,0.265871,0.607863,0.200106,0.313623,-0.928223
0.077363,0.101747,0.843340,-0.662096,-0.460677,0.591105
0.654240,-0.340198,0.787035,-0.500053,-0.804619,-0.320211
0.189051,-0.433623,0.850263,-0.556703,0.720414,-0.413625
-0.441369,0.037914,0.636747,0.736796,0.388433,0.553399
0.191078,-0.256244,0.830503,-0.531226,-0.006484,0.847205
-0.219094,-0.759657,0.796553,-0.306321,0.507189,0.805560
0.093396,0.572414,0.510891,-0.155569,-0.279075,0.947584
0.117081,0.316212,-0.636857,0.943108,-0.301737,-0.139651
0.031562,0.244249,0.740406,0.655309,0.237529,0.717043
-0.039673,0.650452,0.337256,0.214667,-0.380979,0.899318
-0.410406,0.413973,0.159562,0.178098,0.974651,0.135415
-0.112933,0.103404,0.167633,0.771202,0.627899,0.104837
-0.353269,0.054642,0.931597,-0.669802,0.709540,0.218902
-0.527808,0.291593,0.557756,0.354611,0.135212,-0.925186
-0.442750,0.273051,0.855218,0.398042,0.847385,0.351427
-0.139565,-0.828778,0.568722,0.781459,0.062602,-0.620808
-0.844354,-0.313686,0.817980,0.502386,0.154477,0.850732
-0.411326,0.407898,0.513124,0.055301,0.794639,0.604558
0.732939,-0.179549,0.752865,-0.476389,0.059335,-0.877230
-0.101231,0.808026,0.333228,-0.652517,-0.206015,0.729232
0.265632,0.008876,-0.936710,0.721069,-0.624221,0.300679
-0.176429,0.616839,0.500586,0.474092,-0.429289,-0.768731
0.679399,-0.378468,0.795027,0.380394,0.751697,0.538751
0.080218,0.183888,-0.680891,0.735891,0.612558,-0.288508
-0.186382,0.274708,0.769258,0.842643,-0.535942,-0.052144
-0.293094,-0.014243,0.289257,0.891952,0.417223,-0.174203
-0.641526,0.023947,0.207136,0.366686,0.178154,0.913128
0.483112,-0.042884,-0.989633,-0.075747,-0.223678,0.971715
0.106667,0.239753,-0.391783,0.923396,0.338415,0.181148
-0.249228,0.302876,0.879618,0.998990,0.037254,0.025130
-0.544763,-0.235335,0.616453,-0.671494,0.278046,-0.686867
-0.269226,-0.110428,0.850310,0.963309,-0.156789,-0.217839
-0.243238,0.086519,-0.803900,-0.250097,0.931371,-0.264574
0.269041,0.446404,-0.854274,0.991264,-0.029772,0.128487
-0.472608,0.215685,0.362034,-0.170525,-0.808563,0.563158
-0.603557,0.538014,0.499658,0.111876,-0.040581,0.992893
-0.241027,-0.011007,0.938456,0.764881,0.548936,0.337086
-0.338065,-0.685406,0.738282,-0.119691,0.690233,-0.713619
-0.505875,0.187753,0.506328,0.042372,0.670790,0.740436
0.657283,-0.043594,-0.983356,-0.123275,-0.195692,0.972886
0.712204,-0.051721,0.842428,-0.407280,0.735153,0.541916
0.650370,-0.510081,0.810539,-0.488911,0.474744,0.731836
0.141039,0.309662,-0.546319,0.852882,0.511069,-0.106772
0.136894,-0.204640,0.813795,0.781181,-0.290344,-0.552682
-0.331153,0.392434,0.696670,-0.272959,0.929576,-0.247755
-0.218819,-0.366948,0.316726,-0.552135,0.313305,0.772649
-0.466987,-0.276365,0.570232,-0.445184,-0.182498,-0.876645
0.289776,-0.289621,0.745644,0.289126,-0.761342,-0.580315
0.157168,0.225392,-0.590070,0.522120,0.821081,-0.230689
-0.299545,0.426047,0.815353,-0.630313,-0.587506,0.507486
-0.098835,-0.847556,0.802358,0.835722,0.015941,-0.548922
-0.100677,0.626387,0.833728,0.998797,-0.043620,0.022403
-0.133947,-0.471496,0.292593,0.561156,0.566653,-0.603331
0.002165,0.283386,-0.507839,0.957943,-0.262615,0.115665
-0.376031,-0.273287,0.827986,-0.060966,0.239725,0.968925
0.145370,-0.152247,0.809155,0.740409,-0.342765,-0.578193
-0.364788,-0.415079,0.257447,0.837764,0.370674,-0.400939
0.077178,0.231073,-0.318959,0.534986,0.844345,0.029533
-0.294661,0.548903,0.385113,0.014948,-0.352094,0.935845
0.153481,0.044384,0.621817,-0.185882,0.166815,-0.968308
-0.694605,0.502190,0.199066,0.088198,-0.301580,0.949353
-0.644473,0.800686,0.523382,-0.060481,-0.630954,0.773459
-0.711192,0.408688,0.184089,-0.563690,0.579865,-0.588226
-0.116527,0.172368,0.793265,-0.674644,-0.724468,-0.141428
0.005667,0.268948,0.913804,0.641969,-0.492487,-0.587649
-0.447174,0.115318,0.588749,0.681292,0.465487,0.564945
-0.057733,0.343434,0.491399,0.940616,0.273436,-0.201183
-0.637653,-0.693534,0.776668,-0.256413,-0.895998,-0.362546
-0.328113,0.180495,0.936081,-0.452284,0.862467,-0.227133
0.091461,0.281809,-0.691227,0.805114,-0.591487,0.043991
-0.537943,0.488383,0.377892,0.210294,-0.268593,0.940018
-0.682625,-0.568470,0.696277,0.857460,0.403968,-0.318703
-0.073308,0.564446,0.807424,0.542697,0.662657,-0.516107
-0.038014,0.915574,0.340229,0.767533,-0.446405,-0.460017
-0.374741,0.773702,0.625735,-0.262036,-0.708808,0.654926
-0.131179,0.166449,0.253451,-0.435961,0.784692,-0.440677
-0.523291,0.680672,0.560824,0.775411,-0.534171,-0.336747
-0.205547,-0.654950,0.782237,-0.099121,0.468276,0.878005
-0.633691,0.586619,0.789065,-0.246344,-0.909054,0.336057
-0.033590,0.242513,0.730117,0.772152,0.169608,-0.612384
0.880292,0.213634,-0.974577,-0.525683,0.182352,0.830906
0.167857,-0.822544,0.582173,-0.229248,0.431261,0.872617
0.079667,0.034126,0.627213,-0.537045,-0.111908,-0.836098
-0.443855,0.127392,0.469688,0.083888,0.978483,0.188504
0.473896,-0.014005,0.816124,0.983094,0.159875,-0.089258
0.027231,0.506057,0.332772,0.156708,-0.029912,0.987192
-0.524858,0.376021,0.510733,-0.336869,0.294464,-0.894321
0.853109,-0.346983,0.606022,-0.178021,0.284768,0.941921
-0.863337,0.394170,0.816910,0.745668,-0.410923,0.524521
0.226097,-0.326862,0.850137,0.428311,0.903563,0.011173
-0.150716,-0.488303,0.782583,0.837077,-0.540075,0.087295
-0.219187,-0.228075,0.912152,-0.509795,0.628865,0.587059
-0.685021,0.407819,0.358038,-0.067631,-0.619585,0.782011
0.518407,0.121473,0.809532,-0.171938,0.980786,-0.092178
-0.228125,0.170317,0.610632,-0.398282,0.087581,0.913073
0.001890,0.110033,-0.705370,-0.567052,0.759303,-0.319234
-0.664654,0.554267,0.753054,0.619793,0.094706,-0.779030
-0.267384,0.045015,0.952710,0.601039,0.773185,-0.202329
-0.314749,0.082575,0.956139,0.826246,0.446434,-0.343532
-0.139014,0.029866,0.294779,0.366316,0.830586,-0.419451
-0.364512,0.605950,0.590967,-0.229182,-0.545625,0.806082
0.002717,-0.427940,0.278733,-0.628766,0.700359,-0.337862
-0.246925,-0.824280,0.778855,-0.647999,0.090862,0.756202
-0.777821,0.307531,0.786437,-0.663297,-0.694276,0.279316
0.121688,-0.367025,0.514352,-0.039265,-0.358594,0.932667
0.487719,0.168027,-0.996272,-0.210081,0.241696,0.947338
-0.279455,-0.371367,0.523288,0.562221,-0.813559,0.148425
-0.784730,0.406006,0.206869,-0.706537,0.493267,-0.507438
0.127403,-0.474337,0.845448,-0.299387,-0.953899,-0.021058
0.644566,0.307690,-0.995233,0.336920,-0.107645,-0.935360
-0.620883,-0.036968,0.798472,0.614768,0.140388,-0.776113
-0.699121,0.334122,0.799810,0.348293,-0.164723,0.922799
-0.860572,-0.075394,0.828332,-0.919423,0.000248,-0.393269
-0.215132,-0.616996,0.775362,-0.225542,0.303870,0.925632
-0.093306,0.230126,0.292939,0.875576,-0.062785,-0.478983
-0.155601,-0.454136,0.805756,-0.455218,0.172413,0.873527
0.357600,0.078392,-0.986030,-0.425283,-0.397594,-0.813052
-0.881031,-0.322367,0.827828,-0.373196,-0.174928,-0.911112
-0.014514,0.245749,-0.313799,0.770858,0.636688,0.020152
-0.253837,0.421313,0.143547,-0.325493,-0.879148,-0.348071
0.357600,-0.450428,0.780868,-0.164120,0.281639,0.945380
0.473067,-0.741587,0.680797,0.811648,-0.262165,-0.522012
-0.673687,0.281178,0.495630,-0.791839,0.583609,-0.179977
-0.411694,0.109638,0.858836,-0.554982,0.475572,-0.682515
-0.007143,0.202194,0.178457,0.852581,-0.516470,0.079775
0.627332,-0.592220,0.688270,0.878448,-0.103331,-0.466532
0.058378,0.214739,-0.308875,0.423731,0.899267,-0.108498
0.317606,-0.599400,0.633270,0.818200,-0.507733,0.269734
0.160483,-0.673176,0.722723,0.887749,0.226824,-0.400564
0.397318,-0.669468,0.624240,0.648284,-0.119337,-0.751988
0.219002,-0.663629,0.647130,-0.225113,-0.961180,0.159552
0.645578,0.191305,-0.982994,0.240653,-0.310276,-0.919682
-0.193016,-0.623861,0.727961,0.301271,-0.760485,-0.575237
-0.111552,0.620547,0.819679,0.815364,0.183235,0.549187
-0.351334,0.404664,0.363025,0.547914,0.045327,-0.835306
0.088143,0.309583,0.639311,0.769106,-0.608238,0.196270
0.483666,-0.305007,0.787020,-0.072896,0.497675,0.864295
-0.520805,-0.584567,0.855816,-0.728192,0.340540,-0.594785
-0.105469,0.254902,0.354986,0.714390,-0.683374,-0.150489
-0.144543,0.529176,0.810350,-0.669861,0.576895,-0.467417
-0.161130,0.495640,0.826287,-0.501887,0.841525,-0.199861
-0.033865,-0.261372,0.890710,0.922638,0.030762,-0.384438
-0.155970,0.425416,0.553902,0.946392,0.320345,-0.041496
-0.136618,-0.710577,0.558260,0.471352,0.580035,-0.664369
0.026033,0.342880,-0.391956,0.999329,0.000480,0.036611
-0.554165,-0.519075,0.740720,0.357095,0.927390,-0.111491
-0.444224,-0.637748,0.748319,-0.362422,0.493152,-0.790855
0.217986,0.176392,-0.775488,0.978219,-0.167789,0.122210
-0.806663,-0.523022,0.689858,-0.574463,0.109070,0.811231
-0.800673,0.450982,0.559345,0.828486,-0.428105,0.361021
0.873289,0.161085,-0.975238,-0.691749,0.317086,0.648798
0.512877,-0.577387,0.795735,-0.107221,0.202151,0.973467
-0.316776,-0.175130,0.674677,0.746992,0.003174,0.664825
-0.697187,0.288674,0.508059,0.801055,0.173224,-0.572978
0.037553,0.228311,0.026579,0.906095,-0.382126,0.181582
0.195134,-0.580859,0.599242,-0.247459,-0.773181,0.583913
-0.759020,-0.558527,0.668369,0.503175,0.638723,0.582106
-0.788324,-0.424391,0.766930,0.732188,0.407309,-0.545894
0.106299,0.228470,-0.144412,0.901997,-0.406027,0.146777
-0.666774,0.325444,0.512369,0.862081,-0.037880,-0.505352
0.118001,0.170396,-0.830880,-0.329965,0.943848,-0.016544
-0.477215,0.229967,0.357991,0.585299,0.782143,0.213721
-0.034695,0.305402,0.689387,0.868063,-0.492828,-0.059892
0.032114,0.268553,0.342699,-0.073635,0.660833,0.746912
-0.259549,-0.335700,0.298791,0.844838,-0.422976,-0.327627
-0.256785,-0.450902,0.780050,0.464918,0.787859,-0.403892
0.779570,0.081864,-0.975867,0.334186,-0.012905,-0.942419
-0.347279,-0.171579,0.829889,0.435332,0.609943,-0.662160
-0.108141,0.206771,0.525238,0.522977,0.650403,-0.550882
-0.821959,0.329783,0.205673,0.835376,-0.247376,0.490869
-0.559415,0.393775,0.552203,0.726904,0.378410,-0.573076
-0.556468,-0.007850,0.803224,-0.524049,0.501428,0.688435
-0.228586,-0.141674,0.907559,-0.129535,0.383127,0.914568
0.250333,-0.133862,0.818909,-0.496537,-0.185827,-0.847891
-0.399531,0.744585,0.335415,0.190205,-0.426104,0.884453
-0.109063,-0.841165,0.828788,0.269035,-0.557787,-0.785172
0.098188,-0.023791,0.903169,0.723614,-0.322075,-0.610452
0.460074,-0.654476,0.676030,-0.249981,0.175018,0.952302
-0.528083,0.311398,0.834987,0.324392,0.107280,0.939819
-0.584759,0.758000,0.524436,0.824494,0.343339,0.449809
-0.340920,0.810708,0.625766,0.185875,-0.909117,0.372770
0.649816,0.050223,0.806087,0.338444,0.340232,-0.877324
0.668802,0.014953,-0.979076,-0.195897,-0.144506,0.969919
-0.528269,-0.382097,0.753636,-0.125656,0.640974,0.757207
-0.341198,0.041542,0.900920,0.087436,-0.947376,0.307951
-0.398794,0.695585,0.579592,0.989721,0.093651,0.108079
-0.834401,-0.382412,0.759079,0.988445,-0.117003,-0.096373
0.127585,0.303351,-0.652448,0.726287,-0.663532,0.179533
-0.336775,-0.695269,0.606337,0.975673,-0.206382,-0.073951
-0.192923,-0.830119,0.720678,-0.731676,-0.264667,-0.628173
0.024928,-0.617865,0.802516,-0.682994,0.508362,-0.524487
-0.155970,-0.254271,0.664986,0.980264,-0.072195,-0.184039
0.748975,-0.370813,0.642128,0.740039,0.075895,0.668268
0.345988,-0.646193,0.619631,0.822675,0.549072,-0.147399
-0.085842,0.031602,0.501829,0.561614,-0.081633,-0.823362
-0.516564,0.487434,0.195353,-0.145189,-0.299973,0.942834
-0.334933,-0.045569,0.903500,0.970281,-0.057883,0.234955
-0.758283,-0.405059,0.679397,0.542060,-0.180206,0.820791
0.607888,-0.452005,0.794256,-0.450486,0.806735,-0.382414
0.136340,-0.214739,0.633176,-0.088429,0.392892,0.915323
0.385337,0.891744,-0.748885,0.589882,0.710699,0.383336
-0.049718,0.299799,0.715942,0.639940,-0.749993,-0.167294
-0.312721,0.353059,0.610522,0.234553,0.350275,-0.906803
-0.264895,0.003431,0.957791,0.639267,0.715801,-0.281011
0.057365,0.304769,0.437579,0.821022,-0.195932,0.536222
-0.602176,0.329624,0.546020,-0.157081,-0.163521,0.973954
0.562917,0.169448,-0.993219,0.448419,-0.275261,-0.850384
-0.328942,0.790192,0.513313,0.036847,-0.334293,0.941749
-0.696447,0.367658,0.490675,0.923311,-0.245416,0.295411
-0.312721,0.830671,0.334157,-0.338863,-0.061481,-0.938825
0.233100,-0.471970,0.618325,0.291818,0.578989,-0.761324
0.123347,0.218053,-0.800486,0.301294,-0.952835,0.036437
-0.722897,0.556791,0.210456,0.075151,0.383875,-0.920322
-0.842694,-0.520101,0.690173,0.558880,-0.300149,-0.773022
-0.246556,0.639722,0.494671,-0.041994,-0.316750,0.947579
-0.349123,-0.351561,0.807581,-0.747806,-0.661572,0.055760
0.857898,-0.532331,0.599431,0.971895,-0.207736,-0.110748
0.842970,-0.377758,0.663853,-0.153542,-0.633213,0.758595
-0.376861,0.423601,0.703734,-0.057008,-0.962629,0.264754
-0.552320,0.551270,0.575943,-0.097520,-0.162409,0.981893
-0.367462,-0.839667,0.740091,0.732689,-0.069944,-0.676960
-0.805558,0.387936,0.370136,-0.038645,-0.922404,0.384288
-0.443765,0.372392,0.732791,0.380774,0.556524,0.738439
-0.036540,0.245275,0.044482,0.594498,0.593288,-0.542754
-0.160669,0.155166,0.423735,-0.100840,0.846659,0.522493
-0.388287,0.362606,0.767024,0.151265,-0.663224,0.732975
0.292909,0.091807,-0.972390,0.553359,0.682980,0.476793
0.002717,-0.573124,0.800266,0.214620,-0.804723,0.553498
-0.734047,0.092358,0.192631,-0.246041,-0.431074,-0.868124
-0.650463,0.818992,0.529502,0.031052,-0.742531,0.669091
0.183429,-0.364738,0.866797,-0.282026,-0.007580,0.959377
-0.922960,0.434253,0.240818,0.044262,-0.992426,0.114593
-0.720683,-0.458794,0.765419,-0.315083,-0.717300,0.621452
-0.097913,0.491775,0.785934,-0.701580,0.260763,0.663166
0.285535,-0.641220,0.774151,-0.202359,0.217876,0.954767
0.291067,-0.113741,0.809249,0.083608,-0.357150,0.930298
0.169331,-0.495799,0.602986,0.015472,-0.886676,0.462132
-0.229323,-0.062925,0.900542,0.770021,-0.341553,-0.538896
-0.211723,-0.268394,0.660974,-0.400157,0.763393,-0.507055
0.191632,-0.104273,0.630753,0.346678,-0.179960,-0.920559
-0.400543,-0.627728,0.754439,0.272617,-0.706064,0.653570
-0.746764,0.366079,0.550394,0.774704,-0.421258,0.471568
-0.303047,0.879986,0.520078,0.230773,-0.204125,0.951355
-0.787680,0.378388,0.204902,-0.425123,0.529858,-0.733840
0.088053,0.224208,-0.507980,-0.236779,-0.954087,0.183447
-0.304796,-0.731329,0.616421,0.845034,-0.049178,-0.532446
0.436850,0.735907,-0.771067,-0.510095,-0.348493,0.786356
0.633505,-0.393537,0.654225,-0.337502,0.454235,-0.824478
-0.509837,0.350061,0.564977,0.486864,0.530256,-0.694113
0.140303,0.136624,0.152404,0.304635,-0.262399,-0.915611
0.192184,-0.347222,0.842617,0.928216,0.353328,0.116511
-0.253283,0.266896,0.412675,-0.275002,-0.102637,0.955950
0.030826,0.246854,-0.484052,0.896255,0.094890,-0.433270
-0.648528,0.873044,0.534898,-0.193359,0.606805,-0.770974
-0.185274,0.982564,0.349448,-0.324928,-0.619881,0.714261
0.839376,0.086362,-0.975505,-0.671452,0.252388,0.696744
-0.242594,0.286702,-0.181807,0.129494,0.981520,0.140888
-0.803713,0.394170,0.562492,0.841474,-0.276549,0.464158
-0.375570,0.760762,0.625845,-0.288829,-0.738456,0.609311
0.123715,0.114372,0.853189,0.487247,0.413337,-0.769248
-0.167764,-0.215055,0.702806,0.984760,-0.148643,-0.090299
-0.173940,0.207402,0.984410,0.497453,0.719151,-0.485142
0.423675,0.043279,0.598141,0.172185,0.803192,0.570294
-0.076534,0.204956,0.062920,0.970583,-0.232245,0.063487
-0.044187,0.191464,0.394080,0.949976,-0.286637,0.124037
-0.178454,0.394247,0.564395,0.991954,0.062093,0.110328
-0.060222,0.370103,-0.351415,0.697116,0.712080,0.083493
-0.364512,-0.333887,0.666543,0.763212,-0.627877,0.152567
-0.653135,0.836746,0.527866,0.043200,-0.723010,0.689485
-0.611667,0.130390,0.200843,-0.102602,0.218006,0.970539
-0.106943,0.558922,0.327392,0.141910,-0.334573,-0.931624
-0.109800,0.412001,0.492468,0.487082,0.501186,0.715237
-0.158641,-0.064426,0.899504,0.779952,0.283842,-0.557771
0.025479,-0.033731,0.896106,0.400173,-0.913330,0.075431
-0.670093,0.230598,0.210927,-0.041634,-0.467814,0.882846
-0.382944,-0.749083,0.805348,0.629095,0.670290,0.393637
-0.184905,0.245513,0.890190,0.905832,0.206856,-0.369701
0.693590,-0.111215,0.762950,0.398040,-0.416190,-0.817527
-0.486338,0.601611,0.501766,0.296737,-0.355487,0.886327
0.224623,0.175446,-0.765026,0.986894,-0.125687,0.101206
-0.670554,0.408845,0.389958,0.266311,0.517640,0.813097
0.225175,-0.599875,0.769038,0.204941,0.247848,0.946874
0.056904,0.348878,-0.323726,-0.568203,-0.789137,0.233256
0.763810,-0.161715,0.762745,0.320003,-0.909050,0.266882
-0.460445,-0.651083,0.791157,-0.138744,0.985959,-0.092919
0.647513,0.475994,-0.995501,-0.506421,0.080229,0.858546
-0.113855,0.493827,0.797324,-0.223746,-0.946601,0.232128
0.229877,-0.367735,0.823392,0.596067,0.025920,-0.802516
0.233100,-0.001380,0.622085,-0.227023,0.000148,0.973889
-0.785745,-0.269025,0.821048,-0.538590,0.165647,-0.826124
-0.856610,0.292067,0.211572,0.564162,-0.310107,0.765215
-0.354284,0.690220,0.328572,-0.287807,-0.460186,0.839879
-0.829885,0.404664,0.817524,0.832769,0.146700,0.533831
-0.301387,0.153114,0.302677,0.837901,0.305848,0.452083
-0.430770,0.059612,0.817776,-0.420952,0.903483,-0.080727
0.166198,0.167239,-0.693288,-0.261140,0.965301,-0.000229
-0.229233,0.379335,0.499327,0.986460,-0.161880,-0.026294
0.164631,-0.298299,0.837645,-0.738835,-0.476303,-0.476717
0.610377,-0.076261,-0.988170,-0.093422,-0.091183,0.991442
0.159839,0.137806,0.850152,0.501717,0.335503,-0.797319
-0.614432,0.745690,0.536817,0.308803,0.356413,0.881822
-0.682256,0.467392,0.380692,0.323346,-0.106048,0.940320
0.219184,-0.146092,0.821426,0.013942,-0.211926,0.977186
0.225636,0.132757,-0.876031,0.175349,0.747586,0.640600
-0.271991,0.149565,-0.705811,-0.278125,-0.954526,0.107358
0.187484,-0.131021,0.662390,0.899235,0.024747,0.436765
-0.147032,0.545746,0.331042,0.234112,0.077566,0.969110
0.227388,0.341539,0.700100,-0.094978,-0.309675,0.946087
-0.234576,0.451769,0.767229,0.390356,-0.120466,-0.912749
-0.216605,-0.757446,0.769526,-0.316669,-0.079441,0.945204
-0.247293,-0.282914,0.286882,-0.396295,0.166807,0.902843
0.726119,-0.169368,0.752094,-0.367060,0.697808,-0.615086
0.160483,0.244803,-0.505196,0.911260,0.358793,0.202170
0.219924,0.072868,-0.870399,0.098306,-0.989712,-0.103950
0.406995,0.068213,0.783448,0.406228,0.905241,0.124571
0.600514,-0.442696,0.800832,0.262668,-0.201305,0.943654
-0.460259,0.428019,0.833870,0.160355,0.525160,0.835759
0.534442,-0.257033,0.819868,0.478016,0.609432,-0.632529
-0.635904,-0.691405,0.697803,0.034894,-0.781460,0.622978
-0.867577,0.319289,0.560478,-0.540937,0.689733,-0.481306
-0.677188,0.278496,0.545753,-0.035906,0.731546,-0.680846
0.730912,-0.370261,0.780475,-0.254066,0.919561,0.299764
-0.033221,0.306110,0.434858,-0.383289,0.838084,-0.388206
-0.517118,0.079813,0.203093,0.715284,0.551185,0.429608
0.560059,0.134809,-0.988909,-0.382176,0.009076,0.924045
-0.210986,-0.804238,0.646265,-0.014022,0.258968,0.965784
-0.456941,0.368999,0.199585,-0.192699,-0.762835,-0.617211
0.104271,-0.133703,0.588560,0.952156,0.193538,-0.236519
-0.582639,0.217265,0.828332,0.448079,-0.145143,0.882133
-0.389303,0.692036,0.606793,-0.119756,0.758481,-0.640597
0.451873,-0.283230,0.753148,0.535057,-0.574209,-0.619675
-0.425795,-0.305480,0.265659,0.669391,0.513867,-0.536523
-0.086855,-0.388962,0.294496,-0.487610,-0.123982,-0.864213
-0.332075,-0.043122,0.843844,0.832394,0.515980,-0.202199
0.006128,0.706238,0.501357,-0.313483,0.457425,0.832160
-0.697923,0.180811,0.189312,0.218080,0.356677,-0.908417
-0.155140,0.293249,0.296887,0.501071,0.862751,0.067741
-0.747133,-0.513079,0.705952,-0.526706,0.471659,0.707190
-0.097269,0.105299,0.850797,0.905627,0.317735,0.280864
-0.174863,-0.080839,0.670429,0.443044,0.258951,-0.858287
0.234208,-0.625597,0.773757,0.242097,0.424562,0.872431
-0.566421,0.364658,0.387614,-0.335727,0.935861,0.107015
-0.737917,0.526809,0.791944,-0.154024,-0.535673,-0.830260
-0.813666,0.379650,0.809202,0.840983,-0.036102,0.539856
-0.233102,-0.829014,0.619646,0.651540,0.676205,0.343864
-0.309405,-0.130390,0.612111,-0.616079,-0.453991,0.643692
0.029903,0.310057,-0.437705,0.952334,-0.298269,-0.064004
-0.003549,-0.821677,0.578932,-0.263604,-0.203058,0.943017
-0.651754,-0.114926,0.779437,0.653591,0.338038,0.677162
-0.173665,-0.185940,0.613259,-0.538642,-0.210476,0.815821
-0.433813,0.177338,0.197870,-0.020239,-0.178909,0.983657
-0.654980,0.322051,0.855942,0.454745,-0.419543,0.785615
-0.546608,0.264924,0.837582,0.296262,-0.579983,0.758847
-0.189883,0.521996,0.577783,-0.332713,0.754754,-0.565375
0.121134,0.238253,-0.475352,0.930285,0.020333,-0.366273
-0.274755,-0.478676,0.793249,-0.212499,-0.972591,-0.094395
-0.547713,0.034126,0.207923,0.222467,0.106709,0.969083
0.079574,-0.404741,0.852512,0.697292,0.673413,-0.245558
-0.259088,0.165108,0.292451,-0.628083,-0.341768,0.699075
-0.072847,0.116739,0.918980,0.913309,-0.399803,-0.077616
-0.190713,-0.224682,0.656365,0.903480,0.427985,0.023520
-0.111367,-0.022055,0.862046,-0.305291,-0.576834,0.757667
-0.548543,-0.339172,0.596158,-0.288757,0.454417,-0.842689
-0.167213,0.477650,0.138088,0.661147,0.080170,0.745961
0.269502,-0.128338,0.812914,-0.836189,0.501055,-0.223007
-0.239093,-0.362134,0.725444,0.947760,0.117335,0.296621
0.065105,0.228390,-0.041493,0.892875,-0.442168,-0.085212
-0.580704,-0.540142,0.704662,-0.405329,-0.213880,-0.888799
-0.828779,0.385410,0.216890,-0.619983,0.596849,-0.509306
-0.151453,0.614393,0.836214,0.384603,0.749674,-0.538581
-0.241027,0.163926,0.965688,0.883248,-0.384127,-0.268922
-0.211906,-0.482700,0.808698,0.289068,0.889116,-0.354843
0.107404,0.226969,-0.161639,-0.789372,0.529267,0.311076
-0.241764,0.132362,0.637817,-0.015110,-0.810170,0.586000
-0.778557,0.524914,0.793076,-0.342692,-0.157943,-0.926076
-0.348108,0.179154,0.453044,0.754674,0.225067,0.616288
0.543658,0.164793,-0.993267,0.342750,-0.255398,-0.904043
0.840943,-0.499507,0.617208,-0.643920,0.662010,-0.383550
-0.534903,-0.446168,0.756688,-0.143372,0.264545,0.953656
0.495000,-0.254428,0.664200,0.058528,0.485360,0.872353
-0.242594,-0.080049,0.744653,0.368139,-0.244319,-0.897097
-0.456573,0.072788,0.659260,0.659987,0.338313,-0.670792
0.001980,-0.609894,0.707400,-0.628838,-0.724828,-0.281402
-0.047781,0.019529,0.613715,0.319664,-0.829183,-0.458552
-0.483942,0.607371,0.400310,0.197465,-0.715486,0.670139
0.122332,0.336964,-0.573866,0.528514,0.835708,-0.149218
-0.298991,-0.052985,0.289399,0.794616,0.411565,-0.446317
0.249228,-0.271946,0.660959,0.355410,-0.900353,0.251093
-0.419529,-0.717522,0.806716,0.815575,0.531881,0.227903
0.175782,-0.006273,0.778980,-0.053682,0.929429,0.365074
-0.746671,0.304138,0.549072,0.074338,-0.392973,0.916540
0.038472,0.242592,0.927239,0.858864,-0.046636,-0.510075
0.083168,0.493117,0.492972,0.059823,-0.450397,0.890822
-0.538129,-0.418946,0.693162,-0.081335,0.668783,0.738995
-0.228035,-0.470549,0.766914,-0.213329,0.250707,0.944265
-0.806478,-0.462502,0.691054,0.123681,-0.324485,-0.937770
-0.092477,0.459424,0.790669,-0.173641,-0.867161,0.466777
-0.195412,-0.342960,0.558417,-0.350255,0.936121,0.031614
0.041054,-0.411922,0.847541,-0.082784,0.263528,0.961093
-0.258719,0.148618,0.429461,-0.223935,0.944264,0.241284
-0.665022,0.230993,0.502442,0.417225,0.896500,0.149037
0.119753,0.234071,-0.787004,-0.512449,0.855035,-0.079439
-0.058931,0.025684,0.295928,-0.741419,0.190588,0.643409
-0.533612,0.558371,0.755933,0.665581,-0.272392,0.694841
-0.188868,-0.820176,0.642442,0.867483,-0.379134,-0.322072
-0.567619,0.413186,0.378930,-0.662796,0.041349,-0.747658
-0.248952,0.052354,0.199207,-0.097387,-0.449805,0.887801
-0.206284,0.085257,0.925572,0.027020,0.362566,0.931566
-0.220939,0.481202,0.802862,-0.542964,0.784111,-0.300599
0.658020,-0.217581,-0.983198,-0.330355,0.109033,0.937538
0.323318,-0.571942,0.653927,0.082741,0.485108,0.870531
-0.059210,0.496666,0.764837,0.082952,-0.987473,-0.134223
-0.608166,0.463448,0.197304,0.274398,-0.018853,0.961431
0.155970,0.160138,-0.914622,0.520603,0.845033,-0.122031
-0.632217,0.399615,0.774009,-0.378466,-0.719980,0.581714
-0.633601,0.572809,0.560415,0.209205,-0.147468,-0.966688
0.843431,0.361660,-0.982129,-0.401742,-0.043148,0.914736
-0.227849,-0.663077,0.783700,-0.205600,0.446005,0.871096
0.017740,0.303743,0.708438,-0.148576,-0.751879,0.642342
0.101321,-0.832327,0.578491,-0.181456,0.038776,0.982634
0.700317,-0.341462,0.790559,0.231254,0.835168,0.499015
-0.059210,0.375075,0.927365,-0.517517,0.610284,-0.599775
-0.042899,0.346906,0.749121,0.846622,-0.406185,0.343868
-0.764088,0.361424,0.546083,-0.564520,0.339892,-0.752191
0.313644,0.558055,0.299499,0.526036,-0.036710,-0.849670
-0.203151,0.192172,0.123206,-0.632522,0.773369,0.042619
-0.065383,0.237068,0.092685,-0.706780,0.688391,-0.163035
-0.207668,-0.149642,0.739808,0.304815,-0.357309,-0.882846
-0.073215,-0.850081,0.568234,0.681848,0.388008,-0.620107
-0.556650,0.632857,0.401741,-0.116884,0.791513,-0.599871
-0.467816,-0.050303,0.215411,-0.071481,-0.506810,-0.859089
-0.244714,0.109953,0.187109,0.726881,-0.146151,-0.671032
-0.234669,0.506765,0.474628,0.970855,0.213534,-0.108831
-0.036908,0.263975,0.731485,0.504846,0.774485,0.381187
0.500529,-0.022922,0.826916,-0.359226,-0.237488,0.902528
-0.182602,-0.451690,0.757255,0.387624,0.500327,0.774222
0.642721,-0.587722,0.624240,0.489130,0.513890,0.704747
0.395290,-0.725097,0.623359,0.742752,0.399643,-0.537220
-0.164724,0.623704,0.797167,0.976466,-0.111283,-0.184743
-0.014053,0.159900,-0.051404,-0.252769,0.363094,0.896811
-0.532693,-0.497456,0.871359,0.875270,0.234133,0.423183
0.454728,-0.137335,0.778949,0.538845,-0.131178,0.832129
0.311155,-0.101985,0.772515,0.300534,0.061648,-0.951777
-0.742523,0.529728,0.207293,0.124181,-0.249934,0.960267
-0.732295,0.198011,0.856508,-0.202452,0.650965,-0.731613
-0.001890,-0.308872,0.865727,0.887453,0.358466,0.289706
-0.514168,0.261293,0.874600,0.782633,0.622483,0.000030
0.038289,0.250878,-0.544557,0.980727,0.195138,0.009758
0.248306,0.719494,-0.884291,0.988023,-0.153991,0.009851
-0.356863,0.060086,0.805631,-0.724358,0.686161,0.067002
-0.338065,0.465341,0.780554,0.302140,0.570600,-0.763628
0.139197,0.559868,0.309363,0.925099,-0.375274,0.057981
0.088883,0.287253,-0.175499,0.781455,0.622684,-0.039916
0.044001,0.347142,-0.459352,0.555699,-0.824939,-0.103315
-0.097730,0.293093,0.233157,0.945892,-0.294109,-0.137071
0.790628,-0.384464,0.612520,0.076990,0.401262,0.912722
0.383034,-0.180180,-0.988909,0.079321,0.012883,0.996766
-0.107590,0.230126,0.250336,0.920399,0.361885,0.148001
0.677554,-0.432359,0.770013,0.276271,0.601427,0.749640
0.207390,0.199668,-0.703561,0.972572,0.164933,0.164017
-0.788786,0.557106,0.790245,0.783833,-0.053101,0.618696
0.388931,-0.005011,-0.978652,-0.574343,0.072636,-0.815386
0.525412,-0.558766,0.798236,-0.117057,0.386868,0.914675
0.245173,-0.404269,0.772436,-0.778848,0.292950,0.554595
-0.100955,-0.105455,0.273950,0.889969,-0.022627,0.455459
-0.231997,-0.466605,0.768896,-0.413492,0.232324,0.880369
0.132470,0.188148,-0.550409,-0.148617,0.980039,-0.132048
-0.748331,0.186807,0.188871,0.767718,0.490990,-0.411749
-0.221122,0.316212,0.757144,0.948869,-0.314719,-0.024469
-0.733769,0.514261,0.204855,0.124181,-0.249934,0.960267
0.601068,0.161241,-0.982915,-0.294004,0.079001,0.952534
0.500160,-0.529253,0.795263,0.043278,0.316898,0.947472
-0.086855,-0.409478,0.858176,-0.582815,0.807820,-0.088056
-0.287933,0.469682,0.774465,0.305503,0.655047,-0.691072
-0.055891,0.240461,0.881097,-0.630660,-0.039489,0.775054
-0.136987,0.293013,0.728182,-0.065313,-0.903895,0.422739
-0.495093,0.149565,0.496181,0.011119,0.719717,0.694179
-0.045016,0.312265,-0.307507,-0.530409,0.831265,-0.166328
-0.635628,-0.031285,0.773018,-0.691118,-0.326617,-0.644730
-0.240383,-0.140412,0.902241,-0.230091,0.572385,0.787041
0.722157,-0.502269,0.617365,-0.044296,-0.058460,0.997307
0.034788,0.195803,-0.595938,0.421840,0.862761,-0.278738
-0.715615,0.444984,0.744118,0.851042,0.398924,-0.341448
-0.117725,-0.082890,0.309568,-0.297450,0.954231,-0.031087
0.142884,-0.827673,0.587270,-0.305928,0.352540,0.884377
0.198913,0.215370,-0.663035,0.854220,0.396253,0.336588
-0.697831,0.551426,0.400436,-0.471574,0.585183,-0.659680
-0.178732,0.133783,0.872508,0.667924,0.039072,-0.743203
-0.182509,0.256479,0.881522,0.970003,0.211116,-0.120513
-0.669815,0.484356,-0.026202,0.403900,0.854534,-0.326552
-0.212736,0.256954,0.651913,0.209369,0.643629,-0.736143
-0.717643,0.281178,0.543299,-0.201110,-0.811296,0.548957
-0.278535,-0.120606,0.901140,-0.302041,0.187298,0.934714
-0.028891,0.192489,-0.090011,-0.135889,0.982984,-0.123600
0.202505,0.097644,-0.804576,-0.561434,0.820167,-0.110083
0.748975,-0.361896,0.765624,-0.746822,0.665017,-0.003141
-0.037645,0.359372,-0.359847,0.898804,0.306327,0.313554
-0.160576,-0.086044,0.286111,0.656154,-0.754611,-0.004850
-0.197071,-0.409083,0.844693,0.033289,0.531319,0.846518
0.687968,-0.408452,0.798425,0.239275,-0.769219,-0.592494
-0.563471,0.227523,0.527692,-0.270765,-0.961204,-0.052666
-0.138829,0.297511,0.612661,0.112864,0.892822,-0.436040
-0.039119,0.102696,0.842443,0.066770,-0.468868,0.880741
-0.551029,0.189174,0.751040,0.652771,-0.668469,-0.356425
-0.586140,-0.361581,0.841342,0.368480,0.048820,0.928353
0.697091,0.181600,-0.984567,-0.301048,0.599915,0.741264
0.171820,-0.133547,0.820733,0.505168,-0.187463,-0.842415
0.024006,0.329309,0.724280,-0.504752,0.405070,0.762328
-0.231167,-0.010140,0.623784,0.511976,-0.172618,0.841477
-0.174309,0.890008,0.334754,0.507294,0.316340,-0.801612
-0.073862,-0.035783,0.511929,0.532002,-0.267416,-0.803407
-0.347925,0.020160,0.663822,-0.593528,-0.726002,0.347342
-0.401834,0.052116,0.950507,0.930767,0.066031,-0.359600
0.021334,0.747978,0.335415,0.250483,0.415190,-0.874572
-0.339539,0.702530,0.326810,0.088260,-0.591184,0.801693
-0.356401,0.570601,0.589504,-0.133715,-0.181473,0.974263
0.102981,0.377204,0.320706,0.850189,-0.154893,0.503178
-0.206745,-0.390460,0.603033,0.310808,0.928828,-0.201684
0.240012,0.186491,-0.843907,0.948241,0.316719,0.022976
-0.406812,-0.340752,0.245963,-0.648021,-0.618960,0.443798
-0.464683,0.106719,0.658630,0.377669,0.024745,-0.925610
-0.299267,0.404033,0.810193,0.560209,0.417014,-0.715726
-0.205640,0.201327,0.727474,0.540047,-0.366462,0.757664
0.647145,-0.180257,-0.981955,-0.330355,0.109033,0.937538
0.347093,-0.637591,0.660251,-0.137806,0.435102,0.889773
0.058378,0.057876,0.832186,0.862494,0.110038,-0.493960
0.555821,-0.084547,0.823487,0.431803,0.835762,-0.339187
0.001243,0.055273,0.696151,0.199230,0.738835,-0.643763
0.036355,0.206612,-0.125754,-0.368865,0.846737,-0.383373
-0.254206,-0.345247,0.305572,0.425785,-0.791227,-0.438938
0.850988,-0.313529,0.618718,-0.141623,-0.393674,0.908275
0.093121,-0.505819,0.505872,0.947651,-0.164735,-0.273534
-0.562090,-0.056930,0.592194,0.063623,-0.016621,0.997836
-0.217803,0.347853,0.505070,0.969316,-0.191609,-0.153991
-0.060039,0.240856,0.922819,-0.358318,0.551216,0.753504
0.086301,-0.123209,0.759787,0.826773,-0.029068,-0.561784
-0.310049,0.249378,0.219910,0.387522,0.208184,-0.898046
-0.522093,0.391013,0.566598,-0.507549,-0.328649,0.796482
-0.500070,0.413658,0.576949,0.313062,0.337197,-0.887857
0.242315,-0.248747,0.738061,-0.522416,0.097730,-0.847071
0.060867,0.910760,0.368091,-0.577232,-0.811043,-0.094935
-0.096163,0.854659,0.338263,-0.604131,-0.289687,0.742366
-0.889418,-0.561448,0.695428,-0.536935,0.436883,0.721688
-0.211355,0.495799,0.360697,0.970908,0.000601,0.239450
-0.123808,-0.030813,0.677682,-0.258752,0.516075,-0.816525
-0.251256,0.496666,0.327502,0.892867,0.270742,0.359843
-0.167213,0.875803,0.329233,0.441256,0.302480,-0.844866
0.288299,-0.625361,0.773112,0.210449,-0.122800,-0.969861
0.461179,-0.713970,0.637628,-0.430905,0.534795,0.726853
-0.077732,-0.820018,0.809689,-0.147778,0.330933,0.932011
0.596183,-0.536829,0.613637,-0.044682,0.696855,0.715819
0.980277,-0.250247,0.628708,0.511760,0.198907,-0.835786
-0.650739,-0.300904,0.809517,-0.252475,0.000622,-0.967603
0.182231,-0.087704,0.780349,0.229188,0.563063,0.793998
-0.282036,0.485462,0.589016,0.075561,0.997046,-0.013745
-0.005667,0.384069,0.683330,-0.720389,0.693008,-0.027941
0.181494,0.680200,0.353601,-0.062992,-0.511958,0.856698
-0.460721,0.702530,0.593437,0.990289,0.025329,0.136698
-0.046214,0.275734,0.038127,0.409241,0.852234,-0.325913
-0.113211,0.505188,0.797324,0.433787,0.900215,0.037975
0.654701,-0.462107,0.811483,-0.395433,0.393059,0.830143
0.117908,-0.724149,0.714369,-0.308219,0.528702,0.790870
0.239000,-0.050303,-0.695994,-0.421993,-0.889440,-0.175554
0.103717,0.230757,-0.320013,0.920492,0.355876,0.161388
0.247754,0.179549,-0.846141,0.948241,0.316719,0.022976
-0.530665,0.205902,0.500444,-0.364957,0.373161,0.852970
-0.337511,-0.866810,0.747422,0.307389,0.390911,0.867583
0.529189,-0.361265,0.800187,-0.541427,0.201117,0.816338
0.001243,-1.000000,0.589047,-0.335122,0.499518,0.798859
-0.418053,0.057955,0.590558,-0.040196,0.109058,0.993222
0.161589,-0.822703,0.582330,-0.590395,0.099142,0.801002
-0.245634,0.491065,0.814944,0.602479,-0.708870,0.366774
-0.114871,0.419892,0.408554,0.080220,0.852938,0.515812
0.106850,0.302876,-0.284443,0.975972,0.191795,-0.103409
0.167396,0.086993,-0.759048,-0.642417,0.744554,0.181492
-0.662443,-0.678226,0.784172,-0.269168,0.930287,0.249228
-0.417316,0.726044,0.505274,0.236560,-0.427413,0.872558
-0.062343,-0.120447,0.907732,0.784542,0.507659,0.356056
-0.041701,0.291828,0.221091,0.892053,-0.366346,0.264636
-0.215500,-0.731724,0.645573,-0.212935,-0.032797,-0.976516
-0.698753,0.408373,0.763217,-0.658782,0.704194,0.264797
0.448555,0.106404,-0.990372,0.248463,0.122429,0.960873
-0.664285,0.390382,0.508012,-0.464136,0.452079,0.761710
0.043818,-0.046987,0.889498,0.864115,-0.386134,-0.322808
-0.059761,-0.071842,0.785965,-0.608696,0.750877,0.256267
0.411047,-0.245985,0.797796,0.623343,-0.187216,-0.759206
0.797909,0.144277,-0.977723,-0.152536,0.205019,0.966799
-0.786665,-0.051170,0.787916,0.297917,0.534849,0.790684
0.194029,-0.061584,-0.772750,0.667811,0.712578,0.215082
-0.071649,-0.006747,0.191089,-0.165125,0.283475,0.944656
0.604477,-0.680278,0.687027,-0.632678,0.581120,0.511877
-0.242408,0.977276,0.350487,-0.463221,-0.670520,0.579509
-0.277151,0.735748,0.622195,0.072720,0.854316,-0.514641
0.188131,-0.536354,0.654933,-0.593383,0.321990,0.737712
0.063631,-0.052826,0.885172,0.325200,0.944811,0.039720
-0.079023,-0.892060,0.555994,0.508372,0.279268,0.814596
-0.573330,0.068924,0.206240,0.315072,-0.145952,-0.937778
-0.129430,-0.118555,0.605330,-0.482289,0.060965,0.873888
-0.251531,0.339251,0.286866,-0.491440,0.870660,0.020940
0.491406,-0.173789,0.647618,-0.020445,0.259864,0.965429
-0.689905,0.631277,0.541993,0.806983,-0.547277,-0.221959
-0.267199,-0.338305,0.526890,-0.715444,0.593906,-0.367989
-0.688890,-0.431728,0.737810,0.495960,-0.026412,0.867943
-0.108881,-0.510792,0.830204,-0.747350,-0.639890,0.178908
-0.347279,0.326390,0.610270,-0.249321,-0.347015,0.904112
-0.850619,-0.109243,0.832690,0.831273,-0.067413,0.551762
-0.295673,0.338857,0.794791,0.789945,0.494894,0.362031
0.050360,0.215608,-0.240551,0.207333,0.975577,-0.072539
-0.690456,0.397089,0.793706,0.153296,0.828215,0.539037
0.846933,-0.108928,0.744008,-0.264504,0.954972,-0.134408
-0.418514,0.604688,0.315027,0.105349,0.385654,-0.916609
-0.352900,0.449797,0.809155,0.203836,-0.783247,0.587346
-0.823619,0.492642,0.591313,0.898165,-0.192415,0.395318
0.054047,-0.313370,0.638352,0.115944,-0.119845,-0.985999
-0.511772,-0.394011,0.594381,-0.260992,0.412010,-0.873001
0.002348,0.215845,0.426189,0.519007,-0.263030,-0.813294
0.091830,0.342170,-0.554185,0.077456,0.996631,-0.026953
-0.439986,-0.247170,0.828002,0.521402,0.255069,0.814297
0.316869,-0.245906,0.794665,-0.025954,0.054543,0.998174
0.126756,-0.659369,0.749782,0.525997,-0.585265,0.617084
-0.311801,0.346668,-0.212579,0.006676,-0.997424,0.071419
-0.003456,-0.016610,-0.806433,-0.260283,0.278294,0.924557
-0.873014,0.278257,0.212721,0.600024,-0.273982,0.751602
0.356402,-0.193908,0.653360,-0.252959,0.361541,0.897385
0.073123,0.260426,-0.130663,0.667088,-0.406912,0.624032
-0.255772,0.485146,0.156573,0.173021,-0.976533,0.128249
0.100402,0.134888,0.851568,0.573146,0.044011,-0.818271
-0.541447,-0.329783,0.266131,-0.726471,-0.685444,-0.049052
-0.736812,0.478835,0.772656,-0.288127,-0.107013,-0.951594
-0.686126,0.489090,0.751103,-0.881822,0.075958,0.465425
0.558679,0.589065,-0.762493,0.301978,-0.231368,0.924812
-0.450492,-0.128575,0.823251,-0.183853,-0.064062,-0.980864
-0.098928,0.188543,0.388149,0.758106,0.632300,-0.159603
0.056443,0.054562,0.637313,-0.405352,-0.914079,0.012241
0.380270,-0.058035,0.636165,-0.086644,0.767230,0.635493
-0.474267,0.272497,0.870179,0.574811,0.810937,0.109426
-0.657376,0.338069,0.479647,-0.690696,0.044571,-0.721770
0.205362,-0.741272,0.736708,0.334792,0.630852,-0.699957
0.174030,0.281965,-0.611466,0.790585,0.544004,0.281133
0.027414,-0.535567,0.567825,0.774694,0.106876,0.623239
0.635901,-0.332466,0.608775,-0.736560,0.663918,-0.129195
-0.339539,0.105299,0.434543,-0.007817,-0.974040,0.226240
0.052297,0.358898,0.337350,0.351834,0.486168,0.799908
-0.064002,-0.357793,0.834719,0.854048,-0.259365,-0.450924
-0.561721,-0.398194,0.800879,-0.132095,0.916050,-0.378687
0.125558,0.505742,0.324513,-0.699926,0.357441,-0.618336
-0.207482,0.361896,0.411244,0.101750,0.073600,0.992084
-0.403769,-0.733776,0.715753,0.919872,-0.088799,-0.382035
0.019582,0.205587,0.148078,0.222292,-0.211388,-0.951788
0.291711,-0.291987,0.642363,-0.311824,0.119522,0.942593
-0.150441,0.256559,0.367839,0.768798,0.622238,0.147543
0.146017,0.114372,-0.937544,0.949884,0.281702,0.135518
-0.335669,-0.153430,0.843293,0.980301,-0.006914,-0.197389
-0.730085,0.637907,0.517986,-0.707898,0.706308,-0.003003
0.027321,0.327180,-0.428187,0.895461,-0.438221,-0.078184
0.753489,0.032469,-0.981751,0.319356,0.128452,-0.938889
0.826198,0.045410,-0.974325,-0.324421,-0.101760,0.940423
-0.158827,-0.112164,0.511992,-0.635019,0.304025,0.710154
0.244897,-0.422101,0.882828,-0.652390,0.461755,0.600974
-0.491867,-0.362134,0.601712,-0.320093,0.528347,-0.786377
0.251624,0.899792,-0.756185,0.572404,0.605924,0.552458
-0.132839,-0.754607,0.593987,0.985362,-0.170022,0.012454
-0.153391,0.536829,0.794618,0.994681,0.102997,0.000921
0.163158,0.261136,0.595230,0.663823,0.136283,-0.735368
-0.673040,0.862706,0.539665,0.014888,-0.457039,0.889322
-0.389671,-0.015979,0.851191,-0.103179,-0.869637,0.482789
-0.084551,-0.942163,0.572969,0.682388,0.024169,-0.730591
0.196793,-0.314317,0.858144,0.141681,0.900612,0.410883
-0.467723,0.385805,0.738172,0.717709,0.522283,0.460559
0.030179,-0.296722,0.849492,-0.052315,0.103304,0.993273
-0.665022,0.375075,0.859702,-0.391156,0.756401,-0.524266
0.603740,-0.074840,0.843624,-0.598903,0.436589,0.671346
-0.602820,0.891270,0.532475,-0.258095,-0.542283,-0.799573
-0.083815,-0.395273,0.865239,0.492246,-0.779979,0.386428
-0.163433,-0.666550,0.779704,-0.315347,-0.466312,-0.826504
-0.590010,0.369156,0.769510,-0.652646,-0.257661,0.712505
-0.587983,0.399535,0.693209,0.829324,0.082475,0.552647
-0.599133,0.253166,0.832784,0.454189,-0.215524,0.864443
0.268028,-0.456978,0.777785,-0.603263,0.139189,0.785303
-0.459061,0.168501,0.600941,0.968963,-0.125246,0.213131
-0.439249,0.634593,0.591816,0.639192,0.713519,-0.286922
-0.604848,0.422734,0.700163,0.708994,0.416106,0.569371
-0.697923,-0.578807,0.709917,-0.077828,-0.152232,0.985276
0.180482,-0.376257,0.639107,-0.106036,-0.317704,0.942242
-0.233563,0.563105,0.487985,0.816482,0.431233,0.383920
-0.373360,-0.335779,0.824006,0.846399,0.529618,0.055793
-0.269502,0.160769,0.618986,0.952812,0.289834,0.090250
-0.911348,0.403164,0.228343,0.442817,-0.703423,0.555975
-0.760862,-0.354559,0.691211,0.206687,0.268444,0.940860
-0.139565,0.621809,0.818594,0.897883,0.281102,0.338804
-0.742892,0.411370,0.772672,-0.542928,0.768799,-0.337900
-0.283049,0.014795,0.294402,0.743413,0.200258,-0.638149
0.168594,0.347142,0.598675,0.741963,0.216226,-0.634616
0.214671,0.208112,0.154056,0.286596,0.037314,-0.957325
0.052573,0.213713,0.624633,0.237654,-0.136511,0.961710
-0.472147,-0.318658,0.253970,0.427216,0.729336,0.534373
-0.135420,0.535724,0.606667,0.923986,-0.270681,0.270151
0.019768,0.314160,-0.372543,-0.574706,-0.711530,-0.404276
0.631756,-0.019055,0.814126,-0.384386,0.809719,0.443399
-0.643643,0.480807,0.770517,-0.470110,-0.499396,-0.727737
-0.493895,0.461237,0.359627,-0.306422,0.561755,-0.768464
-0.278993,-0.061823,0.879084,0.837489,-0.545036,-0.039349
-0.017833,0.164241,0.286284,0.974137,0.102507,0.201369
0.263695,0.694164,0.291932,0.481528,0.103339,0.870317
-0.703728,-0.556555,0.714825,0.814397,-0.511276,-0.274507
0.032943,0.423206,0.735497,0.358138,-0.750925,0.554842
0.310969,-0.843375,0.595136,0.269849,0.604578,0.749444
-0.259273,0.165108,0.980728,-0.499864,-0.044544,0.864957
-0.360643,0.204561,0.540671,-0.491031,-0.865423,-0.099660
-0.216974,0.545666,0.493507,0.899639,0.435946,0.024531
-0.788141,0.403400,0.558889,0.691609,-0.301831,0.656182
-0.197622,0.334833,0.880043,0.997624,-0.019511,-0.066079
0.349213,-0.045961,0.639721,0.081501,0.800793,0.593370
0.071556,0.023473,0.809438,0.248676,-0.816541,0.520980
-0.450861,0.779067,0.341063,-0.290516,0.277135,-0.915858
0.151268,0.431648,0.312871,0.949503,-0.190726,0.249132
0.170068,0.294355,-0.769872,-0.087515,0.990342,0.107535
-0.154035,0.380835,0.561375,0.976073,0.210618,0.054046
-0.196332,0.201088,0.888476,0.787695,0.369282,-0.493120
0.090907,0.270210,-0.699644,0.901430,-0.408228,0.144131
-0.602637,-0.644297,0.702948,0.289023,0.288222,-0.912904
-0.283785,0.302481,0.898953,0.919118,0.380599,0.101816
0.496935,-0.019765,0.770580,0.768871,-0.547355,0.330514
-0.108602,-0.419418,0.301686,-0.765714,0.467731,-0.441486
0.061972,-0.040124,0.892566,-0.802642,0.030971,0.595656
0.061789,0.347614,-0.307098,-0.306363,0.899954,0.310201
-0.720315,-0.057089,0.788168,-0.250574,-0.310521,0.916946
0.163158,0.640430,0.336564,-0.519609,0.641645,-0.564179
-0.108788,0.193751,0.241951,0.912136,-0.259157,0.317563
-0.330877,-0.843847,0.647051,0.811267,0.535342,0.235064
-0.231075,0.284255,-0.184513,0.129494,0.981520,0.140888
-0.067686,-0.324811,0.893431,-0.508275,0.063326,0.858863
0.873565,0.178049,-0.973728,-0.705172,0.323162,0.631109
-0.150441,-0.008561,0.953119,0.003121,-0.614929,0.788576
-0.065844,0.190358,0.844048,0.185421,-0.212312,0.959449
-0.035803,0.258769,0.090420,0.637222,-0.728267,0.252140
-0.411418,0.135124,0.715061,0.705279,0.503742,-0.498824
-0.849146,0.374760,0.564757,-0.655536,0.536967,-0.530980
-0.740406,0.463999,0.207671,0.225985,0.287935,0.930604
-0.346542,-0.728726,0.644991,-0.128093,-0.154591,0.979640
-0.487167,0.163372,0.609137,0.969828,-0.056938,0.237047
0.660137,-0.418472,0.648436,-0.069307,-0.609602,0.789672
-0.270239,0.235966,0.752928,0.389177,0.188236,-0.901725
-0.244714,-0.278021,0.527944,0.785237,-0.592260,-0.180640
-0.559140,0.338700,0.177937,0.019134,-0.366186,0.930345
-0.412431,-0.635224,0.577532,0.587067,0.800363,-0.121535
0.303967,0.007299,-0.735607,0.542083,0.665570,0.512994
0.029259,0.316684,-0.058578,0.056478,0.955815,0.288493
-0.169792,-0.318736,0.300144,0.297162,-0.837385,0.458783
-0.185184,-0.308400,0.741648,0.922873,0.128308,0.363102
0.138922,0.288515,0.589724,-0.409917,-0.364370,0.836183
-0.340644,0.453980,0.549560,-0.163819,0.966755,-0.196336
0.407824,-0.514895,0.623296,0.022973,-0.996059,0.085660
-0.669263,0.278416,0.545564,-0.035906,0.731546,-0.680846
0.224531,0.168501,-0.749687,0.985482,-0.160696,-0.054783
-0.254113,0.064741,0.535480,-0.316539,-0.947016,0.054440
-0.155970,-0.125182,0.901628,-0.120890,0.728793,0.673978
0.612680,-0.150275,-0.985322,0.128537,-0.136035,-0.982330
-0.206194,0.167711,0.192175,0.734997,-0.630853,0.248604
-0.737549,0.215845,0.853881,-0.645609,0.454780,-0.613486
-0.165368,0.529728,0.570216,0.509387,-0.702958,0.496362
-0.777174,0.497771,0.585193,-0.710909,0.267268,-0.650520
-0.354377,0.121712,0.574464,0.648211,0.466257,0.602020
-0.466804,-0.559317,0.756735,0.951977,0.108769,0.286199
0.628713,-0.430781,0.623029,-0.033714,0.736944,0.675113
-0.382758,0.038388,0.908329,0.860371,-0.411752,0.300370
-0.022346,0.912496,0.372039,0.700640,0.318639,-0.638414
-0.229691,0.239595,0.950334,-0.689001,0.691730,0.216303
-0.712390,0.648401,0.543755,0.854030,-0.456757,-0.249010
-0.441738,0.345011,0.372102,0.318200,-0.060783,0.946073
-0.730636,-0.069319,0.811703,-0.067464,0.773399,0.630320
-0.193935,0.089045,-0.811263,-0.370701,0.737804,0.564115
-0.790813,0.410424,0.376602,-0.341656,0.864500,-0.368660
-0.417040,0.101511,0.687703,0.823505,0.521887,-0.222426
0.205362,0.133388,-0.791676,0.909790,-0.403464,0.097463
-0.305626,0.663157,0.501861,0.333514,-0.380830,0.862402
-0.331890,0.463999,0.169615,-0.399722,-0.528937,-0.748631
0.160483,0.170078,-0.900369,-0.227651,0.951728,0.205885
0.076348,0.224602,-0.482242,0.894044,0.296939,-0.335428
0.362760,-0.431648,0.800785,0.696688,-0.340423,-0.631456
0.080218,0.338700,-0.535354,0.688115,-0.725569,0.006912
0.233654,-0.350771,0.742105,-0.283108,0.681887,0.674448
-0.055337,0.289146,0.278859,-0.089280,0.775283,0.625273
-0.030181,0.332071,0.739823,0.898983,-0.300455,0.318680
-0.605309,0.572732,0.772971,-0.618133,-0.047701,-0.784625
-0.393726,0.746085,0.326007,0.200376,0.326231,-0.923809
0.046859,0.225628,0.007622,0.979213,-0.197435,0.046492
-0.392343,-0.116977,0.594097,-0.361823,-0.497795,0.788216
-0.725661,0.567129,0.738219,-0.435012,-0.111436,0.893502
-0.475555,0.369707,0.358306,0.316284,-0.071479,0.945968
-0.200294,0.058271,0.193496,0.213092,-0.059509,0.975218
-0.103903,-0.305164,0.291413,-0.052927,-0.514526,0.855840
-0.072571,0.416341,0.491760,0.376748,-0.531591,0.758599
0.499977,-0.522468,0.789143,-0.021875,0.249682,0.968081
