-0.112344,0.647071,0.475948,-0.079227,-0.959277,0.271128
0.154655,-0.303757,0.656881,0.832491,-0.296056,0.468305
0.429780,0.000947,0.800731,0.964304,0.243664,0.103665
0.461430,0.343970,0.785099,-0.578255,-0.342870,-0.740311
-0.293699,-0.230843,0.783580,0.088216,0.560497,0.823444
-0.229807,-0.230987,0.768768,0.774748,0.461607,0.432069
-0.575595,0.521417,0.541728,0.121074,0.357977,-0.925847
0.167690,0.019085,-0.945431,0.885267,-0.388462,-0.255735
0.157026,-0.340108,0.779159,0.439004,0.877782,-0.191764
-0.195871,0.481134,0.619965,0.655720,-0.567898,0.497518
-0.082724,-0.604676,0.678225,0.138177,0.953264,-0.268690
0.124020,0.073646,0.274035,0.961468,0.257471,0.096377
-0.766936,-0.343750,0.572491,-0.263071,0.955259,-0.135185
-0.361149,0.208770,0.552681,-0.648184,0.529310,0.547438
0.438920,-0.101543,0.830506,-0.624018,0.772604,-0.116978
0.203994,0.355478,0.784111,0.156050,-0.234639,0.959475
-0.281852,-0.227855,0.817776,0.078468,-0.762529,0.642177
-0.048535,-0.500655,0.672893,0.707174,0.689773,-0.155303
-0.213134,0.235286,0.603695,-0.156381,-0.698944,0.697869
0.501037,0.597903,0.740010,-0.726613,-0.550152,0.411541
-0.059196,0.030813,0.737457,-0.438091,-0.208328,-0.874457
0.143739,-0.188519,0.850666,-0.166977,-0.742229,0.649011
-0.379764,-0.099505,0.654435,-0.272302,0.546857,-0.791706
-0.159988,0.209061,0.808311,0.834629,0.040914,-0.549291
-0.249526,-0.662806,0.547318,0.219429,-0.643106,0.733666
0.094317,-0.086538,0.862455,0.665167,0.532801,-0.523141
0.175729,0.202944,-0.955200,0.297051,0.165261,-0.940452
0.208480,0.025058,-0.936225,-0.363431,0.913329,0.183709
0.007913,0.067526,0.879636,0.981917,-0.037623,0.185534
0.056911,0.222902,0.735832,0.167923,-0.400783,0.900653
0.387975,0.293925,0.642114,0.767893,-0.115213,-0.630132
0.125120,-0.038607,0.928204,-0.578527,0.158922,-0.800032
0.268397,0.333553,0.602039,0.847725,-0.057858,-0.527271
-0.231328,0.438010,0.630918,0.714241,-0.476381,0.512758
0.372657,-0.446022,0.573084,-0.227885,0.971694,-0.062280
0.118943,-0.098849,0.928994,-0.416385,-0.443710,-0.793565
0.136546,-0.025932,0.902227,-0.529135,0.824881,-0.198967
0.077562,-0.090399,-0.104633,-0.564287,0.816991,-0.118768
-0.578134,0.431672,0.547516,-0.178851,0.892236,0.414640
-0.002751,0.401515,0.704917,-0.767030,0.125438,0.629230
-0.493589,0.235360,0.628229,0.333696,0.102834,0.937055
0.427326,-0.487761,0.570303,0.129311,-0.973689,-0.187638
0.139423,0.337558,0.770788,0.995279,-0.007757,0.096748
-0.683409,-0.265079,0.553714,0.542557,-0.770376,0.334891
0.163204,-0.077797,0.293936,0.938703,0.343863,-0.024391
0.229890,-0.264642,0.826693,0.915616,-0.263150,0.303972
-0.043711,-0.208259,-0.986525,-0.169649,0.120746,0.978080
-0.307157,-0.242278,0.789337,-0.236473,0.398297,0.886251
-0.259510,0.269012,0.409013,-0.380788,0.791156,-0.478616
-0.245884,0.417905,-0.969662,-0.475259,0.068444,-0.877180
-0.653197,-0.024402,0.578872,0.499594,0.613682,-0.611392
-0.292345,-0.074373,0.557968,0.672152,0.463737,0.577200
0.364279,0.227928,0.616182,0.743477,0.035484,-0.667819
-0.144247,-0.592730,0.626042,0.615985,0.772085,0.156353
-0.162865,0.278117,0.760792,0.833042,0.084251,-0.546756
0.179875,0.130682,0.898520,0.393045,-0.182334,0.901260
0.214066,0.255974,-0.243636,0.984357,0.176173,-0.002190
-0.267973,-0.497669,0.670386,0.806757,-0.362443,-0.466667
0.584564,0.758378,0.385816,-0.508484,0.177964,-0.842480
0.541912,0.483028,0.607113,-0.039816,0.611089,0.790560
0.358778,-0.078161,0.796796,-0.078591,-0.989830,-0.118573
-0.195786,0.133450,0.761597,0.668953,0.640904,-0.376490
-0.192062,-0.105914,0.826800,0.103472,-0.701819,0.704801
0.077647,0.219334,0.869762,0.680508,-0.625433,0.381763
-0.055390,0.289701,0.599912,-0.446868,-0.344792,0.825486
-0.329329,-0.188592,0.782911,0.584875,-0.158918,0.795403
0.575001,0.482081,0.608009,0.177075,0.902811,0.391890
0.003598,0.400058,0.633896,-0.567306,-0.822700,0.036442
0.209580,0.711830,0.418782,0.916898,-0.331056,-0.222936
0.650488,-0.073208,0.733887,0.759466,0.123027,0.638808
0.079847,-0.223484,0.513730,0.810690,0.138685,-0.568813
-0.272374,-0.896561,0.475249,-0.159001,0.986604,0.036479
0.150510,-0.057327,0.971394,-0.599935,0.707308,-0.373890
0.697711,-0.201341,0.527508,-0.558044,0.086243,0.825318
0.070451,-0.109266,0.892884,0.440672,0.762441,-0.473806
-0.246563,-0.157925,0.666117,-0.192466,0.900858,0.389116
-0.190453,-0.399694,0.745919,0.945443,-0.310775,0.097762
-0.176745,-0.206585,0.794305,0.670807,-0.639478,0.375614
0.282020,0.158655,0.836568,0.960477,0.059820,0.271857
0.373672,-0.045745,0.880852,0.876817,-0.468690,-0.107341
-0.164642,-0.540064,0.713348,0.393134,0.917332,0.062824
-0.214489,0.195732,0.748244,0.541160,0.807134,-0.235969
-0.656413,-0.244245,0.600307,-0.666885,-0.727681,-0.160454
-0.241145,-0.041083,0.653250,0.525140,0.794458,-0.305064
-0.525409,0.046257,0.664051,0.388178,-0.247687,0.887676
-0.498245,-0.100887,0.720640,-0.434581,0.891498,-0.127946
0.125967,-0.027243,0.909686,0.980920,0.061996,-0.184264
0.426988,-0.535694,0.690758,-0.537858,0.712257,0.450998
-0.271021,-0.078597,0.870947,-0.522934,0.798875,-0.297218
-0.176659,-0.328233,0.786709,0.925131,0.056447,-0.375429
-0.512716,-0.304122,0.639623,0.818163,-0.090261,0.567858
0.741293,-0.011073,0.569377,0.033162,0.798640,0.600895
-0.203232,-0.025058,0.873119,-0.516156,0.631641,-0.578457
0.100410,-0.162078,0.915291,-0.489440,0.837912,0.241564
0.145095,0.016828,0.834061,0.751413,0.456453,0.476475
-0.171752,0.575030,0.632908,0.522756,0.701643,-0.484173
0.150087,-0.209499,0.829595,-0.456026,-0.793870,0.402257
-0.597005,0.011146,0.506346,0.559892,0.393421,0.729206
0.166081,-0.433857,0.751115,-0.628938,-0.459541,0.627103
0.141876,-0.029575,0.531838,-0.227374,0.833441,-0.503664
-0.206450,0.270979,-0.986343,0.016380,-0.136923,0.990446
-0.674946,-0.778118,0.504782,-0.300283,-0.920569,0.249766
0.238606,0.007649,-0.657564,0.924102,0.342653,-0.169186
-0.212204,0.053177,0.821164,0.923005,-0.083502,0.375619
-0.116913,-0.200247,0.704340,-0.004213,-0.988747,0.149537
-0.159397,0.409455,0.662502,0.955994,-0.231843,-0.179792
-0.437737,-0.620120,0.567797,-0.328909,0.584459,-0.741772
0.086869,-0.282050,0.792406,-0.604966,0.559418,0.566628
-0.334830,0.170019,0.688738,0.640834,0.577852,-0.505390
0.126559,0.150423,0.867058,0.442042,0.401600,0.802070
-0.200272,-0.019594,0.880244,-0.759289,0.407640,-0.507258
-0.581096,0.420090,0.552347,0.144968,0.675219,0.723231
-0.092117,-0.493443,0.729087,-0.568221,0.801572,0.186030
-0.648964,-0.362690,0.672027,0.865225,0.152923,0.477494
-0.288198,0.359631,0.437331,0.642428,0.559095,-0.524118
-0.022131,-0.248689,0.863108,0.500074,-0.865981,-0.001452
-0.497060,-0.756775,0.513927,-0.675891,-0.221980,-0.702777
0.024075,0.214379,0.873484,0.380056,-0.790871,0.479666
0.068083,-0.439904,0.654374,0.918486,-0.271443,-0.287578
-0.151863,0.020907,0.819280,-0.286754,-0.758185,0.585600
0.227689,0.354387,0.782015,-0.061896,0.223499,-0.972737
-0.095926,-0.384542,0.724180,0.862903,-0.114640,0.492196
0.144586,0.400568,0.797009,0.974194,0.122219,0.189758
-0.133163,0.177083,0.775178,0.938483,-0.288316,0.190063
-0.506367,-0.102490,0.708289,-0.579104,0.591907,0.560610
0.706343,-0.337485,0.596980,-0.539348,-0.230010,-0.810061
0.201032,0.012458,-0.599654,-0.377169,0.914863,0.144116
-0.184275,-0.410547,0.680838,0.927224,0.370004,-0.057897
-0.500190,-0.040937,0.696349,-0.182924,-0.809762,0.557516
0.468116,0.435607,0.655331,0.764865,-0.625320,-0.154780
-0.167519,-0.638840,0.506620,0.857110,-0.439989,-0.267904
-0.031524,0.376021,0.703261,0.464523,-0.031916,-0.884986
-0.545042,-0.167687,0.717830,-0.430995,0.853652,0.292442
-0.102781,-0.246213,0.704810,-0.545850,0.332279,-0.769180
-0.364109,-0.448790,0.630873,0.632155,-0.763663,0.131142
-0.111582,0.463288,0.677177,-0.581326,0.811932,0.053161
0.214825,0.041739,-0.683102,0.797200,0.576677,-0.178649
-0.014853,0.042322,0.855330,0.212399,0.958513,-0.190103
0.079423,-0.300917,-0.228035,0.856662,-0.490125,-0.160959
-0.046926,0.569057,0.466514,-0.413056,0.163730,0.895867
0.148816,-0.043487,0.366978,0.999169,0.019149,0.035987
-0.132483,-0.422349,0.766322,-0.293890,0.622934,0.724970
-0.755766,-0.936480,0.507334,0.660275,0.582783,0.473709
0.137308,0.170090,0.742942,0.724432,0.232740,-0.648869
-0.760420,-0.304269,0.492583,-0.029888,-0.500643,0.865138
-0.240553,0.056965,0.750325,0.843771,-0.175504,-0.507197
0.497821,-0.177519,0.717237,-0.109545,-0.122142,0.986449
-0.417848,0.197479,0.694587,0.795946,0.535448,-0.282428
0.283291,-0.108319,0.866496,-0.341665,0.434452,-0.833376
-0.014006,-0.168634,0.884665,0.731160,0.681648,-0.027590
0.366648,0.475306,0.772793,-0.681619,0.336749,-0.649612
-0.355139,-0.758887,0.476161,-0.138148,0.590227,0.795329
0.301232,-0.038461,0.728008,0.695254,0.303374,-0.651603
-0.427411,-0.094843,0.686383,-0.374322,-0.903286,-0.209661
-0.524985,-0.047639,0.702243,-0.380790,-0.884557,-0.269366
0.132398,0.504589,0.375576,-0.617685,-0.602266,0.505709
0.718698,0.443692,0.590888,0.721355,0.552801,0.417203
-0.064021,0.065050,0.852975,-0.757436,0.445923,-0.476910
0.162189,-0.031249,0.973430,-0.418832,0.851873,0.314471
-0.134601,0.631119,0.444440,-0.424752,0.327658,-0.843935
-0.057166,0.694348,0.358045,-0.163062,-0.318713,0.933720
-0.242669,-0.343312,0.760154,0.607069,0.793476,-0.043161
-0.224727,-0.097319,0.811654,0.962186,-0.247713,0.113298
-0.438581,-0.622741,0.583915,0.914036,0.391287,-0.106924
0.131469,0.780086,0.355523,-0.651243,0.658317,-0.377493
-0.268735,-0.072624,-0.990475,0.172886,-0.081968,0.981525
0.652435,-0.375654,0.635233,-0.222068,0.847094,-0.482822
-0.191553,-0.100014,0.789793,0.908595,0.215710,-0.357664
-0.081371,-0.340179,0.765911,-0.399992,-0.410335,0.819531
0.313332,0.112471,0.698567,0.815670,-0.489853,0.307778
-0.149581,0.076267,0.817700,0.777198,0.628913,0.020772
0.860109,0.099942,0.567918,0.406136,-0.072627,-0.910922
-0.325519,-0.142773,0.839378,-0.270755,0.958159,-0.092860
0.262978,-0.019667,0.908759,-0.428362,-0.018312,0.903422
-0.601659,-0.023820,0.622137,0.863350,0.481907,0.149641
-0.214657,0.182621,0.739615,-0.564263,-0.558432,-0.608080
-0.148819,-0.359266,0.804377,0.898421,0.439135,-0.000276
-0.509077,-0.548805,0.460316,-0.247194,0.395385,-0.884628
0.140947,0.819784,0.372827,-0.473309,0.879133,0.055707
-0.120467,0.427448,0.675962,0.898902,-0.278254,-0.338453
-0.196548,-0.089526,-0.992905,-0.171241,0.160584,0.972054
-0.162780,-0.281688,0.754275,0.919070,-0.363950,0.151164
-0.306648,-0.621358,0.613083,-0.195417,0.804747,0.560531
0.226166,-0.418925,0.795079,0.401911,-0.875347,-0.268766
0.432913,0.218240,0.784248,0.779277,0.419144,0.465882
0.754581,0.146270,0.546741,-0.431392,0.341503,0.835031
-0.492659,0.353075,0.537915,0.541235,-0.245520,0.804229
-0.435536,-0.101543,0.714883,0.503067,0.100702,0.858361
-0.140947,0.580056,0.315736,0.009094,-0.736752,0.676101
-0.386028,0.084426,-0.990520,0.313610,-0.161841,-0.935658
0.009352,-0.213141,0.929754,-0.073551,-0.867246,-0.492416
-0.100157,0.560025,0.472150,-0.505021,-0.802207,0.318462
0.038040,-0.160255,0.784278,-0.247473,0.138474,-0.958948
-0.017053,0.130026,0.844756,0.835393,-0.541831,0.092400
0.253079,-0.107372,0.699372,0.709566,0.640176,-0.294433
0.224474,-0.442525,0.719258,0.528922,-0.802470,0.276194
0.205347,-0.178540,0.926898,0.087950,0.949240,-0.302006
0.090426,-0.157196,0.898185,0.326312,-0.757776,-0.565062
0.442220,0.567598,0.750720,0.835383,0.327875,0.441173
-0.450936,-0.682400,0.559365,-0.391159,0.665110,-0.636100
-0.212372,-0.515078,0.704385,0.984293,0.175943,0.014546
-0.210089,-0.199374,0.458888,-0.604072,-0.627688,-0.491024
-0.545804,-0.360067,0.507136,0.148291,-0.950514,0.273007
-0.436719,-0.876747,0.497064,0.810035,-0.291831,0.508604
-0.282020,-0.162296,0.806565,0.867936,0.109265,0.484508
0.127406,-0.048368,0.883860,-0.341910,0.905223,-0.252327
-0.485296,-0.760052,0.538781,0.329646,0.242238,-0.912499
-0.181484,-0.297493,0.748304,0.771413,-0.193643,-0.606155
-0.168281,-0.356788,0.774419,-0.392905,-0.497358,-0.773473
0.034401,-0.256848,0.806929,0.837803,0.545924,0.007287
0.019674,0.312645,-0.974812,-0.371555,-0.182941,0.910209
0.609022,0.165866,0.771775,-0.745369,-0.611290,0.265987
0.092285,-0.504078,0.700785,-0.667564,-0.587592,0.457268
-0.422163,-0.105260,0.732201,0.661585,0.599518,-0.450426
0.253585,0.306163,0.767856,-0.235837,0.518956,0.821624
-0.839547,-0.287661,0.568177,0.953148,0.235262,-0.190159
0.520670,-0.317818,0.732869,0.581441,0.570054,-0.580487
-0.583464,-0.366113,0.517923,0.855633,-0.123417,0.502654
-0.232428,0.240895,0.720944,-0.442988,0.708044,-0.549941
-0.112512,-0.599141,0.670614,0.425785,-0.468910,-0.773841
-0.074261,-0.473194,0.693295,-0.561277,-0.532605,-0.633482
-0.086955,0.658000,0.490699,-0.021595,-0.968271,0.248967
0.095247,0.027681,0.914881,0.510956,0.504224,0.696192
-0.025855,0.162369,-0.981679,0.227926,0.091222,-0.969396
0.401260,-0.239364,0.707697,0.665289,0.746202,-0.023931
0.332882,0.171257,0.892443,0.335571,0.912641,0.233405
-0.290654,-0.337485,0.751616,0.756977,0.551584,0.350343
-0.775738,-0.369099,0.487159,0.015931,-0.353809,0.935182
0.058773,0.538753,0.650303,-0.267682,-0.559278,0.784573
-0.398044,-0.627475,0.613326,0.884193,-0.067969,0.462150
0.418525,-0.026805,0.807901,-0.481665,-0.119622,-0.868153
-0.623239,0.037225,0.757845,-0.239343,0.942668,0.232575
-0.146871,-0.274476,0.652825,0.860390,0.198887,-0.469227
0.194601,-0.409673,0.809998,-0.631245,-0.632921,-0.448264
0.353277,0.429125,0.777791,-0.632827,0.393421,-0.666896
0.283038,-0.224067,0.874259,-0.057900,0.978576,0.197576
-0.259004,-0.062280,0.764362,-0.682014,0.608297,-0.405995
-0.130368,-0.482226,0.570319,-0.461440,0.881471,-0.100405
-0.468116,-0.000727,0.726869,-0.596236,-0.585149,-0.549638
0.101680,-0.364292,0.657625,0.998741,-0.013477,-0.048313
-0.699150,-0.926500,0.490866,0.652595,-0.581317,0.485995
0.201455,0.017846,0.561492,0.985792,-0.166903,-0.018924
-0.208480,-0.838140,0.524622,0.050036,0.935774,0.349033
0.286336,-0.401806,0.633015,0.889536,0.369362,0.268883
0.208989,-0.315122,0.765805,-0.675966,0.131330,0.725136
-0.221597,0.366331,0.608769,-0.131490,-0.568312,0.812239
-0.677740,0.060824,0.557072,-0.687941,0.575668,0.441977
0.160918,0.179998,0.901877,0.821264,0.458661,0.339345
-0.831254,-0.274111,0.573433,0.954860,-0.126334,0.268854
-0.550037,-0.539553,0.502381,-0.470901,-0.664038,-0.580780
-0.360893,-0.421255,0.606308,0.744557,0.087268,-0.661830
-0.563322,-0.123907,0.719896,-0.453906,0.048378,-0.889735
-0.467948,-0.058056,0.762600,0.965155,-0.142951,0.219181
-0.641095,-0.347246,0.522070,0.720214,-0.634898,0.279638
0.009181,-0.324227,0.702957,0.938371,0.107893,0.328357
-0.649135,-0.357517,0.649908,0.028503,0.975930,-0.216214
0.306648,-0.327797,0.631906,0.623445,0.445176,0.642755
0.173612,-0.070877,-0.929343,-0.651630,-0.751183,0.105365
-0.158550,-0.057692,0.846108,0.776996,0.623813,0.084466
-0.796218,-0.423076,0.480262,-0.683765,-0.390017,0.616727
0.039478,-0.065412,0.391118,-0.209071,0.963664,0.166256
-0.528542,-0.079838,0.644697,0.042872,-0.772350,0.633749
0.048027,0.204182,0.641811,-0.323277,-0.611799,0.721938
-0.072399,0.748981,0.363423,-0.048608,-0.425343,0.903726
0.003513,-0.265297,0.824005,0.558082,0.829677,0.013412
-0.177168,-0.647654,0.630478,0.057930,0.952408,-0.299269
-0.160242,0.484849,0.320735,0.383104,0.287242,-0.877909
0.392290,-0.167467,0.820298,0.675369,-0.602674,-0.425042
-0.691702,-0.407270,0.645867,0.181712,-0.964528,-0.191485
-0.479118,-0.465836,0.664583,0.746487,0.651926,-0.133226
-0.377143,-0.553029,0.628168,-0.689898,0.710920,-0.136509
0.056234,-0.163243,0.856120,-0.263079,0.283314,-0.922238
-0.034315,-0.377622,0.755718,0.314849,0.819606,0.478661
-0.530995,0.020470,0.685821,0.993535,0.113388,0.005659
0.394320,0.448792,-0.035146,0.455296,-0.376005,-0.807048
-0.228789,-0.312280,0.746785,-0.533250,-0.061599,-0.843712
-0.418357,0.432037,0.571397,-0.582769,0.015771,0.812485
-0.132063,-0.421620,0.697093,0.547288,-0.286874,-0.786244
-0.867473,-0.426137,0.463855,0.913121,-0.315425,0.258299
0.464730,0.137385,0.718042,-0.346502,0.716944,0.604919
0.149578,-0.031687,0.962325,0.894284,0.236896,0.379653
-0.541321,-0.894522,0.529772,0.538916,0.429300,-0.724756
0.053695,0.168852,0.816333,-0.346615,0.877668,-0.330995
-0.706090,0.341420,0.538052,-0.016040,0.158985,0.987151
-0.102187,0.268503,0.639745,0.376702,0.919742,-0.110318
-0.028223,-0.414190,0.789975,-0.553080,0.819886,-0.147949
0.092202,-0.432037,0.677496,-0.261156,-0.873379,0.411105
0.090340,-0.102490,0.903882,0.987964,0.152402,0.026466
-0.342614,-0.607371,0.476434,0.733349,0.342259,0.587416
-0.523209,-0.721227,0.540862,-0.419678,-0.100504,0.902091
0.015276,-0.345788,0.838193,-0.797458,0.399601,-0.452085
-0.468031,-0.388112,0.475917,0.033267,-0.501805,0.864341
0.371810,0.158363,0.693888,0.912449,0.354714,-0.203999
-0.466848,-0.688737,0.637284,0.885588,0.218493,0.409871
-0.004021,-0.141462,0.878816,0.868455,0.491163,-0.067415
-0.080100,0.263623,0.237879,-0.561476,-0.676534,0.476494
-0.180807,0.255465,0.795930,-0.410190,-0.796963,0.443389
-0.557315,-0.234775,0.613417,0.140208,-0.984156,0.108534
0.247917,-0.345644,0.823366,-0.798876,0.534522,0.275832
0.094232,-0.340617,0.821012,0.580182,0.118848,-0.805769
-0.385436,0.324812,-0.980190,0.319005,0.489418,-0.811607
-0.525665,-0.771707,0.527448,0.943178,0.274903,0.186666
0.271103,-0.067671,0.847400,0.882697,-0.018412,0.469582
-0.487411,-0.006700,0.769071,0.222596,0.849153,0.478946
-0.211272,-0.325977,0.740268,0.899533,-0.407267,0.158033
0.195448,0.012384,-0.208665,-0.282870,0.959151,-0.003810
0.129439,-0.035475,0.369135,-0.606858,-0.760442,-0.231193
-0.369948,0.119974,0.706041,0.422371,-0.617278,-0.663755
0.210765,-0.484047,0.721385,0.421391,-0.825854,0.374692
0.214572,0.167395,0.813963,0.359311,0.116724,0.925889
-0.418186,-0.699884,0.632756,-0.616848,-0.758332,-0.210786
0.181484,-0.427958,0.781878,-0.372787,-0.906157,-0.199771
-0.098380,0.088361,0.733751,0.364369,0.898644,-0.244283
0.802987,-0.159820,0.649908,-0.401022,-0.453675,0.795839
-0.217705,0.586103,0.628488,0.780851,-0.439248,-0.444222
0.123344,0.279940,0.772186,0.602429,-0.763389,0.233059
-0.652012,0.109266,0.588701,0.642130,-0.285320,-0.711520
0.250794,-0.533871,0.716326,-0.400035,0.418290,0.815479
-0.038972,-0.063301,0.360051,-0.098588,0.796180,0.596974
-0.255194,0.285037,0.743079,-0.159933,-0.671839,0.723224
-0.686624,-0.786203,0.519669,0.715490,0.092627,0.692455
-0.036516,-0.067597,0.622882,-0.119492,0.901349,0.416284
0.672577,0.305654,0.537383,-0.241793,0.109778,0.964098
0.170143,-0.008303,-0.885455,-0.801525,0.567562,0.188230
0.324843,-0.268429,0.781255,-0.108759,-0.968040,0.225986
0.262896,-0.496211,0.707393,-0.544572,0.117820,0.830398
-0.245969,-0.195950,0.800731,0.566157,0.493196,0.660473
-0.504085,-0.894522,0.527311,0.980613,-0.172102,-0.093697
-0.312149,-0.576922,0.666923,0.073589,-0.889652,0.450672
0.228283,-0.233975,0.804255,0.804561,0.578538,0.134075
0.117166,-0.056016,0.434551,0.968709,0.132642,0.209784
0.319341,0.141755,0.580679,0.836343,-0.114554,-0.536104
-0.512545,-0.029355,0.762752,-0.382967,0.917227,-0.109690
-0.688657,-0.710810,0.490046,-0.558788,-0.153640,-0.814955
0.136546,0.483028,0.705980,-0.007554,-0.608819,0.793273
-0.223712,-0.213723,0.679866,0.206903,-0.634054,0.745095
-0.545381,-0.851689,0.515613,0.263619,-0.514762,0.815797
-0.256971,0.444930,0.618537,0.200596,-0.314336,0.927876
-0.459570,-0.638548,0.646004,0.892999,-0.449231,-0.027286
-0.168281,-0.335736,0.743792,0.828237,-0.453442,-0.329263
0.118351,0.000073,0.974524,0.609318,0.526885,-0.592557
-0.236914,0.551355,0.611579,0.911086,-0.400760,-0.096505
-0.195533,0.314248,0.429416,0.213700,0.746494,-0.630142
-0.651335,0.320003,0.535742,0.019690,-0.218249,0.975694
0.438920,-0.079544,0.804362,0.802451,0.440020,-0.403057
0.128253,-0.464597,0.657170,0.976323,-0.114023,-0.183829
-0.205770,0.150934,0.786284,-0.617320,-0.032662,-0.786034
-0.546398,-0.501893,0.493297,0.291314,0.853095,0.432856
0.196631,-0.034237,0.161374,-0.429377,-0.897911,0.096906
-0.481233,0.230989,0.600991,-0.588494,0.723981,-0.359897
-0.392376,-0.559076,0.595719,0.679120,0.603621,-0.417658
-0.151440,-0.361087,0.695847,-0.145530,0.559123,0.816212
-0.001142,-0.459498,0.717177,0.179229,-0.980193,-0.084254
0.130283,-0.310533,0.822850,0.818351,0.323969,-0.474706
0.091526,-0.140441,0.828273,-0.575197,-0.277321,0.769572
-0.512545,-0.053830,0.690697,-0.367727,-0.714053,0.595740
-0.267464,-0.420526,0.477725,0.419361,0.853588,-0.309069
-0.039057,0.585083,0.484714,-0.365725,0.669271,-0.646778
0.287268,-0.002259,0.852276,-0.259749,-0.797769,0.544146
0.428088,0.506119,0.601568,-0.265723,0.819266,0.508128
-0.780139,0.271782,0.538978,-0.136459,0.010810,-0.990587
0.063344,-0.455565,0.733751,-0.274034,-0.104068,-0.956073
-0.618838,0.093896,0.629262,0.967714,0.153739,-0.199735
-0.046756,-0.434951,0.774449,0.347807,0.700921,0.622688
-0.833284,-0.434658,0.474900,-0.808559,0.147337,0.569670
-0.196039,-0.665647,0.556540,-0.423688,0.878686,0.220000
0.686710,-0.289408,0.755004,-0.726735,0.296478,0.619643
0.921212,-0.227637,0.592802,-0.384176,0.864205,-0.324898
0.109297,-0.534600,0.617838,-0.031814,0.998120,0.052385
-0.215757,0.412952,0.550661,-0.076217,-0.928350,0.363810
-0.320695,-0.123762,0.834563,0.811398,-0.584493,-0.000959
0.258157,-0.499490,0.705995,-0.544572,0.117820,0.830398
-0.370542,0.110577,-0.987452,0.210759,-0.131247,-0.968687
-0.578048,-0.341200,0.599836,0.222448,-0.531629,-0.817244
-0.604282,-0.362616,0.620086,0.820830,0.371376,-0.433956
0.096180,-0.230769,0.710583,0.855126,0.032905,-0.517374
-0.373166,0.439760,0.549658,-0.334991,0.548407,-0.766180
-0.370966,-0.118880,0.818870,0.454495,0.822553,0.341820
-0.170820,-0.526442,0.645791,0.712076,-0.684157,-0.157721
0.407017,-0.484193,0.675794,-0.090240,0.894589,0.437685
-0.669868,-0.332824,0.617853,0.980744,0.105069,-0.164626
0.101763,-0.189394,0.880350,0.813175,-0.520872,0.259690
0.227183,0.238854,0.861968,0.926679,0.187371,-0.325819
-0.228198,0.634907,0.606368,-0.344841,-0.523649,0.779022
-0.219820,-0.323062,0.686125,0.805800,0.496707,-0.322443
-0.165575,0.005464,0.303294,-0.209290,-0.977232,-0.034871
-0.345746,-0.546838,0.624705,0.835854,-0.546634,-0.050395
-0.098295,0.475817,0.643056,0.587144,-0.081115,0.805408
0.120552,0.006702,0.975648,-0.583978,-0.789004,0.190900
0.075361,-0.503933,0.799257,0.691728,0.722028,0.013685
-0.241568,-0.317598,0.709474,0.098705,0.828187,0.551691
-0.202473,-0.306163,0.781954,0.917305,0.381209,0.115030
0.114966,0.019085,0.946693,0.461158,-0.600533,-0.653218
0.063512,0.171912,0.839303,0.349266,-0.818053,0.456949
0.200525,-0.039043,0.973703,-0.184813,-0.980052,0.073094
0.013835,-0.165866,0.863700,0.760181,0.494495,0.421426
-0.386621,-0.725742,0.641902,-0.657670,0.406461,-0.634239
-0.362417,-0.611523,0.610531,0.312688,-0.082982,0.946224
0.739940,-0.118954,0.526475,-0.619139,-0.265598,0.739002
-0.824906,-0.185095,0.582305,0.923848,-0.373751,0.082549
0.094994,-0.372158,0.788820,0.825656,0.465225,-0.319151
-0.369271,0.498107,0.556160,-0.157361,-0.035350,0.986908
-0.424111,-0.887746,0.470874,0.366180,0.822763,-0.434710
-0.310878,-0.578745,0.605822,-0.225276,0.054242,0.972784
0.112259,-0.113125,0.916157,0.823195,0.476155,-0.309235
-0.030508,0.123033,0.892230,-0.685270,-0.723323,-0.084905
0.229805,-0.105331,0.821878,-0.096688,-0.597206,0.796239
0.213387,-0.003715,0.307806,0.952553,0.302039,0.037617
0.112597,-0.527827,0.686079,0.788756,-0.614624,-0.010076
-0.333982,-0.666374,0.520475,-0.681415,-0.178344,0.709836
-0.281005,0.197553,0.749839,0.493630,0.862069,0.114746
-0.360555,0.240822,0.735407,-0.758300,0.551143,0.348170
0.108026,-0.214597,0.931212,-0.283818,0.838812,0.464588
0.108364,0.034819,0.910779,0.408630,-0.163422,-0.897950
-0.716668,-0.458188,0.445595,0.568329,-0.798782,-0.197355
-0.003765,-0.330783,0.613190,-0.085739,0.792754,0.603481
-0.246984,0.114148,0.212615,0.966438,-0.211548,-0.145758
0.219226,0.184586,0.786025,0.974822,0.202898,0.092487
-0.402783,-0.144594,0.579509,0.166498,0.984195,-0.060316
0.253671,0.019887,-0.787484,0.375176,0.926906,-0.009363
-0.362926,-0.496357,0.640215,0.964262,0.041822,0.261628
-0.198663,-0.248834,0.676509,0.902195,-0.377865,0.207995
0.305971,0.049315,-0.947938,0.497721,0.599603,0.626698
-0.149919,-0.332897,0.751707,-0.317975,0.750518,0.579322
0.274319,0.001094,0.848570,0.244048,0.374473,-0.894545
0.149578,0.104604,0.915504,-0.208904,-0.956104,-0.205484
0.204756,-0.376530,0.669946,-0.626306,-0.672996,-0.393468
0.757205,-0.214597,0.762326,-0.422442,0.905059,-0.049108
0.157279,-0.004588,0.380894,0.746240,-0.562589,0.355837
0.433757,-0.141900,0.858171,0.713802,-0.700284,0.009446
-0.527862,0.292687,0.572370,-0.119479,0.664601,0.737584
0.183261,-0.059294,-0.662593,0.978805,-0.163156,-0.123782
-0.117336,0.299681,0.812064,-0.590299,0.716195,-0.372307
0.001736,-0.071824,0.673349,-0.192135,-0.042605,-0.980443
0.215419,-0.511218,0.706922,0.247025,-0.172490,0.953533
0.446536,-0.024620,0.913742,-0.000861,0.964291,0.264845
0.159312,-0.146635,0.934934,0.897600,-0.034916,-0.439425
0.649388,0.341202,0.355508,-0.819178,0.354001,-0.451255
-0.666568,-0.390224,0.602525,-0.399539,0.798428,0.450424
-0.611984,0.116404,0.599000,0.893302,-0.383266,-0.234775
-0.672745,-0.463286,0.450669,0.601639,0.155241,-0.783538
-0.281429,-0.438957,0.579266,-0.517450,-0.814288,0.263023
-0.289722,-0.657415,0.530121,0.702306,0.369315,-0.608583
0.170143,-0.479458,0.724818,0.070511,0.950218,-0.303502
0.008166,0.032925,0.842751,-0.295464,0.776377,-0.556722
-0.145262,-0.607517,0.678164,0.315142,-0.930601,-0.186194
-0.705498,-0.707969,0.496821,0.153861,0.907526,0.390799
-0.567638,-0.047130,0.709338,0.824977,-0.343951,0.448454
-0.201202,-0.795674,0.536578,0.963253,-0.044081,0.264954
-0.679770,0.197771,0.581348,-0.282056,0.492436,0.823378
-0.609107,-0.811335,0.516297,0.290906,0.729652,-0.618855
0.103204,-0.464380,0.692019,0.983969,0.131953,0.119970
0.138238,0.138694,0.936605,0.877833,0.476707,0.046474
0.169973,0.136291,0.869625,0.339268,0.652378,0.677717
0.061311,-0.274256,-0.973718,-0.319100,0.125550,0.939368
-0.044641,-0.118662,0.884361,0.960501,0.266026,0.081658
-0.705328,0.067235,0.540330,-0.080047,0.762604,0.641894
0.094147,-0.438666,0.641173,0.915760,-0.320349,-0.242403
0.935006,0.254518,0.577079,0.873187,0.011773,-0.487243
-0.036177,-0.034746,0.873043,0.476352,0.058556,-0.877302
-0.323995,-0.748252,0.509385,0.248310,0.777129,-0.578284
0.347606,-0.459644,0.776880,-0.007953,-0.985999,0.166562
-0.133245,0.126021,0.805820,0.929802,0.304246,0.207131
0.188085,0.340837,0.762645,0.047619,-0.966137,0.253599
0.330258,-0.049680,0.843024,0.530648,-0.250808,-0.809635
-0.200611,-0.471009,0.711829,0.959688,-0.221522,0.172992
-0.538865,-0.036202,0.665920,0.813202,-0.527977,-0.244830
0.634409,0.094698,0.755186,0.928711,0.297778,-0.220963
-0.571870,0.226545,0.614299,0.854727,-0.472130,-0.215721
0.126306,-0.456804,0.716128,0.688803,0.497556,-0.527246
0.323572,-0.065706,0.924072,-0.789161,-0.583054,0.193062
-0.461177,-0.044945,0.732961,-0.225609,-0.943702,-0.241924
0.068336,0.617134,0.660223,-0.299456,-0.732882,0.610909
0.239368,-0.432693,0.714169,-0.879903,0.373589,-0.293601
-0.567217,-0.345497,0.647492,0.758748,0.614603,0.215789
-0.263064,-0.082896,0.883207,-0.649619,0.631227,-0.423731
0.139255,0.007067,0.963920,0.797021,0.353974,0.489347
0.184446,0.220061,0.806412,0.861964,-0.049242,0.504572
-0.841494,-0.227417,0.574982,0.900875,-0.395727,0.178392
0.065289,-0.085664,0.875064,-0.789722,-0.281090,-0.545277
0.196631,-0.429778,0.814221,0.434148,0.808550,0.397194
0.933061,0.039410,0.576228,-0.649171,-0.054399,0.758695
-0.486990,-0.107516,0.689619,-0.295310,-0.076706,0.952317
-0.479371,-0.535183,0.599335,0.896847,0.421938,0.132794
-0.095247,0.302593,0.211096,0.044636,-0.524719,0.850105
0.160580,0.652244,0.448466,-0.681685,0.655408,-0.325187
0.290483,0.407635,0.786967,-0.626236,0.213033,-0.749963
-0.618923,-0.345788,0.640945,-0.687398,0.697052,0.203966
0.386622,-0.047348,0.762782,-0.750957,0.595161,0.286090
-0.224389,-0.508086,0.605092,-0.700196,0.476903,0.531309
0.072228,-0.492423,0.618795,0.465825,0.884286,0.032344
0.208309,-0.179851,0.814464,-0.621481,-0.456487,0.636695
0.159650,-0.023455,-0.660466,0.978805,-0.163156,-0.123782
-0.126729,0.434077,0.605108,-0.287427,0.957460,0.025604
0.052004,0.057329,0.391999,0.983407,-0.181372,-0.003907
-0.170143,-0.399038,0.810043,-0.555272,-0.817850,-0.150982
-0.458893,-0.850962,0.534588,-0.580446,0.473102,-0.662765
-0.636018,-0.622378,0.469020,0.998162,-0.018487,-0.057706
0.153811,0.206732,0.842538,0.017445,-0.961975,0.272578
-0.801463,-0.287441,0.582761,0.681705,0.655753,0.324448
-0.127406,0.499781,0.450122,-0.779728,0.326878,0.534018
-0.013414,-0.148964,0.805835,0.757041,-0.608169,0.238788
-0.504337,0.291958,0.605305,-0.278579,-0.868151,0.410741
0.110482,0.135344,0.821300,-0.683520,0.502608,0.529325
0.223712,-0.348849,0.805926,-0.681112,0.271870,-0.679833
-0.116828,-0.363637,0.733128,0.700003,-0.175990,0.692115
0.131383,0.058203,0.534238,0.965677,-0.259635,0.007581
-0.418186,-0.649695,0.609711,0.943933,-0.155923,0.290997
0.110650,-0.088505,0.886549,-0.214637,0.461444,0.860814
-0.761097,-0.862762,0.493980,0.710432,-0.186967,-0.678476
-0.541912,-0.440778,0.526749,-0.625654,0.672579,0.395214
0.020945,0.607664,0.660603,0.317905,0.596826,-0.736706
0.049971,-0.308639,0.663216,0.595656,-0.296123,0.746662
-0.672492,-0.473558,0.500498,0.360079,0.891399,0.275228
-0.170905,-0.445513,0.605928,0.965416,-0.103921,0.239107
0.166166,0.388330,0.564136,0.846238,0.443861,-0.294736
-0.337113,-0.629734,0.607508,0.116452,-0.144561,0.982619
0.178521,-0.163972,0.796796,-0.551934,0.454904,0.698879
0.506367,0.041959,0.776926,0.737136,-0.609639,0.291499
-0.162274,0.180215,0.788243,0.914586,-0.005932,0.404349
0.134178,0.441871,0.583642,0.692749,0.677250,-0.247852
0.142385,-0.039919,-0.619889,-0.487833,0.871484,-0.050348
-0.039310,0.136146,0.889830,0.742807,0.508683,0.435293
-0.031524,0.267702,0.463111,0.913793,0.388008,0.120133
-0.295478,-0.023090,0.688176,-0.507100,-0.525303,-0.683306
0.116913,0.033145,-0.743534,-0.356088,0.934372,-0.012228
-0.300385,0.214526,0.714852,-0.113868,-0.752484,0.648693
-0.617314,-0.327797,0.619646,0.954864,-0.295102,0.033890
0.104219,0.105042,0.874198,0.230374,0.390789,0.891186
-0.465154,-0.828378,0.544326,0.288002,0.834790,-0.469234
-0.323066,0.075611,0.651108,0.866443,0.428242,0.256682
0.164727,-0.069129,-0.560596,0.225786,-0.970720,-0.081998
-0.107011,-0.682546,0.501683,0.181402,-0.916873,-0.355580
-0.199849,0.135782,0.693204,-0.400796,-0.396275,0.826032
-0.622815,0.241477,0.578066,-0.422305,0.538266,0.729335
0.567976,-0.476326,0.558697,0.182365,-0.958303,-0.219997
0.175559,-0.028991,-0.671571,0.997634,0.068102,-0.009415
0.474379,0.198353,0.796037,0.986198,0.114589,0.119514
-0.007322,-0.005462,0.476951,0.307918,0.930290,0.199366
-0.284815,0.565998,0.276253,-0.590541,0.495605,-0.636896
0.153640,-0.416520,0.831570,0.849169,0.519724,-0.093805
-0.362417,0.447115,0.505845,0.910897,-0.297899,0.285521
-0.152119,0.060824,0.460225,0.054779,0.050215,0.997235
0.058858,-0.182183,0.915565,0.022816,0.921810,0.386970
0.087716,-0.020105,0.953407,0.658351,0.749332,0.071238
0.523041,0.631775,0.645426,0.935602,-0.330443,-0.124319
0.060129,-0.218458,0.862561,-0.513155,-0.848922,0.126504
-0.306310,-0.572771,0.653174,0.281644,-0.871729,-0.400955
-0.742141,0.053906,0.584386,0.448077,0.384779,-0.806952
-0.430203,0.428395,-0.979932,0.229198,0.582002,-0.780220
-0.171329,-0.105987,0.796872,0.251900,-0.459266,0.851834
0.285321,0.285402,0.777746,-0.196018,0.262555,-0.944797
-0.615708,0.571169,0.547470,-0.055208,-0.379954,0.923357
-0.321712,0.298513,0.404547,0.049184,0.809821,-0.584612
0.207041,-0.009323,0.038686,0.256858,-0.966244,-0.019907
-0.124867,-0.166449,0.773826,0.974078,0.215476,-0.068862
0.153896,-0.022144,0.634139,-0.359379,-0.209908,0.909277
-0.031270,0.453891,0.639866,0.385189,-0.443158,0.809470
-0.191215,-0.368516,0.751859,0.905394,-0.343742,-0.249206
-0.052851,-0.163752,0.813522,0.054320,0.678105,0.732955
0.082130,0.259835,0.788729,0.318816,-0.945441,-0.067067
0.582025,-0.367496,0.739615,0.507162,0.848273,-0.152378
0.756781,-0.344259,0.601431,0.927960,-0.215018,0.304398
-0.187576,-0.079400,0.855634,-0.153682,0.906656,-0.392883
-0.473532,-0.501893,0.548139,-0.441614,-0.179623,-0.879041
0.120975,0.150934,0.879484,0.792998,0.520210,0.317074
-0.369357,0.151588,-0.989852,-0.162351,0.147253,0.975684
-0.305124,0.524768,0.576334,0.843923,-0.040547,-0.534930
0.412176,-0.490458,0.680337,0.460579,0.880866,-0.109280
-0.286506,-0.138329,0.813097,0.325830,0.945422,-0.003511
-0.289892,-0.065412,-0.994425,0.278547,0.047158,0.959264
0.345746,-0.070803,0.846625,0.281755,-0.287584,0.915374
-0.236914,-0.001383,0.883100,-0.244880,-0.963561,-0.107631
0.098380,-0.038898,0.933734,-0.662921,-0.562377,0.494235
0.523209,-0.443254,0.704081,0.338592,-0.554129,0.760458
-0.100580,-0.748397,0.513821,-0.219573,0.497717,0.839086
0.150257,-0.101472,0.791965,-0.695904,0.406567,0.591964
-0.168790,-0.533289,0.714260,0.269536,0.962396,-0.033832
-0.364703,-0.472682,0.643740,0.119310,0.943085,0.310414
0.162018,0.275496,0.749808,-0.056478,-0.733321,0.677533
-0.314941,-0.643792,0.610182,0.092755,0.046794,-0.994589
-0.448059,0.147146,-0.993073,0.365412,-0.150323,-0.918628
-0.438667,0.003352,0.644940,-0.245729,-0.700720,0.669782
0.226589,0.206585,0.825812,0.584856,0.662882,0.467473
-0.640333,-0.832531,0.486354,0.367860,-0.625973,0.687632
-0.276181,0.197115,0.750143,0.479366,0.874535,0.073459
-0.408879,-0.632649,0.507683,-0.288248,0.313834,0.904667
0.120467,0.946096,0.323332,0.039069,0.639911,0.767456
-0.631449,-0.267918,0.592878,0.995076,0.011212,0.098475
0.458723,-0.498981,0.698126,-0.234013,-0.668581,0.705860
0.237253,-0.076703,0.952177,-0.202647,0.888105,-0.412556
0.152202,0.006993,0.899492,-0.527164,0.338250,-0.779542
-0.027631,0.544726,0.726519,0.939588,-0.314699,-0.134678
-0.283458,-0.527098,0.671693,0.890663,-0.086927,-0.446276
-0.507047,-0.318181,0.611123,-0.102631,-0.940656,0.323471
-0.255533,0.356498,0.610774,-0.138569,-0.565141,0.813274
-0.198916,-0.495337,0.642889,0.896925,0.078114,0.435228
0.152879,-0.461392,0.730211,-0.498634,-0.858485,-0.119864
0.101510,0.170163,0.599593,0.008053,-0.069504,-0.997549
-0.257395,0.705566,0.271483,-0.661206,0.471152,-0.583799
-0.780645,-0.180289,0.551101,-0.718908,-0.147613,-0.679251
0.168366,0.036277,0.879302,0.450174,-0.771879,-0.448938
0.138917,0.347975,-0.957494,0.479210,-0.016218,-0.877550
-0.100327,-0.179195,0.806200,-0.103010,0.066684,0.992443
-0.051242,0.129079,0.901983,0.997190,0.024488,-0.070799
0.218467,-0.482882,0.718726,0.607269,-0.729942,0.313703
-0.310795,0.156543,0.484425,0.387742,-0.539727,0.747229
0.167352,-0.113563,0.924756,0.323574,-0.008690,-0.946163
-0.454575,-0.088505,0.749899,-0.296917,-0.953051,-0.059447
0.058690,-0.177301,0.855968,-0.616018,-0.189016,-0.764719
0.582617,-0.366258,0.739523,0.507162,0.848273,-0.152378
-0.005374,-0.370628,0.715931,0.054511,0.995398,-0.078814
-0.304195,-0.517118,0.644241,0.178552,-0.268762,-0.946513
0.187238,0.148020,0.741863,-0.672620,-0.486704,0.557406
0.053951,-0.295234,0.789368,0.688985,-0.287438,-0.665341
-0.139679,-0.065486,0.869017,-0.026411,-0.545084,0.837965
-0.621377,0.329400,0.512150,-0.750052,-0.567720,-0.339288
0.483519,-0.395104,0.609726,0.478309,0.271547,0.835154
-0.056572,-0.642263,0.674093,0.261339,0.737599,-0.622615
-0.122499,-0.172130,0.684089,-0.407995,-0.345825,-0.844953
-0.651250,-0.292031,0.640626,-0.359149,0.550183,-0.753864
0.378582,-0.097755,0.838133,-0.385595,0.739769,-0.551415
0.147378,-0.006482,-0.869792,-0.165157,0.986263,0.002999
-0.383998,-0.625510,0.580072,-0.129646,0.953991,-0.270357
-0.440952,-0.864000,0.475401,-0.349686,-0.870255,0.346952
0.207465,-0.451413,0.832193,0.189884,0.958043,-0.214704
-0.256718,0.187500,0.382549,-0.068232,-0.898640,0.433347
0.073328,-0.275132,0.818535,0.640982,0.763200,-0.081656
0.275757,-0.493079,0.780647,-0.292892,-0.898943,-0.325755
-0.367748,0.273456,0.408816,0.290699,0.807092,-0.513903
-0.566538,-0.529721,0.457004,-0.266512,-0.564418,0.781283
0.203064,-0.025349,-0.092297,0.214135,-0.961188,-0.173962
0.156688,-0.049095,0.926321,0.895541,-0.385594,-0.222087
-0.042864,0.143502,0.908303,-0.586944,0.664503,0.462529
-0.235138,0.248398,0.574830,-0.078270,0.238594,0.967960
-0.244363,-0.246722,0.793074,-0.231145,-0.555272,0.798902
0.104387,-0.042322,0.492188,0.369842,0.913230,-0.170965
0.174120,-0.020905,0.009123,0.455945,-0.889575,0.027764
-0.401939,-0.831731,0.449210,-0.234974,0.145013,-0.961123
0.267973,-0.336320,0.836917,0.304672,0.952191,-0.022512
0.183007,-0.385780,0.820890,0.951376,0.197627,0.236277
0.407184,-0.009979,0.821118,0.025893,-0.981739,0.188460
-0.665299,-0.276150,0.574694,0.756363,-0.425445,-0.496901
-0.200272,-0.365675,0.757981,0.064646,0.955218,-0.288756
0.524562,-0.250947,0.717010,0.340924,-0.224835,-0.912809
-0.136122,0.277755,0.608435,0.333208,-0.006785,0.942829
0.152879,-0.200394,0.733644,0.856164,-0.214298,-0.470169
-0.347523,-0.042686,-0.986662,-0.588270,-0.283399,-0.757379
0.129183,-0.413970,0.703291,0.941551,-0.325764,-0.085785
-0.509162,-0.022655,0.774024,-0.262703,0.898747,0.351058
-0.515763,-0.790209,0.536775,0.402239,0.713299,-0.573942
-0.755849,-0.696751,0.518515,-0.482476,0.810082,0.333142
-1.000000,-0.491549,0.389538,0.458664,-0.881776,0.109998
0.191977,-0.381992,0.770970,-0.062289,0.406928,0.911334
-0.352939,-0.611961,0.569149,-0.388353,0.612460,-0.688531
-0.322051,-0.088870,0.783959,0.947906,-0.312016,-0.064187
-0.129183,-0.094843,0.835444,0.823928,-0.561576,0.075997
-0.144333,0.199156,0.786861,0.714739,-0.200298,0.670097
-0.556215,0.219114,0.575666,0.424274,-0.007346,-0.905504
-0.361064,0.219843,0.699585,-0.579140,-0.637227,0.508468
-0.124699,-0.431963,0.801779,-0.144560,-0.968339,0.203525
-0.614691,-0.247231,0.570501,0.968914,-0.197251,-0.149326
0.213810,-0.092075,0.932185,-0.013609,-0.711202,0.702856
0.029408,0.175409,0.927961,0.087063,0.988046,0.127221
-0.282952,-0.671038,0.658795,0.592537,0.408980,0.694000
-0.166843,0.456803,-0.981117,-0.070631,0.128081,-0.989245
0.279820,0.020105,-0.381121,-0.532322,0.837948,-0.120317
0.491473,-0.366622,0.721931,0.690138,-0.161947,-0.705325
0.023907,0.361452,-0.972366,0.362116,0.117341,-0.924718
0.327805,-0.529938,0.659235,0.916742,0.155527,-0.367961
-0.013329,0.068400,0.889663,0.734136,-0.349226,0.582311
0.123429,-0.360867,0.811304,0.141886,0.989686,-0.019728
0.634579,-0.311116,0.609133,-0.322009,-0.647841,0.690371
-0.485549,-0.042686,0.608678,0.721983,0.524113,0.451714
0.415477,0.451706,0.642904,-0.738208,0.591963,0.323463
-0.588627,-0.482153,0.495059,0.286351,0.928948,0.234648
-0.256633,0.451195,0.625495,0.415056,-0.704511,0.575667
0.461600,-0.206220,0.722068,0.118266,-0.065714,0.990805
0.165234,0.036131,0.905204,-0.612623,-0.785695,0.085886
0.302332,0.056382,0.814510,0.154953,0.357392,0.921011
0.233529,-0.089670,0.703869,0.744025,0.509646,-0.432073
-0.072231,-0.250072,0.865447,0.551454,-0.384670,-0.740221
-0.167858,-0.021561,0.870096,-0.654539,0.713854,-0.248980
0.304362,0.453891,0.788654,0.486875,-0.305416,0.818336
0.147463,-0.220935,0.769785,0.163615,-0.372463,0.913510
0.701265,-0.314904,0.640155,-0.740731,0.666187,-0.086673
0.159395,-0.391827,0.842417,0.399481,-0.297629,-0.867083
-0.063259,-0.294943,0.784612,0.210612,0.591227,-0.778520
-0.243939,0.019740,0.808737,-0.833220,0.496401,0.243578
-0.088308,0.379153,0.619752,-0.495991,0.818461,0.290024
0.111074,-0.307619,0.825660,0.572228,0.765752,-0.293564
0.382812,0.545382,0.583854,-0.518057,-0.778609,0.354098
-0.037110,0.310460,0.815193,-0.018958,0.997958,0.060999
0.011720,0.502622,0.552985,0.069960,-0.004501,-0.997540
0.268903,-0.447116,0.636463,0.902908,0.389735,-0.181282
0.447130,0.323282,0.534345,-0.428719,-0.814542,0.390797
-0.716245,0.015590,0.580877,0.280701,0.857667,-0.430829
-0.614269,-0.367643,0.642616,-0.326439,0.945164,-0.010150
-0.070451,-0.093531,0.844847,0.709681,0.667780,-0.224550
0.334830,-0.183130,0.898565,0.738852,-0.668445,-0.085321
0.121399,0.053468,0.904080,0.062697,-0.940269,0.334609
0.090170,-0.154573,0.888417,0.948539,-0.081682,-0.305943
-0.301062,0.563884,0.603968,0.027722,-0.712858,0.700760
0.170143,-0.000145,0.965500,0.851225,-0.502990,0.149721
-0.781068,0.030960,0.552499,-0.122074,0.851094,0.510623
-0.638471,-0.240310,0.590265,0.988029,0.004352,-0.154204
0.261201,-0.285184,0.761081,0.931100,0.353423,0.090251
0.498413,0.630028,0.649574,0.938038,-0.293520,-0.184202
0.136546,0.559734,0.389051,0.579408,0.724443,-0.373456
0.573139,0.005829,0.529438,0.569326,0.284757,-0.771221
-0.269750,0.455856,0.292280,0.704034,0.414911,-0.576355
0.402869,0.419655,0.620633,-0.424493,0.712961,0.558115
-0.115560,-0.506119,0.678559,-0.551701,-0.047716,-0.832676
0.168028,0.000947,-0.829306,-0.167103,0.975974,-0.139826
-0.227098,-0.137529,0.817123,0.457183,-0.842212,-0.285766
-0.039140,0.716565,0.359109,-0.163062,-0.318713,0.933720
0.481486,0.053833,0.855071,-0.483226,-0.794559,0.367652
-0.320612,-0.436772,0.508078,-0.617381,0.730158,0.292762
0.672492,0.292614,0.535211,-0.241793,0.109778,0.964098
-0.175983,-0.571678,0.484060,-0.556479,0.026672,0.830433
-0.382559,-0.124636,0.841536,-0.422646,0.904188,-0.061753
0.180469,0.473558,0.607660,-0.606149,-0.419968,-0.675433
0.132739,-0.345352,0.819872,-0.454721,-0.559497,0.692959
-0.084669,-0.082458,0.807871,0.714564,0.692606,0.098469
0.103287,-0.047495,0.871949,0.033323,0.910959,0.411149
0.304024,0.307912,0.612491,0.693906,-0.023133,-0.719694
-0.112089,0.199300,0.759972,-0.352271,0.028063,-0.935477
-0.452545,0.282852,-0.992814,-0.237820,-0.434543,0.868685
0.166504,-0.220570,0.795232,-0.028186,-0.329949,0.943578
0.093217,-0.351835,0.804544,-0.324873,0.386056,0.863376
-0.520755,-0.041666,0.705114,0.069999,-0.971549,-0.226259
0.144247,0.053977,0.858718,0.118043,0.985963,0.118078
-0.337536,-0.221299,0.694495,-0.265580,-0.403547,-0.875567
-0.657004,0.064103,0.604135,0.376435,-0.892414,-0.248786
0.256124,0.019887,0.915306,-0.463174,-0.856806,0.226612
0.348538,0.272291,0.771411,-0.379731,-0.346224,0.857866
0.076123,-0.288679,0.767340,0.542794,0.309318,0.780831
-0.207888,-0.011364,0.883541,-0.841097,0.149955,-0.519682
-0.608598,0.058130,0.631511,0.988384,0.122508,-0.089934
0.130877,-0.070732,-0.969298,0.746704,-0.055154,-0.662866
0.439090,0.418999,0.653569,0.801023,-0.564883,-0.198165
0.186391,0.005391,0.899629,0.489730,0.508455,-0.708264
0.011976,-0.124418,0.757814,0.630080,0.339953,-0.698163
0.135954,-0.049169,0.622502,0.999754,0.021583,0.005092
-0.751110,-0.923150,0.499647,0.587280,0.665123,0.461209
-0.086025,0.039845,0.683527,0.830632,-0.151715,0.535754
-0.254009,-0.485431,0.669581,0.748650,-0.615576,-0.246148
0.004442,-0.177084,0.832694,0.455206,0.686006,-0.567612
-0.106843,0.044872,0.710842,-0.324653,0.937733,-0.123516
-0.339736,-0.152317,0.844969,-0.215506,0.960214,-0.177611
-0.356069,-0.819784,0.536684,0.184778,0.956889,-0.224100
0.111835,-0.019523,0.953620,-0.004970,0.857693,0.514138
0.453731,-0.053321,0.809451,-0.341110,-0.939646,-0.026630
0.347185,0.000582,-0.151803,0.368694,-0.928596,-0.042114
0.209242,0.213432,-0.956415,-0.255252,-0.165605,0.952587
0.081962,-0.395033,0.731214,-0.222432,0.707645,0.670644
0.147886,0.353875,0.780860,0.650703,0.163410,-0.741541
0.512545,0.273164,0.787043,0.164032,-0.160254,0.973351
-0.181737,-0.265880,0.765456,0.764492,0.594047,0.250322
0.218550,0.006776,-0.349158,0.803184,-0.595724,-0.002815
-0.180298,-0.002841,0.865918,0.852459,-0.403800,-0.332053
0.421402,0.289046,0.783093,0.796662,-0.153764,-0.584540
-0.090170,-0.423296,0.700633,-0.596219,-0.788397,-0.151502
0.036516,0.564466,0.383598,0.481770,0.817724,-0.315001
0.205518,0.018284,0.969814,-0.134185,0.673310,0.727081
0.083062,-0.379734,0.784050,0.731298,0.622261,-0.279273
-0.367071,-0.132576,0.591086,0.675652,0.633522,-0.377020
0.135954,0.234413,-0.954273,0.560152,0.092299,-0.823232
0.124444,0.041959,0.855102,-0.432669,0.814652,0.386187
0.152202,-0.422931,0.797328,-0.250216,0.704338,0.664304
-0.172682,0.451997,0.513015,0.837959,-0.440347,-0.322366
0.728938,-0.319930,0.640626,-0.669534,0.698565,-0.252452
0.071469,-0.017337,0.929055,0.890453,0.452046,0.052416
0.062412,-0.374927,0.724955,0.073499,0.027390,0.996919
-0.289977,0.326559,0.727340,-0.636135,0.644074,-0.424854
0.564508,-0.304269,-0.081708,0.472997,0.498593,-0.726415
0.076629,-0.156687,0.784111,-0.059280,0.855303,-0.514726
0.218382,-0.115166,-0.955747,0.702018,0.502489,-0.504654
0.134260,0.037151,0.552058,0.988464,-0.150738,-0.014752
0.215081,-0.037296,0.956202,0.589462,0.213897,0.778963
0.156097,-0.179560,0.829671,0.500924,0.803183,0.322448
0.173953,0.156178,0.305953,0.976137,0.217065,0.006242
0.321542,0.171257,-0.958770,-0.077878,-0.234413,0.969013
-0.174968,0.658582,0.513669,-0.325999,-0.527301,0.784652
-0.579910,-0.363563,0.483361,-0.195014,0.671537,-0.714848
-0.025431,-0.050698,0.817928,-0.202893,-0.704985,0.679582
0.558583,-0.304269,0.695255,-0.662693,0.723634,-0.192853
-0.278890,0.219261,0.733599,0.300920,0.942097,-0.147988
-0.499345,-0.112180,0.695544,0.824500,-0.513322,0.238118
0.197310,0.405667,0.792755,0.181842,-0.584935,0.790433
-0.448654,-0.350743,0.601522,0.295051,0.706805,-0.642939
-0.349977,-0.150932,0.834487,-0.343006,-0.899507,0.270617
-0.486228,-0.045528,0.748335,0.516862,0.834018,0.193050
0.062920,0.432839,-0.971197,0.419765,-0.052207,-0.906130
0.312064,0.014643,0.925424,0.855462,0.186333,-0.483182
0.263064,-0.081002,0.894646,0.365430,-0.910279,-0.194557
0.063344,0.196753,-0.080508,0.922055,0.356570,-0.150575
0.446536,0.564760,0.744977,0.879116,0.368715,0.302000
-0.512292,0.038025,0.584887,-0.545763,0.833024,0.090630
-0.078323,-0.067671,0.824703,-0.647931,0.699122,-0.302347
-0.813651,-0.212558,0.555765,0.841217,-0.485555,0.237888
-0.391275,-0.458697,0.463870,-0.066166,-0.603942,0.794277
0.587356,-0.038025,0.533889,0.442683,0.440075,-0.781259
0.246984,-0.390880,0.801202,0.816714,0.537560,-0.209780
-0.573224,-0.007647,0.588989,0.146172,-0.803403,0.577215
-0.456184,-0.044581,0.714093,0.721238,0.390512,0.572115
0.230313,-0.070950,0.881839,-0.264687,-0.471908,0.840977
0.398892,0.294143,0.773887,-0.245283,0.443690,0.861960
-0.360726,0.020834,0.689725,-0.502936,0.863063,-0.046662
-0.336691,-0.690340,0.663094,-0.743777,0.596689,0.301260
0.070790,-0.321533,0.798027,0.994419,-0.103067,0.022550
0.038210,0.328744,0.617155,0.417479,0.560746,-0.715035
-0.385860,0.025496,0.665251,0.073647,0.664587,-0.743573
-0.106420,-0.673223,0.683618,0.002418,-0.999940,0.010651
-0.699065,-0.851398,0.519654,-0.357454,-0.765164,0.535492
0.381035,-0.502404,0.676205,-0.378070,0.778862,0.500436
-0.255447,0.504371,0.643041,0.444005,-0.704721,0.553379
-0.170737,0.575686,0.641051,0.163637,0.975080,-0.149803
0.283797,0.056891,0.924209,0.668494,0.643011,-0.373701
0.014176,-0.360140,0.787544,-0.019127,-0.913658,0.406034
-0.592857,-0.650860,0.521356,0.885131,0.434983,0.165326
-0.088308,-0.168196,0.674579,-0.563097,0.092108,0.821242
0.374181,-0.059439,0.884179,0.956321,-0.143921,-0.254434
0.235900,-0.492278,0.805972,-0.597101,0.785074,0.164712
-0.272374,-0.190777,0.430175,-0.471517,-0.881824,0.007643
0.042779,0.329035,0.689513,0.466974,-0.654120,0.595032
-0.520755,-0.007429,0.702425,0.888044,0.069305,-0.454506
-0.213472,-0.530230,0.643072,-0.736342,0.059956,-0.673948
-0.269326,-0.307837,0.717617,-0.777247,0.513698,0.363320
0.621207,-0.330491,0.631131,0.611194,0.755854,-0.234790
0.071807,-0.450903,0.659934,0.986209,-0.129741,-0.102761
-0.024922,-0.423076,0.766215,0.533414,0.769355,0.351515
-0.579316,-0.352199,0.493494,-0.199143,0.970488,-0.135998
0.198916,-0.355623,0.840731,0.393612,-0.287112,-0.873291
0.470740,-0.461830,0.704370,-0.178174,-0.781149,0.598381
0.034739,0.444639,0.335273,0.748814,0.416833,-0.515294
-0.236153,0.597612,0.628867,0.780851,-0.439248,-0.444222
-0.018830,-0.415720,0.779554,-0.532891,0.765042,-0.361576
0.245631,0.026661,0.940965,-0.333913,-0.930348,-0.151511
0.470740,0.001894,0.902880,0.801010,0.348073,-0.487061
0.015276,0.367863,-0.970893,0.353099,0.108983,-0.929217
0.504252,-0.313154,0.708578,0.868474,-0.495734,-0.001127
-0.243686,-0.011582,0.853036,0.757479,0.519252,-0.395730
-0.151863,-0.258304,0.734343,0.178231,0.343431,0.922111
-0.176915,0.236016,0.799911,-0.566267,-0.802750,0.186904
-0.202811,0.130535,0.707515,0.993696,-0.111660,-0.010039
-0.201373,-0.080347,0.798331,-0.510320,0.364095,-0.779107
0.582364,0.375074,0.565548,0.380495,0.851338,-0.361173
