-0.253788,-0.431740,0.428805,0.415390,0.909528,0.014496
0.076205,-0.290441,0.881159,-0.595529,0.399508,0.696950
-0.480058,-0.633752,0.506676,-0.555071,-0.652469,-0.515927
0.534707,-0.214846,0.536173,0.005138,0.590791,0.806808
0.607684,0.011045,0.660297,0.297694,-0.810171,0.504977
0.415583,-0.490992,0.640141,-0.680195,0.732853,0.016160
-0.702796,0.048725,0.356963,0.201734,0.833148,-0.514945
0.644889,0.079952,0.822241,-0.136256,0.763003,-0.631870
0.200905,-0.315451,0.921757,-0.681973,0.715275,-0.152622
-0.376665,0.342439,0.552285,0.651372,0.662629,-0.369646
0.589799,-0.237124,-0.623384,0.380075,-0.914010,0.141876
0.462781,-0.180227,0.199521,-0.449086,0.885691,-0.117781
-0.309707,0.366367,0.697037,0.744496,-0.667297,0.020985
0.590517,-0.097803,0.621535,0.443105,0.026843,0.896068
-0.291048,-0.463768,0.309468,0.442669,0.497521,-0.746001
0.261130,-0.133080,0.874908,-0.447133,0.517423,0.729620
-0.880268,0.125686,0.449098,0.968247,-0.067558,-0.240695
0.208634,-0.080329,0.895362,-0.689045,-0.262523,0.675499
-0.707322,0.045004,0.418721,0.594755,0.781077,-0.190223
0.501862,-0.153804,0.853114,-0.021735,-0.062698,0.997796
0.260412,0.207828,0.784410,-0.328356,0.803872,-0.495955
0.425740,-0.106045,0.888899,0.750204,0.637295,0.176205
0.355359,-0.577750,0.795350,0.374396,0.927211,-0.010353
0.435676,-0.347526,0.890921,0.998791,0.042876,-0.024031
-0.919571,0.135953,0.439522,0.929126,-0.301609,-0.213908
-0.718914,-0.159833,0.506726,0.953948,0.284323,0.095625
0.133062,-0.292278,0.814638,-0.290366,0.838318,0.461422
-0.828214,0.123849,0.371984,-0.029257,-0.920125,0.390530
0.394662,-0.843958,0.697918,0.251948,0.959873,-0.123153
0.373685,-0.237642,0.583927,0.916774,0.387365,-0.097332
-0.725759,-0.128936,0.480504,0.604681,-0.607549,0.515019
-0.305843,0.794928,0.114431,-0.187147,-0.242351,0.951967
0.493748,-0.188187,0.892298,0.287932,-0.691040,0.662993
-0.252794,-0.514307,0.389274,0.134966,-0.823270,0.551372
0.279401,-0.444598,-0.590489,0.743177,-0.665262,0.071514
-0.253401,0.202129,0.657345,-0.500604,-0.216841,-0.838078
0.588970,-0.132138,-0.444347,-0.302437,0.952695,0.030077
-0.560596,0.068413,0.549135,0.955253,-0.274311,-0.110663
-0.541277,-0.593434,0.280729,0.061668,-0.151966,0.986460
0.296955,0.081977,0.073189,-0.150172,-0.027532,0.988276
-0.422925,-0.384028,0.361651,0.481061,0.876338,-0.024737
0.665590,-0.554577,0.843948,0.610587,-0.627219,-0.483508
0.547569,0.135341,0.852903,0.407642,0.869206,0.279837
0.375176,-0.205143,0.975837,-0.289551,-0.536576,-0.792620
-0.449366,0.151450,0.291334,0.287547,0.928971,0.233086
0.573349,-0.576431,0.838403,-0.593660,0.687412,0.418369
0.255554,-0.191343,0.617455,-0.320679,-0.943384,-0.084802
-0.199746,0.123472,0.758957,0.910973,-0.346955,0.223048
-0.472882,-0.017874,0.434449,-0.516805,0.735203,-0.438621
-0.152825,-0.506865,0.345142,0.776145,0.559304,0.291165
-0.193398,0.333161,0.674053,-0.770499,-0.601348,0.211453
-0.256217,0.875374,0.166267,0.235304,0.009217,-0.971878
-0.709475,-0.131715,0.469552,0.834943,-0.541758,-0.096789
-0.900416,-0.618397,0.305040,-0.646326,-0.388032,-0.657034
0.304519,-0.071804,0.881953,-0.172899,0.904989,0.388717
-0.423036,-0.104632,0.303738,0.808522,0.351384,-0.472039
0.280506,-0.430798,0.532712,0.475466,0.844743,-0.245645
0.359002,-0.647928,0.870889,0.035164,-0.123475,0.991724
-0.003836,0.303346,0.691890,-0.207900,-0.953369,0.218782
-0.559990,-0.654240,0.502794,0.881256,-0.458631,0.114216
-0.028069,-0.460330,0.293902,0.050836,-0.599785,-0.798545
0.547569,-0.173350,-0.080370,0.352279,0.930986,0.095730
0.354144,-0.516190,0.818173,0.759429,0.027064,-0.650027
-0.633959,-0.605257,0.280282,0.232989,-0.330351,0.914650
0.092876,-0.331795,0.282304,-0.770603,0.117588,-0.626374
-0.573569,-0.075807,0.394224,0.782391,0.616362,0.089234
-0.067428,0.082401,0.042688,-0.061105,-0.374063,0.925388
-0.690431,0.109343,0.368585,0.555932,0.770621,0.311582
-0.421490,0.091115,0.563275,0.896654,0.111525,-0.428454
0.271950,-0.409886,0.676236,0.276818,0.521790,-0.806912
0.598188,0.008313,0.854082,-0.466182,-0.869836,0.161430
-0.809113,-0.175753,0.527378,-0.382484,0.257065,-0.887482
0.078799,-0.139204,0.869252,0.372506,-0.878444,0.299291
-0.532334,-0.589101,0.429636,0.129802,0.684236,0.717616
0.418730,-0.182677,-0.442053,0.328593,-0.944457,0.005203
0.672711,-0.118904,0.666065,-0.625662,0.356958,0.693634
0.003615,-0.817629,0.685130,0.162486,0.769570,0.617543
-0.072396,0.308905,0.667119,0.217116,0.976123,-0.006741
0.835499,-0.432164,0.814787,0.941935,0.334953,-0.023765
-0.230327,0.737278,0.144920,-0.267089,-0.297737,0.916524
0.452567,0.166993,0.848959,0.180984,0.978008,-0.103663
0.566558,-0.092716,0.863720,-0.530366,0.714706,0.455969
-0.403880,0.072133,0.601975,-0.496437,0.852778,-0.162235
0.452734,-0.781739,0.697881,-0.783908,0.418084,0.459014
0.487290,-0.612604,0.803437,0.101318,-0.903472,0.416500
-0.915542,-0.179427,0.363896,-0.335027,0.397201,-0.854394
-0.029339,-0.387561,-0.320731,-0.531414,0.722582,0.442124
-0.461732,-0.250877,0.323559,0.707525,0.657135,-0.259965
-0.234632,-0.374891,0.470953,-0.125637,0.885234,0.447857
0.159615,-0.580529,0.486495,-0.637290,0.686099,0.350897
0.394330,-0.670113,0.675852,0.421171,-0.564776,-0.709678
-0.052634,-0.286720,0.827935,0.866412,-0.249258,0.432668
0.127764,-0.974849,0.610360,-0.253631,0.842438,0.475363
-0.617233,-0.011045,0.315001,0.348959,0.762967,-0.544158
-0.653998,-0.544921,0.288258,-0.488634,0.251121,-0.835569
-0.365461,0.676848,0.099609,-0.203513,-0.232882,-0.950972
0.346471,-0.117443,0.937175,-0.652047,-0.135222,-0.746023
-0.396207,-0.572380,0.396940,-0.061048,-0.993039,-0.100732
-0.366344,0.166945,0.459554,0.392170,-0.919876,-0.005495
0.206537,-0.289829,0.892856,-0.348515,0.767478,0.538066
0.798957,-0.299814,-0.974014,0.069595,-0.239919,0.968295
-0.481824,0.323646,0.399222,-0.461988,-0.838231,0.289716
-0.598962,-0.279561,0.337216,0.875035,0.415819,0.247807
-0.598409,-0.102183,0.290181,0.860776,0.492661,0.127867
-0.580304,-0.608317,0.522330,0.980232,0.163090,-0.112015
-0.155585,0.289217,0.397870,-0.051810,-0.989748,-0.133098
0.386051,0.313614,0.793539,0.847096,0.516990,0.123085
0.160554,-0.020794,0.809081,0.941624,-0.308902,-0.133881
0.481659,0.354073,0.608226,0.849969,0.406366,-0.335290
0.043581,-0.527871,0.839408,0.603150,0.531587,0.594665
-0.391183,-0.015425,0.752817,0.635989,0.719751,-0.278345
-0.677128,0.159927,0.260573,-0.717834,-0.596079,0.359728
0.313351,-0.536867,0.605175,0.951249,-0.304776,-0.047285
0.309707,-0.242399,0.880725,0.183193,-0.947452,0.262251
-0.148188,0.168594,0.750262,0.941572,-0.331481,-0.059688
-0.442522,0.422650,0.468423,-0.530839,0.660454,-0.531046
-0.558720,-0.143160,0.418064,-0.414189,-0.755786,0.507183
0.008362,-0.508324,0.523062,0.613794,-0.779599,0.124424
-0.030665,-0.124367,0.834992,-0.464102,0.842544,0.273367
0.485855,0.309140,0.747558,-0.004521,-0.996009,0.089136
-0.792995,0.126722,0.412221,-0.519127,0.658659,-0.544679
-0.749330,0.286014,0.317357,-0.520087,0.347840,-0.780075
-0.214373,-0.497115,0.548490,0.865985,-0.118056,-0.485935
0.228561,0.277112,0.747843,-0.176179,-0.888583,0.423535
-0.810272,-0.343570,0.336261,0.115597,-0.983872,0.136507
0.280727,-0.591785,0.837175,0.054390,-0.982457,0.178384
0.601502,0.020653,0.879745,-0.266607,-0.881921,0.388763
-0.869338,-0.232508,0.355673,0.180173,-0.683274,0.707583
0.069140,-0.817535,0.645872,-0.510065,-0.784167,-0.353435
0.536805,-0.350634,0.652694,0.457876,-0.842175,0.284766
0.059313,-0.616183,0.689868,0.871351,-0.283684,0.400338
0.287406,0.105057,0.778902,0.141350,0.053326,0.988522
0.441087,-0.196665,0.464417,0.423075,0.861354,0.281205
-0.534101,-0.013211,0.469155,-0.012567,-0.643338,0.765479
-0.194722,0.321150,0.637127,0.757219,-0.222669,0.614035
-0.492147,0.147164,0.688578,0.665743,-0.731912,-0.145225
0.472606,-0.052493,0.827314,0.538462,-0.788299,0.297730
0.050924,-0.125309,0.875590,0.722060,-0.637839,0.267938
-0.283486,-0.033559,0.678444,0.944640,-0.037426,-0.325968
-0.146421,-0.724466,0.307434,0.311139,0.764082,-0.565129
-0.168281,-0.617455,0.337315,-0.491150,0.082948,0.867117
-0.386050,-0.514212,0.399197,0.173022,-0.907702,-0.382282
-0.279568,-0.274662,0.274080,-0.540340,-0.099399,-0.835555
0.192239,-0.066717,0.700101,0.390512,0.800228,0.455122
0.590626,-0.196383,-0.657110,0.036040,0.956480,0.289565
-0.145594,0.089372,0.772775,0.903947,-0.063117,0.422960
0.327261,-0.556696,0.884657,-0.435740,0.895140,0.094099
-0.050592,0.116219,0.750609,0.205953,-0.012203,0.978486
-0.394883,-0.089230,0.595996,0.447944,0.893479,-0.032260
0.245618,-0.503709,0.641369,-0.194821,-0.958648,-0.207457
-0.187713,0.429763,0.130060,0.706983,-0.282069,-0.648546
-0.255003,0.258319,0.659838,-0.612250,0.753566,-0.239351
0.302917,-0.487507,0.885848,0.859015,-0.208395,-0.467615
0.156910,-0.184702,0.907120,-0.153444,0.628929,0.762170
0.250918,-0.636954,0.820145,-0.254607,0.187622,0.948669
0.309431,-0.170289,0.945795,0.162727,-0.597523,0.785166
-0.020727,-0.829875,0.733753,0.173494,-0.788774,0.589691
-0.711241,-0.144903,0.502360,-0.778577,-0.203331,-0.593696
0.769865,0.002238,0.686953,0.385782,0.202846,-0.900014
0.070685,0.004075,0.875305,-0.613503,0.599329,-0.514217
0.557616,-0.239479,-0.470817,-0.425067,0.878716,-0.217201
-0.719687,0.031957,0.351344,0.502189,0.861295,0.077313
0.278850,-0.420012,0.808461,-0.035529,-0.299513,0.953430
-0.759709,-0.162235,0.376015,-0.660288,0.029930,-0.750416
0.242914,0.280927,0.631558,0.039138,0.436794,0.898710
-0.321410,-0.627110,0.580789,-0.447499,0.822931,-0.350041
-0.419613,-0.291712,0.395129,-0.347993,-0.123218,0.929364
0.444896,-0.595977,0.867751,-0.104639,-0.253326,0.961705
-0.254561,0.339849,0.651900,0.807605,0.252281,0.533038
-0.545857,0.187481,0.292810,0.664405,0.359339,0.655318
0.025751,-0.478086,0.797868,-0.613535,-0.246249,-0.750291
0.346085,-0.253609,0.721113,0.789335,0.427407,-0.440766
0.297618,0.081224,0.431038,0.882556,0.421289,-0.208832
-0.666031,0.022820,0.339585,0.585415,0.323443,-0.743420
-0.505727,0.368109,0.461589,-0.307078,0.776912,-0.549646
-0.549943,-0.089702,0.441680,0.461248,0.849932,-0.254688
-0.569152,-0.515720,0.396469,-0.178355,0.914138,0.364063
0.245508,-0.477145,0.843129,0.849352,-0.419587,-0.320230
-0.509259,-0.097803,0.595822,-0.352236,-0.802512,0.481565
-0.245121,0.073311,0.273175,0.267986,0.895661,0.354929
-0.278739,-0.667758,0.553017,0.266153,0.457299,0.848552
-0.339737,0.398630,0.070373,0.993500,0.113033,0.013476
-0.134885,0.270659,0.373956,0.896301,-0.423187,0.132505
0.088846,-0.757106,0.690252,0.332153,-0.002652,-0.943222
-0.564461,-0.628147,0.522206,0.211889,-0.425535,0.879786
-0.925754,-0.620940,0.322108,0.341635,0.324953,0.881868
-0.271783,-0.296328,0.427974,0.970992,-0.226708,-0.076016
-0.509039,-0.506111,0.391656,0.044122,0.835548,0.547642
0.144159,0.232084,0.387935,-0.600651,0.410287,0.686209
-0.837320,-0.161717,0.340813,0.888069,-0.431908,0.157442
-0.839088,0.190967,0.414231,-0.057486,-0.841400,0.537347
0.204549,-0.215317,0.946651,0.874440,-0.462319,-0.147021
0.740112,-0.213150,-0.755087,-0.183662,0.981358,-0.056602
-0.298169,-0.454066,0.394608,0.533222,0.613274,-0.582725
0.492038,0.268964,0.601776,0.979540,0.178981,-0.092020
-0.292428,-0.356004,0.507619,0.838434,0.281269,-0.466815
-0.369324,-0.064032,0.722788,-0.137373,0.866843,-0.479283
0.040987,-0.750229,0.685030,0.058839,0.054667,0.996770
-0.087355,-0.250877,0.845238,0.968509,0.145979,-0.201695
-0.860726,-0.603419,0.291012,-0.243093,-0.252873,-0.936462
0.047445,-0.654805,0.685155,0.996918,0.074353,0.025036
-0.404984,0.085699,0.721460,-0.605838,-0.782774,-0.142216
0.049930,0.159127,0.602210,-0.510535,-0.604324,-0.611675
0.551378,0.168971,0.639595,0.219137,0.857138,0.466147
0.300764,-0.044062,0.894890,0.610578,-0.525164,0.592788
-0.077917,-0.263264,0.842745,-0.279856,0.779914,0.559835
-0.487676,0.187105,0.366253,-0.529427,0.831589,-0.167826
0.422263,-0.585003,0.783839,0.572229,0.705427,0.418242
0.019348,0.299673,0.728506,0.099293,0.984630,-0.143682
0.074881,-0.350870,0.517480,0.977307,-0.047384,-0.206458
-0.195551,-0.654052,0.333098,0.470189,0.627778,0.620336
0.476635,-0.255964,0.881618,-0.130483,0.857636,-0.497429
0.700587,-0.194593,-0.864203,0.824227,-0.558309,0.094554
0.292595,0.158609,0.427863,0.862101,0.389514,0.324131
-0.118932,0.151780,0.031537,0.668626,0.370123,0.644940
-0.241147,-0.807879,0.341259,0.490387,-0.755611,-0.434249
0.353261,-0.176978,0.489782,-0.227777,0.970153,-0.083189
-0.853385,-0.216541,0.362271,-0.373038,0.927355,0.029258
-0.075764,-0.796482,0.691394,0.535998,0.835792,0.118986
0.258039,-0.317429,0.890971,0.630464,-0.674940,0.383367
-0.454666,-0.547795,0.395985,0.116394,0.951419,0.285052
-0.444564,-0.898971,0.384623,-0.287446,0.837533,0.464665
-0.616406,-0.039540,0.438406,0.929234,0.215478,-0.300156
-0.020065,-0.174952,0.532017,-0.166367,0.967251,0.191699
0.284315,-0.445635,0.810036,-0.658623,0.604402,0.448234
0.420166,-0.452794,0.849740,-0.492778,0.709308,-0.504036
-0.416190,0.041989,0.702173,0.189097,0.919596,-0.344362
0.094588,-0.779902,0.683443,-0.120126,0.268236,0.955834
-0.508707,0.041001,0.462048,-0.066398,-0.579285,0.812416
-0.056610,-0.567435,0.588343,-0.546545,0.753857,0.364675
-0.060472,-0.569272,-0.259208,-0.550124,0.708178,0.442547
-0.210620,0.547088,0.122184,0.752657,0.604600,-0.260705
-0.089232,0.205284,0.048195,0.138118,0.822065,-0.552388
-0.191466,0.862374,0.166515,0.452277,0.177473,-0.874042
-0.781127,-0.275558,0.339721,-0.513774,0.857349,-0.031456
-0.354144,0.298589,0.409766,0.291516,0.937489,-0.190084
-0.843890,-0.218190,0.376151,-0.519146,0.854529,-0.016354
0.168005,0.221628,0.720022,0.603224,0.682317,-0.412995
-0.750268,0.511999,0.291309,-0.483524,0.680895,-0.550079
-0.291325,0.343664,0.691418,0.781093,-0.615997,0.102183
0.263559,0.171986,0.435193,0.860731,0.403776,0.310012
0.097955,-0.131385,0.881767,0.863379,-0.199298,0.463527
0.412106,-0.294586,0.798972,0.633507,0.562265,0.531532
-0.490436,-0.755693,0.513064,0.400192,-0.555227,-0.729088
-0.188981,-0.056213,0.785464,-0.301923,0.928816,0.214808
-0.447655,0.043968,0.730416,0.700371,0.461378,0.544620
0.208026,0.216024,0.789694,0.216388,-0.974237,0.063553
0.423311,-0.098933,0.849033,-0.101426,0.392771,0.914026
0.275316,-0.245178,0.896714,-0.303122,-0.054400,-0.951398
-0.260026,0.938723,0.174503,-0.479680,0.759000,-0.440258
0.860341,0.054989,0.636792,0.951698,-0.300778,-0.061679
-0.293422,-0.640534,0.282751,0.757224,0.040906,-0.651873
0.023986,0.311777,0.755410,-0.329902,0.937542,0.110358
0.106897,-0.266090,0.893166,0.578917,-0.181265,-0.794983
0.096078,-0.138261,0.872601,-0.655184,0.717358,-0.236920
-0.813696,-0.532534,0.294336,-0.180033,0.370293,-0.911302
-0.025972,-0.178720,0.242178,0.432972,-0.110515,0.894607
0.496564,-0.185927,0.181337,0.416636,-0.905616,-0.079212
-0.616958,-0.278572,0.469316,-0.689703,0.072222,0.720481
-0.495183,0.388362,0.472541,-0.209139,0.944520,-0.253266
0.139466,-0.757813,0.839123,0.145582,0.916429,0.372777
0.435676,-0.828981,0.722254,0.495701,-0.818176,0.291323
-0.314454,-0.679250,0.529475,0.081657,-0.266593,-0.960344
0.725097,0.166475,0.682289,-0.290775,-0.106870,0.950804
-0.422372,0.357512,0.369503,0.858854,-0.014681,0.512009
-0.235020,0.664320,0.144436,0.976340,0.196517,-0.090227
0.168613,-0.811506,0.724239,-0.557332,0.818381,0.140122
-0.123733,-0.587311,0.543168,-0.291741,0.711407,0.639364
0.055284,-0.888468,0.703810,-0.074640,-0.996378,-0.040744
-0.251194,-0.060547,0.610992,-0.328360,0.342195,-0.880387
0.071128,-0.049619,0.873258,0.924970,0.266716,0.270727
-0.780904,0.138921,0.408959,0.565952,0.567522,-0.598011
0.593662,0.058427,0.661972,0.192514,-0.633243,0.749628
0.469017,-0.153946,0.745896,-0.394081,-0.546579,-0.738886
-0.205266,0.210277,0.655249,-0.585979,-0.001432,-0.810325
-0.907924,0.129549,0.408488,-0.716722,-0.542340,-0.438381
-0.287901,0.363022,0.635825,0.602889,0.640897,0.475159
0.158786,-0.328403,0.857059,0.388225,0.870332,-0.302991
-0.558940,-0.185079,0.405189,0.951641,-0.241969,-0.189291
0.868953,-0.134776,0.817925,0.600695,0.562207,-0.568409
0.532610,-0.671808,0.707581,0.682211,-0.002324,0.731152
-0.029836,0.286296,0.334971,0.804703,0.593511,0.014060
-0.508983,-0.587735,0.465558,0.475290,0.814210,-0.333409
0.129862,-0.692862,0.777302,-0.030677,-0.295012,0.955001
-0.205928,-0.452417,-0.338766,0.479273,-0.857470,-0.187197
0.255776,-0.712597,0.797272,0.062803,0.997894,0.016244
-0.143330,0.275605,0.113265,0.557961,0.445351,-0.700245
-0.230549,-0.446954,0.553674,-0.202538,-0.426988,0.881283
-0.595485,0.124462,0.536520,-0.618487,0.640379,0.455399
-0.399298,0.244048,0.354209,0.935798,-0.200757,-0.289790
-0.200849,-0.442526,0.147983,-0.585655,0.779539,0.222097
0.156745,-0.624991,0.776806,0.525990,0.057482,-0.848546
-0.146366,-0.077079,0.801787,0.100730,0.734157,0.671467
-0.353094,0.083814,0.700858,-0.541734,-0.562611,-0.624494
0.324004,-0.731578,0.756104,0.378527,0.851548,0.362744
0.712346,0.028378,0.658635,0.736720,0.589260,-0.331687
0.285142,-0.418693,0.834558,0.904105,-0.379620,-0.196172
0.462063,0.224455,0.799443,0.315305,0.917623,0.241972
-0.383124,-0.514353,0.402013,0.173022,-0.907702,-0.382282
-0.081063,-0.034265,0.874684,-0.856096,-0.239068,0.458199
-0.431040,-0.001154,0.636073,-0.647609,0.670494,0.361994
-0.852502,0.067424,0.400624,-0.300255,-0.814596,-0.496266
-0.761365,0.538233,0.290801,0.802046,-0.515392,0.301818
-0.079904,-0.767468,0.310461,-0.261541,-0.845839,0.464923
-0.278628,0.376399,0.687685,0.627068,-0.773678,0.090598
-0.096629,-0.013824,0.770641,0.763860,0.642279,0.063218
-0.759377,-0.225961,0.468448,0.920595,-0.327689,0.212424
-0.305733,-0.001248,0.720642,-0.082412,-0.565557,0.820581
-0.090778,0.221911,0.403551,0.358810,0.381591,0.851848
0.297066,-0.737324,0.821261,0.864307,0.132324,-0.485245
-0.730230,-0.165721,0.504977,0.938800,0.343395,0.027103
0.049322,-0.606622,0.680354,-0.380831,0.549743,0.743472
0.263118,-0.109672,0.893067,-0.602110,0.590004,0.537920
0.530457,-0.170760,0.841269,0.921567,-0.091342,0.377321
0.049598,-0.302263,0.847520,0.367248,0.917508,0.152671
-0.317876,-0.110096,0.546803,0.260046,0.836730,-0.481932
0.037233,-0.468808,0.840748,0.030335,0.788440,0.614364
0.215423,0.337730,0.119405,-0.305726,0.693035,0.652866
-0.438546,0.030827,0.714204,0.818921,0.069599,0.569670
-0.221882,-0.330711,0.557966,-0.416496,-0.061490,0.907056
-0.204438,-0.033982,0.799592,0.937736,0.000850,-0.347348
-0.255223,0.843675,0.142563,0.634999,0.771363,0.042136
0.033148,-0.950922,0.631595,-0.632349,-0.254700,0.731617
-0.233529,-0.552787,0.303837,0.996778,0.072694,0.033906
0.067428,-0.426183,0.588455,0.959467,0.051579,0.277062
0.074108,-0.166333,0.911065,0.193574,0.299532,0.934243
0.293092,0.278855,0.528259,0.349674,0.209625,-0.913118
0.193949,-0.600829,0.823060,0.832474,0.143831,-0.535069
0.078303,-0.014106,0.698985,0.115234,0.990694,-0.072437
-0.204935,-0.637614,0.641518,-0.264179,-0.682982,-0.680989
-0.247606,-0.725879,0.557693,0.516639,0.739360,0.431777
0.465264,-0.067376,0.882375,0.010996,0.498164,0.867013
-0.132953,-0.693239,0.336149,0.179028,-0.655147,0.733983
-0.540780,-0.003509,0.604617,0.625534,0.452719,-0.635416
0.428887,-0.101806,0.634200,-0.317055,-0.465460,0.826331
0.044851,-0.566304,0.846739,0.742498,0.554212,0.376227
-0.247771,0.725125,0.153664,-0.093413,-0.443375,0.891455
0.359553,-0.178108,0.939135,0.957583,-0.070561,0.279384
-0.297175,0.178014,0.369974,-0.191345,-0.262339,0.945815
-0.252297,-0.236700,0.260585,-0.724787,0.490722,-0.483606
0.725262,-0.111603,0.872142,0.474601,-0.506333,0.719986
-0.851287,0.301745,0.326325,0.854440,0.511675,-0.090114
-0.574949,-0.716459,0.490254,-0.804681,0.554881,-0.211176
0.342662,-0.036290,-0.140789,-0.333383,-0.412822,0.847605
0.560652,-0.300991,-1.000000,-0.427383,-0.350437,0.833389
-0.410395,-0.507618,0.453787,-0.225671,0.918957,-0.323405
-0.556236,0.557120,0.144014,0.656596,-0.302259,0.691029
-0.382903,0.081977,0.644644,0.930026,-0.317200,0.185567
0.950705,-0.138025,-0.957703,0.194574,-0.430668,0.881287
-0.345035,-0.189647,0.669737,-0.566205,0.666445,0.485039
-0.391736,-0.381767,0.452174,0.519990,0.651784,-0.552076
0.063619,-0.370416,0.156691,-0.535790,0.834834,0.126412
0.137313,-0.743494,0.608549,-0.446886,-0.443376,-0.776988
-0.884960,-0.546146,0.300352,0.233036,0.359796,0.903461
0.056389,-0.887902,0.702929,-0.072788,-0.988611,-0.131723
-0.301813,-0.149612,0.638442,-0.614408,0.751110,-0.241528
-0.809113,-0.105950,0.498515,0.799762,0.326909,-0.503499
0.521569,-0.132939,0.904466,0.904750,-0.034409,-0.424550
-0.041207,0.291713,0.599519,0.936536,0.347775,0.044199
0.241368,-0.687069,0.814514,-0.021968,-0.440787,0.897343
-0.566614,0.231990,0.572491,-0.516467,0.398882,-0.757731
-0.722226,0.117350,0.362333,0.789324,0.593199,0.158378
0.059093,0.315404,0.730379,0.049703,-0.986768,0.154335
0.411498,-0.475120,0.859515,-0.651233,0.180246,-0.737161
0.023101,-0.090643,0.736258,0.843320,-0.371188,0.388626
-0.079517,0.021407,0.745660,-0.644670,0.664533,0.377885
0.100881,-0.364199,0.762046,0.892570,-0.303894,0.333116
-0.377218,-0.273909,0.666673,0.914558,-0.316515,-0.251796
0.143551,-0.299248,0.899728,-0.391513,0.546539,0.740279
-0.572410,-0.706473,0.500326,-0.772337,0.509254,0.379680
0.468467,-0.650613,0.718434,0.377805,0.187797,0.906640
-0.255389,0.380355,0.681880,0.778307,-0.625652,-0.052904
0.186828,0.376257,0.776546,-0.466875,0.750532,0.467686
0.089399,-0.658714,0.590638,-0.562409,-0.520828,-0.642211
0.279568,0.414644,0.711587,0.885400,-0.377634,0.271034
0.510474,-0.111037,-0.028188,0.145956,-0.985780,0.083273
0.380033,0.420578,0.602806,0.464285,0.863754,-0.195879
-0.463664,-0.282764,0.327342,-0.478000,-0.567660,0.670282
-0.087355,0.290158,0.642237,-0.303294,0.704281,-0.641873
-0.029727,0.094506,0.743415,0.907642,0.337564,0.249473
-0.134388,-0.085274,0.803995,0.286157,0.664255,0.690565
-0.307719,-0.445871,0.402187,-0.214517,-0.473677,0.854174
-0.026580,-0.134352,-0.199248,0.054569,0.880303,0.471264
0.585161,0.000118,0.794692,0.406518,-0.906933,0.110528
-0.297728,-0.564468,0.535279,0.276751,0.019227,-0.960749
0.203887,-0.326520,0.900497,0.047455,0.616620,0.785829
-0.753856,0.476156,0.291719,0.741732,-0.395300,0.541823
-0.597526,0.467583,0.262669,0.335642,0.675086,0.656966
-0.395159,0.896993,0.154471,0.973105,0.210159,-0.094336
-0.319478,0.007748,0.658139,-0.012057,-0.680893,0.732284
-0.648036,0.242211,0.556887,-0.623151,-0.716784,-0.312896
-0.210676,0.683442,0.148058,0.932036,0.196588,-0.304403
0.290442,-0.247956,0.849207,-0.142365,0.921522,-0.361289
0.682923,-0.138403,0.812653,0.085327,0.056588,0.994745
-0.383842,0.048725,0.425952,0.811032,-0.435152,0.390986
-0.720405,0.408756,0.259208,-0.377037,0.237281,0.895288
-0.098782,0.398818,0.597571,0.726721,0.423738,0.540668
-0.541387,-0.170195,0.315311,0.186973,0.302040,0.934780
-0.047501,-0.070155,0.863868,0.811192,0.584246,-0.024969
0.006044,-0.829310,0.694147,0.615658,0.646144,0.451068
-0.024536,-0.264630,0.862330,-0.073979,0.917060,0.391828
0.427837,-0.381155,0.747273,-0.277782,0.065406,-0.958415
-0.922717,-0.152344,0.377069,0.030717,-0.636595,0.770586
0.500868,0.041566,0.858622,0.834841,-0.064071,-0.546749
-0.687393,-0.528107,0.296643,0.082370,-0.570663,0.817043
0.624300,-0.161387,-0.562208,0.515006,-0.854923,0.062256
-0.127764,-0.153710,0.812938,0.896821,-0.056517,-0.438769
0.515332,-0.300850,0.754182,0.486733,0.873548,-0.002416
-0.239877,-0.329628,0.424563,0.830365,0.101350,-0.547926
-0.411387,-0.362409,0.447808,-0.725743,-0.602599,0.331920
0.168943,0.203636,0.782834,0.915376,0.352279,-0.194901
0.568490,-0.036290,-0.738057,-0.600412,-0.799531,-0.016013
0.017692,-0.602242,0.747186,-0.476246,-0.799288,-0.366509
0.312025,-0.730730,0.823903,0.829567,0.340568,-0.442529
-0.441528,0.102655,0.682835,0.807291,0.042725,-0.588605
0.075378,0.129925,0.759143,0.073843,-0.624199,0.777768
-0.308216,0.878765,0.154037,0.901984,-0.391619,-0.181821
-0.844608,-0.121070,0.477825,0.159957,-0.528837,0.833514
0.221993,-0.218472,0.850038,-0.240822,-0.964762,-0.106014
0.336425,-0.818430,0.740426,0.438274,0.887311,0.143509
-0.728794,-0.583119,0.290615,0.054627,0.435543,0.898509
-0.794927,0.130820,0.395923,0.937711,0.302631,0.170626
-0.278133,-0.132986,0.484622,0.161878,-0.981913,-0.098190
-0.524881,-0.104255,0.360510,0.620222,-0.778614,-0.095319
-0.548728,-0.517697,0.396555,-0.060726,0.184401,0.980973
0.361376,-0.139816,0.466500,0.153671,0.953088,0.260785
-0.170821,-0.458116,0.138085,0.415517,-0.785794,-0.458119
0.248103,0.431458,0.710570,0.886189,-0.405721,0.223739
-0.194887,0.409133,0.139598,0.385244,0.428765,-0.817158
-0.504456,0.383369,0.460435,0.096295,-0.875705,0.473146
-0.063730,-0.798225,0.612617,-0.711493,-0.133872,-0.689823
0.269465,-0.149706,0.709193,0.879546,0.370801,-0.298169
0.578869,0.149895,0.821137,0.890101,0.453719,0.043132
-0.252353,-0.533665,0.517021,0.878816,-0.204291,-0.431216
-0.193011,0.111697,0.244932,0.740619,0.294078,0.604154
0.396925,-0.175800,0.752631,0.907948,-0.013678,0.418859
0.170048,-0.255069,0.698352,0.714045,-0.104478,-0.692260
0.393336,0.044910,0.894022,-0.739935,-0.639803,-0.207720
-0.715712,-0.182535,0.504456,0.885729,0.449981,0.114021
-0.562584,-0.568141,0.447175,-0.496408,0.768014,0.404640
0.541995,-0.147210,0.664155,0.199353,0.332348,0.921847
-0.437498,0.265525,0.546567,0.178667,0.658965,0.730646
-0.114073,0.398912,0.600424,0.726721,0.423738,0.540668
-0.628329,-0.009067,0.309630,-0.370824,0.727859,-0.576811
0.039883,-0.148153,0.908820,0.731860,0.363659,0.576310
-0.292319,-0.698372,0.292426,0.892889,-0.089150,-0.441364
-0.426899,0.316817,0.538083,0.396542,-0.769199,0.501086
-0.783004,-0.004121,0.390056,0.416112,-0.291556,0.861305
-0.383345,-0.007418,0.605646,-0.540223,0.822289,-0.178888
-0.013221,0.328027,0.329290,0.863096,0.493071,0.109294
0.026524,-0.353366,0.846255,-0.600918,0.769161,0.217462
0.500151,-0.089937,0.653264,0.547547,-0.094787,-0.831389
0.605035,-0.430798,0.795065,-0.189297,0.473306,-0.860318
-0.054622,0.052116,0.268896,-0.134840,0.384262,0.913324
-0.409953,0.094082,0.591394,0.791081,-0.491073,-0.364744
0.333831,-0.029885,0.639236,0.007054,0.043816,0.999015
0.674754,0.080941,0.824697,-0.184524,0.882641,-0.432314
0.227291,0.259874,0.625368,0.071497,-0.951793,0.298292
-0.444675,0.228128,0.556068,-0.396195,0.744271,0.537671
-0.212387,-0.269387,0.093655,-0.150095,0.815664,0.558716
-0.239380,-0.742222,0.332453,0.894795,-0.350652,-0.276379
0.036516,-0.579540,0.754864,0.029902,0.848187,0.528852
-0.158786,0.343146,0.334785,0.429684,0.872516,0.232566
-0.297563,0.149989,0.471884,-0.040047,0.998795,-0.028377
0.073831,-0.623672,0.807902,-0.707692,-0.445986,-0.547968
-0.726476,-0.310647,0.450524,0.614472,0.771854,-0.163293
-0.141233,-0.356852,0.471350,-0.132577,-0.282167,-0.950160
0.402004,-0.391517,0.615507,0.797649,0.577899,0.172597
-0.004499,-0.764453,0.671659,-0.294002,0.212832,0.931807
0.616515,0.354686,0.648340,-0.284260,-0.293392,0.912753
-0.583285,-0.745802,0.496021,0.112800,-0.986430,0.119300
-0.136153,-0.390104,0.817429,0.966966,0.108846,-0.230498
-0.044189,0.218143,0.600573,0.238260,0.340750,0.909462
-0.136430,-0.668605,0.345551,-0.146733,0.033066,0.988623
0.016588,0.461649,0.549246,0.575907,0.408836,0.707944
-0.310646,-0.369522,0.462643,-0.476481,0.424841,0.769725
-0.486903,-0.560229,0.414442,0.020266,0.985907,0.166063
-0.310811,0.511575,0.090281,0.552261,0.580147,-0.598696
0.104523,-0.730353,0.692039,-0.220096,-0.247323,0.943604
-0.407910,0.034501,0.709416,0.338063,0.195996,0.920488
-0.059478,-0.141559,0.824102,-0.582438,-0.602617,0.545544
-0.629818,-0.024468,0.611377,0.061601,-0.965167,0.254279
-0.459193,0.185644,0.656154,0.394839,0.370321,0.840812
0.316939,-0.141935,0.571325,-0.537854,-0.841764,0.046318
0.626562,-0.148199,-0.965927,0.457464,0.122628,-0.880732
-0.815737,0.129219,0.378744,-0.649482,0.699270,0.298656
0.433193,0.063373,0.684534,0.954842,0.181046,-0.235582
-0.530843,-0.676989,0.509207,-0.588505,-0.518864,0.620034
-0.258424,-0.255728,0.483010,0.650793,-0.628979,0.425268
0.220170,-0.799590,0.737995,0.215618,-0.748747,-0.626806
0.487290,-0.375692,0.913384,0.140433,0.129058,0.981643
-0.215367,0.069260,0.497423,-0.759592,-0.629219,0.164635
0.363253,-0.435320,0.807468,-0.340148,0.032991,0.939793
-0.279512,-0.410687,0.408612,0.617205,0.654135,-0.437224
-0.564681,-0.587547,0.466376,0.882092,-0.432260,-0.187256
0.686898,-0.470033,0.700163,0.987439,0.157334,-0.014482
-0.074108,-0.577373,0.457582,0.550875,0.683214,-0.479327
0.199911,-0.320820,0.873841,0.315346,-0.552012,-0.771906
-0.535977,-0.087535,0.599047,0.434716,0.765944,-0.473657
0.490436,-0.417516,0.858262,0.676380,-0.688647,0.261296
0.103199,-0.904716,0.601962,0.842053,0.451207,0.295567
-0.511247,0.343005,0.411738,0.337351,0.789240,-0.513122
0.253788,-0.817676,0.760880,0.724243,-0.523261,0.449077
-0.509868,-0.576572,0.572764,0.802146,0.592206,0.076512
-0.002732,-0.440924,0.819103,-0.874274,0.451934,-0.177203
0.343767,-0.168453,0.867428,0.444332,0.888554,-0.114199
0.423146,-0.100299,-0.668000,0.637302,0.770144,0.026911
0.277856,-0.844570,0.806178,-0.437496,0.888586,0.137882
0.142557,-0.696347,0.767801,0.352657,0.926410,-0.131898
0.098231,-0.685703,0.778791,-0.087219,0.826633,0.555941
0.327317,-0.602477,0.832313,0.858154,-0.464824,0.217969
-0.196378,-0.613828,0.614031,0.192842,-0.269161,0.943591
0.746847,-0.029037,0.871100,0.974556,-0.216934,0.056398
-0.189975,0.079670,0.769724,0.770389,0.586983,0.248901
-0.683475,-0.152391,0.480368,0.906637,-0.378900,0.185594
0.748115,-0.548595,0.857406,-0.157022,0.956840,0.244544
-0.226905,-0.124932,0.613324,-0.706844,0.682118,0.187314
-0.782119,-0.214516,0.489100,-0.718908,-0.281571,0.635522
-0.462173,0.350023,0.430542,0.731010,0.673197,-0.111486
0.155419,0.296894,0.749270,-0.195546,-0.958643,0.206796
-0.479450,-0.634835,0.276735,0.159620,-0.246637,0.955872
-0.327151,-0.579351,0.271835,0.090239,-0.537784,0.838240
-0.217741,-0.135200,0.563957,-0.469164,-0.827103,0.309493
-0.626838,-0.662200,0.274738,-0.337025,0.037485,-0.940749
0.142777,-0.667381,0.806836,-0.637986,0.339729,-0.691056
0.371698,-0.543979,0.832958,0.881978,-0.465836,0.071500
0.325605,-0.605491,0.844568,-0.098151,0.955187,0.279257
-0.470397,0.083578,0.689459,0.910267,0.393691,0.128149
0.336093,-0.055318,0.883094,-0.021859,0.660960,0.750102
-0.559328,0.382286,0.438704,0.839330,0.538549,0.074094
0.228341,-0.085416,0.884843,0.927411,-0.371489,-0.043655
0.348403,0.131856,0.410547,0.857336,0.368283,-0.359643
0.031934,-0.406589,0.691902,0.865477,-0.455286,0.208959
0.360714,-0.433766,0.862368,-0.466543,0.646964,-0.603138
-0.822417,0.280456,0.307633,0.715979,-0.109639,0.689458
0.011344,-0.393448,0.816325,0.907221,-0.419376,-0.032758
-0.214650,-0.576336,0.570134,-0.114785,0.954686,0.274590
-0.151721,-0.367590,0.119728,-0.478264,0.553460,0.681870
-0.140791,-0.103831,0.753499,0.889797,0.068347,0.451209
-0.011951,-0.878859,0.577055,0.809549,0.559007,-0.179280
-0.423863,-0.917622,0.378768,-0.287446,0.837533,0.464665
-0.064337,-0.514024,0.499482,-0.299285,-0.908047,-0.293052
0.009026,-0.570921,0.860122,0.518026,0.703883,0.486002
-0.726643,-0.287333,0.443194,0.894809,0.326069,-0.304952
0.153045,-0.201328,0.611588,-0.550554,-0.399762,0.732858
0.019569,-0.597202,0.446084,-0.230776,-0.863487,0.448478
0.083934,-0.142500,0.863223,0.150041,0.269553,0.951225
0.193178,0.028331,0.795437,0.057621,0.624265,0.779084
0.530071,0.325201,0.742237,-0.197116,-0.975359,0.099096
-0.831414,-0.678402,0.312805,0.040278,0.352192,0.935061
-0.169054,-0.480441,0.522367,-0.187811,-0.971606,-0.143903
0.496729,-0.112404,0.911908,0.928122,-0.336451,-0.159343
0.331732,0.229353,0.782648,-0.250909,0.902255,-0.350686
-0.105297,0.302923,0.607184,-0.215922,-0.538917,-0.814215
-0.219067,-0.776888,0.580479,0.225172,0.954140,0.197265
0.630924,-0.446859,0.800038,0.030857,0.687488,0.725540
-0.614088,-0.059322,0.272369,0.873773,0.457238,0.165692
-0.098949,0.232556,0.786717,0.731969,-0.496029,0.467093
-0.377329,-0.514542,0.460026,-0.785278,0.474543,0.397678
-0.659848,0.133834,0.351244,-0.388559,-0.736202,-0.554102
-0.459026,-0.680333,0.514230,0.749449,-0.623917,0.221481
-0.280616,-0.521513,0.326548,0.926539,-0.032639,-0.374780
-0.566393,0.203919,0.287923,0.632728,0.538347,0.556630
0.380697,-0.243623,0.956785,0.586931,-0.777023,0.227482
0.483756,-0.264206,0.868235,0.530989,0.089388,-0.842651
0.234467,-0.760309,0.737610,0.814609,0.252979,-0.521932
-0.200187,0.363257,0.300091,-0.707251,-0.495347,0.504407
-0.666804,0.128182,0.349694,0.385590,0.690882,0.611558
-0.886947,0.002473,0.379463,-0.596972,-0.251349,0.761872
0.295466,0.295669,0.667033,-0.659617,0.370632,-0.653863
-0.098010,-0.019099,0.658052,-0.466238,0.845033,-0.261806
-0.206535,-0.038457,0.475754,-0.413108,0.459675,-0.786155
-0.534928,-0.513365,0.269975,0.559506,0.292229,0.775600
0.074881,-0.259591,0.911896,0.326778,0.840288,0.432588
0.309045,-0.800626,0.780763,-0.782840,0.595455,-0.180539
0.302531,-0.739067,0.774152,0.952113,0.217658,0.214721
-0.626341,-0.400514,0.328335,-0.817103,0.485044,0.311569
0.052469,-0.069873,0.899939,0.900886,-0.305572,0.308268
0.577543,0.431929,0.642870,0.302266,0.662007,-0.685844
-0.412989,0.690695,0.113947,0.066367,0.421362,0.904461
-0.388589,0.170337,0.206864,0.200293,0.581853,-0.788245
0.175016,-0.714292,0.704815,0.701224,0.670282,-0.242913
0.177113,0.161764,0.795523,-0.059909,0.961060,-0.269769
-0.057878,-0.156206,0.514032,-0.089846,-0.947218,0.307744
0.351770,-0.191673,0.934768,0.857788,-0.327200,0.396408
0.305678,0.106045,0.753338,0.195002,0.092361,0.976444
-0.039993,-0.120222,0.851291,0.839279,0.291189,-0.459151
-0.574563,-0.285966,0.530194,0.929496,-0.329308,0.166115
-0.728574,0.132751,0.370644,0.784652,0.584610,0.206283
0.071237,-0.168971,0.867503,-0.135399,0.963435,0.231214
0.487290,-0.112780,0.825541,-0.498442,0.152910,0.853331
-0.410283,-0.537715,0.448106,0.361714,-0.927630,0.093092
0.415528,-0.865059,0.753425,0.764892,0.303681,-0.568083
-0.402059,0.287286,0.531298,0.396664,0.867212,0.300999
-0.328090,-0.527117,0.423186,0.198995,-0.954383,-0.222609
-0.480500,0.168971,0.360188,0.375176,-0.800379,0.467587
-0.272722,-0.128041,0.456590,0.506399,-0.816253,0.278014
-0.396648,0.318795,0.373546,0.891557,0.437180,0.118322
0.493030,-0.652545,0.768508,0.803705,-0.589122,0.083625
-0.289504,0.112593,0.454940,0.245588,0.932221,-0.265801
-0.588584,0.008737,0.274539,0.966403,-0.105857,0.234223
-0.710579,-0.618020,0.300290,0.267662,0.264419,0.926520
0.635339,-0.095212,0.893985,-0.597207,0.694542,-0.401192
0.131903,-0.021595,0.845635,-0.757164,0.119703,-0.642163
0.206922,0.152863,0.652272,0.748293,0.660883,0.057366
-0.084652,-0.255069,0.581335,0.532936,0.541079,-0.650548
0.560155,0.243153,0.499668,-0.152510,-0.197400,0.968387
-0.402666,-0.352566,0.395352,-0.447752,-0.547494,0.706943
-0.615909,-0.039869,0.403216,-0.605997,-0.785063,-0.128234
0.068643,0.127288,0.600846,0.499543,0.857430,-0.123578
0.581187,-0.023008,0.848574,0.557017,-0.574218,0.600005
0.527477,-0.029979,0.651379,-0.775280,0.598902,0.200643
0.606524,0.153899,0.793167,0.873391,0.447696,0.191718
-0.920122,-0.653628,0.310362,0.438684,-0.092906,0.893826
0.530789,0.427078,0.640836,0.226500,0.943251,-0.242848
-0.197593,0.806420,0.144758,0.887483,0.391655,-0.242859
0.777483,-0.116030,0.728580,-0.464908,0.884690,-0.034413
0.297398,-0.566399,0.871732,0.679829,-0.733086,0.020436
-0.616350,-0.312295,0.332899,0.902200,-0.002258,-0.431313
0.029727,-0.409603,0.816870,0.934224,-0.346948,0.082786
0.366012,-0.086875,0.760024,0.385306,0.304024,0.871268
-0.271010,-0.641052,0.649642,-0.280537,-0.828834,-0.484079
0.352599,-0.472765,0.586706,0.762452,0.522435,-0.381743
-0.069526,-0.193839,0.248938,-0.172070,-0.161575,-0.971743
-0.266650,0.472435,0.106431,0.842876,0.036731,-0.536852
0.047833,-0.152956,0.893861,0.746385,-0.643564,0.169510
-0.065331,-0.455855,0.754256,-0.730083,0.683048,-0.020620
-0.555684,-0.625697,0.279749,0.092042,-0.297808,0.950178
-0.406033,0.477805,0.252597,0.500540,-0.122317,-0.857029
0.018024,-0.519676,0.676931,0.996266,0.066304,-0.055291
0.492479,-0.205143,0.892906,0.579587,-0.481478,0.657463
0.731059,-0.100205,0.678729,-0.230929,0.184809,0.955258
-0.149236,-0.669453,0.675641,0.028682,0.675683,0.736634
0.053960,-0.280739,0.729324,0.433505,0.777177,-0.456146
0.183904,0.231661,0.835836,-0.384970,0.585787,0.713198
0.069140,-0.016838,0.865977,0.917208,-0.343696,0.201501
0.456211,-0.048866,0.523421,0.395079,-0.084934,-0.914712
0.274986,0.179992,0.828865,0.487134,0.860250,-0.150563
-0.530071,0.187481,0.224986,-0.709294,0.431254,-0.557603
-0.422096,-0.287003,0.670258,0.944306,-0.250036,-0.213933
0.441307,-0.379412,0.836778,-0.275273,0.685506,0.674023
0.478734,-0.256671,0.910370,0.472275,0.255993,-0.843459
-0.557395,0.304289,0.454903,0.151706,-0.750718,0.642968
-0.509094,0.203071,0.543962,0.983786,-0.135676,-0.117288
-0.769921,0.277771,0.292847,-0.513318,-0.066976,-0.855581
-0.118932,-0.312672,0.845498,0.787573,-0.043551,-0.614681
0.391901,-0.592633,0.861388,0.417628,0.073510,-0.905640
0.527201,0.237265,0.820319,0.425942,0.815387,0.392070
-0.058763,-0.673692,0.341706,-0.168665,0.571404,-0.803150
0.053075,-0.185220,0.596021,-0.719964,0.608210,0.334265
-0.613424,-0.054706,0.590985,0.986780,-0.149302,0.063046
-0.504898,0.214940,0.559901,-0.692161,0.612444,-0.381872
-0.604482,-0.190872,0.319838,-0.665096,-0.136294,-0.734215
-0.359885,-0.613970,0.473856,-0.284929,0.923417,0.257130
-0.394551,0.284837,0.588182,0.885989,-0.179732,0.427457
0.546466,-0.199774,-0.473186,0.283101,-0.903769,0.321023
0.017085,-0.623296,0.771473,-0.428149,-0.470729,-0.771429
-0.344926,-0.010904,0.762579,0.825389,0.558577,-0.082006
0.290718,-0.206933,0.954590,0.970673,0.093115,-0.221638
-0.077310,0.066764,0.691766,0.514374,0.845685,-0.142257
0.366123,-0.817441,0.716474,-0.239815,-0.785314,0.570762
-0.255941,0.313285,0.658784,0.928082,-0.160761,-0.335887
0.790290,-0.069072,-0.961784,-0.039383,-0.216620,0.975461
-0.315834,0.265996,0.246259,0.397454,0.705576,-0.586679
-0.254118,-0.350681,0.503985,0.896412,0.346049,-0.276938
0.639701,0.053246,0.641382,-0.660037,0.741323,-0.121621
-0.487841,-0.579304,0.564801,0.788359,0.594686,0.157605
0.818387,-0.144290,0.815940,-0.639448,0.069925,0.765648
0.454831,-0.141794,0.306851,-0.614235,0.779598,0.122237
-0.297893,-0.100063,0.479363,0.488646,-0.865854,0.107343
0.023377,-0.599651,0.635577,-0.742245,0.539499,-0.397510
-0.117385,0.189742,0.791976,-0.449810,0.401377,-0.797852
-0.212940,-0.757859,0.562791,-0.506641,-0.832772,-0.223173
0.055339,0.079481,0.745995,-0.610166,0.759965,-0.223944
0.802710,-0.029225,0.688367,-0.382922,-0.138723,0.913305
-0.421931,0.301839,0.583505,0.824117,-0.425157,0.374263
-0.531065,-0.559570,0.456143,0.609331,-0.775519,0.165183
0.394221,-0.777971,0.770282,-0.253371,-0.964077,-0.079737
-0.460241,-0.059557,0.652433,0.907064,0.054771,-0.417416
0.500814,-0.138827,-0.205673,0.150475,0.987628,-0.044137
-0.441307,0.043544,0.650337,0.983437,0.028505,0.178995
-0.556346,-0.636059,0.277665,0.103113,-0.352504,0.930112
-0.606414,-0.344983,0.329922,0.943354,-0.087308,-0.320095
0.763627,-0.083909,0.847458,-0.458511,0.415373,-0.785642
-0.164804,-0.635871,0.636271,0.286724,0.804142,0.520716
-0.088791,-0.149660,0.814303,0.995944,0.088765,-0.014691
0.124838,-0.040482,0.704715,0.697841,0.527131,0.484924
0.058540,-0.049761,0.032963,-0.518087,0.525575,0.674801
0.609229,-0.186774,-0.209085,0.394828,0.914226,0.091117
-0.725262,-0.105668,0.486805,-0.621086,0.781984,-0.052466
0.732438,-0.157054,0.812132,-0.055462,0.839730,0.540165
-0.240541,0.183949,0.604679,0.820390,-0.252797,0.512888
0.602770,-0.178485,-0.975205,0.676950,0.367888,-0.637493
0.239215,-0.364765,0.876483,-0.032195,-0.781014,0.623684
0.794484,-0.012599,0.690612,-0.466869,0.019853,0.884103
0.620324,-0.143960,-0.457743,-0.533651,0.833949,-0.140522
-0.199249,0.343806,0.642882,-0.682063,-0.145323,-0.716708
-0.538627,0.433154,0.430765,0.613595,0.769342,-0.177804
-0.051751,-0.371923,0.278893,-0.766252,0.342370,0.543729
-0.733543,0.177072,0.351703,0.417179,0.672432,0.611389
-0.880488,-0.722488,0.305623,-0.612104,-0.774568,0.159289
-0.049433,0.199068,0.403551,-0.330206,-0.498331,-0.801642
-0.032595,-0.503238,0.547311,-0.548646,-0.056753,0.834126
-0.204052,0.226951,0.642473,0.393135,0.542722,-0.742225
0.082885,-0.790923,0.631124,0.888171,0.288277,0.357840
0.263945,-0.527306,0.678407,-0.621289,-0.366391,0.692645
0.091055,-0.690742,0.661835,0.849786,-0.273784,-0.450451
-0.418343,0.019428,0.366327,0.854029,-0.331132,-0.401230
-0.273715,-0.008784,0.433395,-0.642502,-0.247601,0.725179
0.045237,-0.131432,0.824139,0.397263,-0.843539,0.361418
-0.268195,-0.045851,0.709342,0.494892,0.165937,0.852963
0.338632,-0.092434,0.224230,-0.418693,-0.440638,-0.794062
0.173746,-0.004121,0.848699,-0.172840,-0.726934,0.664600
0.165631,0.136472,0.789458,0.964831,0.242153,-0.102288
-0.808451,0.080140,0.391507,0.541558,-0.301255,0.784831
0.175348,-0.201469,0.867949,0.909475,0.415758,0.001014
-0.563687,-0.284648,0.515384,0.757472,-0.605678,-0.243701
-0.362203,-0.521748,0.408761,-0.535794,0.768432,0.349909
-0.720238,-0.676094,0.289722,0.543388,-0.400260,0.737917
-0.308934,-0.149377,0.459951,0.428449,-0.891672,0.146125
-0.436449,0.388644,0.251022,0.692938,-0.116952,-0.711448
0.446661,0.122201,0.517691,-0.662470,0.081320,0.744662
-0.501089,0.626357,0.128299,-0.193776,-0.299017,-0.934366
-0.358173,0.352236,0.091832,0.992128,-0.097610,0.078445
0.605806,-0.137037,-0.372753,-0.586596,0.809559,0.022777
-0.155860,0.209712,0.626956,-0.696156,0.568484,0.438398
-0.007921,-0.711984,0.624252,-0.453777,0.783871,-0.423831
-0.500924,-0.811647,0.236150,0.062913,-0.508717,0.858632
0.378047,0.087252,0.514094,0.025247,0.551740,0.833634
0.233088,0.324777,0.760904,0.244524,0.674776,-0.696337
-0.510365,0.263170,0.564714,0.924458,-0.060758,0.376411
0.056775,-0.900902,0.606328,-0.627976,-0.023095,-0.777890
-0.349341,-0.636201,0.271153,0.472288,0.396533,-0.787214
-0.715050,0.082684,0.389076,-0.538879,-0.342050,-0.769812
-0.071845,0.150696,0.708151,0.805653,0.564660,-0.179118
-0.030719,0.209100,0.061852,-0.216241,-0.532896,0.818084
-0.244349,-0.297600,0.483655,0.825471,-0.513347,0.234674
-0.353150,0.141088,0.523645,-0.116691,-0.990683,-0.070217
0.296569,-0.354120,-0.389845,-0.696755,0.714815,0.059764
-0.363638,0.702188,0.119107,0.013545,0.434949,0.900353
-0.581517,-0.074253,0.575877,-0.846813,0.128299,-0.516186
-0.169716,0.192050,0.644718,-0.458716,0.469452,-0.754450
-0.139577,0.501495,0.140454,0.928738,0.283952,-0.238361
0.180425,-0.038504,0.840276,-0.060089,-0.385014,0.920952
0.377218,-0.163083,0.789843,-0.253038,0.949814,0.183917
-0.827882,0.165533,0.406466,-0.207837,-0.786061,0.582161
-0.797522,-0.125733,0.490452,0.310111,0.888458,-0.338340
-0.026524,-0.493347,0.303750,-0.212121,0.535708,0.817326
-0.509315,-0.708310,0.211131,0.976288,0.189029,0.105500
0.492644,0.042649,0.555299,0.972289,0.033354,-0.231391
-0.271453,-0.761628,0.599010,0.468979,0.834266,0.289927
-0.363032,-0.005863,0.757258,0.825389,0.558577,-0.082006
0.751759,-0.124885,-0.965418,-0.008802,-0.084907,0.996350
-0.031051,-0.093187,0.901390,0.594730,0.763354,0.252165
0.656592,-0.447519,0.760954,-0.857279,0.450045,0.250064
-0.063122,0.338483,0.582922,0.922697,0.362435,0.131424
-0.873974,0.136943,0.395303,-0.148626,0.987740,-0.047745
0.060031,-0.114287,0.829547,-0.074314,0.997169,-0.011473
0.412437,-0.215552,0.871993,0.954182,-0.280866,0.103206
-0.580358,-0.565975,0.281126,-0.282983,0.343722,-0.895419
0.363750,0.198926,0.647658,0.756591,-0.517654,0.399505
0.505174,-0.187810,-0.435801,0.419927,-0.902093,-0.099445
-0.252794,0.337023,0.661476,0.953823,0.297853,0.038799
-0.317766,-0.724796,0.570233,-0.502385,0.731445,0.461082
0.916866,-0.223229,-0.980340,0.128494,-0.387668,0.912799
-0.418784,0.053152,0.638715,0.890827,-0.395779,-0.223128
0.525600,-0.149990,0.201394,-0.449086,0.885691,-0.117781
0.081340,-0.119892,0.882114,-0.182496,0.977195,0.108557
0.316939,-0.247816,0.984284,0.784205,0.617024,-0.065610
-0.101156,-0.526176,0.750783,0.900341,-0.433603,0.037066
-0.536860,-0.377293,0.310684,0.009884,0.900278,0.435202
-0.031216,-0.576666,-0.056679,-0.579166,0.656433,-0.483385
0.594435,0.023856,0.888552,-0.367571,-0.775168,0.513815
0.502636,-0.143725,-0.231374,-0.068176,-0.997390,-0.023779
0.418510,-0.738172,0.742783,0.906781,-0.296777,-0.299452
-0.541552,-0.018581,0.594805,0.699966,-0.306958,0.644845
-0.213711,0.953701,0.185220,-0.258718,0.738044,-0.623182
-0.222323,-0.359348,0.509926,0.898281,0.298535,-0.322440
-0.055670,-0.068271,0.740959,0.833709,0.453292,-0.315366
0.330684,0.028378,0.896416,-0.072788,-0.994949,-0.069123
0.043416,-0.182865,0.525741,-0.154721,0.924321,0.348844
-0.422207,-0.639639,0.520668,-0.704209,0.689114,0.170914
-0.258977,-0.268634,0.475654,-0.555388,0.726758,-0.404187
0.267809,0.320161,-0.152598,-0.516616,0.301850,0.801245
0.629433,-0.181593,-0.763683,-0.743525,-0.664858,0.071655
0.272722,0.025788,0.621523,0.582019,0.813136,-0.007971
-0.463387,-0.614865,0.475196,0.936462,0.003504,-0.350752
0.115067,-0.182912,0.241124,-0.188408,0.929188,-0.317983
0.444564,-0.201375,-0.164617,0.722417,-0.691145,-0.020801
-0.393557,0.243765,0.565259,-0.343804,0.913627,0.216988
-0.382130,-0.022537,0.760322,0.467589,0.825336,-0.316515
0.057327,-0.430563,0.768582,0.987710,0.112106,0.108907
-0.299495,-0.152015,0.509790,0.362500,-0.744451,-0.560701
0.331125,-0.594423,0.850274,0.267862,0.956872,-0.112451
0.792828,-0.462779,0.827488,0.842843,0.197739,0.500515
-0.473268,-0.716977,0.531223,0.917656,-0.066324,-0.391802
-0.203002,0.838919,0.173064,-0.101224,-0.222873,0.969578
-0.602770,0.437817,0.269156,0.052862,-0.130025,0.990101
-0.232370,-0.527306,0.532935,-0.579482,-0.394351,-0.713223
-0.227402,0.654759,0.108068,0.772997,-0.542218,-0.329355
-0.532003,-0.828698,0.198665,0.996565,0.067148,0.048476
-0.558169,-0.542001,0.425233,0.581529,0.091816,0.808328
0.268416,-0.340084,0.900311,-0.667742,0.626380,-0.402205
0.720185,-0.054565,0.814625,0.604690,0.195152,0.772182
-0.064448,-0.243623,0.579933,-0.296467,-0.456607,0.838819
0.103585,-0.516143,0.508711,0.660451,0.710246,0.243629
0.649360,-0.521418,0.819500,-0.292013,0.794081,0.533071
-0.804422,-0.195865,0.374477,0.486404,-0.291439,0.823695
0.836382,-0.034594,0.689322,-0.684101,0.283025,-0.672237
-0.823520,0.236324,0.302026,0.478869,-0.353504,0.803566
0.078193,-0.858983,0.714353,-0.335838,0.932792,-0.130815
0.635836,-0.185267,-0.508648,-0.098893,0.995064,0.008294
-0.359499,-0.006147,0.407434,0.975784,0.157572,0.151714
0.323673,0.302357,0.679474,-0.692253,0.315743,-0.648917
-0.766884,-0.100723,0.528284,0.885147,0.464816,-0.021463
-0.779139,-0.680616,0.300525,0.614472,-0.540194,0.574991
0.365350,-0.339754,0.761748,-0.702255,-0.252302,-0.665719
0.405536,-0.135059,0.936133,0.702593,-0.098041,0.704805
0.436560,-0.190212,0.903337,-0.034913,0.114155,0.992849
-0.317160,-0.510350,0.167941,-0.634121,0.758862,-0.148387
0.506665,-0.177119,0.916845,-0.743227,0.614038,-0.265653
-0.602329,0.465982,0.254086,0.307831,0.731425,0.608488
-0.265932,0.691543,0.099596,-0.171348,0.638783,0.750064
-0.604206,-0.723147,0.505535,-0.836895,0.137963,0.529692
-0.778477,-0.087063,0.515570,0.905437,0.408446,0.115568
-0.448152,0.280880,0.200327,0.709782,0.428504,-0.559100
-0.756230,0.046088,0.369949,0.697195,-0.620294,0.359381
-0.004168,0.363022,0.401356,-0.078717,0.996865,-0.008010
-0.535148,-0.111980,0.314777,-0.199821,-0.077543,0.976759
-0.287848,-0.415114,0.494967,0.974935,0.212961,-0.064412
-0.712952,0.127806,0.354593,0.460574,0.735775,0.496494
-0.173415,0.089513,0.768545,0.899225,0.413160,0.143854
0.440202,-0.366602,0.908497,0.945138,-0.249164,-0.211261
-0.216140,-0.209853,0.428396,0.980887,0.131369,0.143535
0.594491,-0.288227,0.877277,-0.684582,0.726304,-0.061893
0.484641,-0.044250,0.812951,-0.432657,0.643980,0.630950
-0.530843,-0.662106,0.514081,-0.021149,-0.192004,0.981166
0.288842,-0.010385,-0.072568,-0.615859,-0.406525,-0.674875
0.345532,-0.215741,0.919834,0.779689,-0.495276,-0.383129
-0.743921,0.287192,0.303725,0.973897,0.081941,0.211685
0.757059,-0.541954,0.819053,-0.718701,-0.271572,-0.640092
-0.373188,0.084757,0.283160,0.611774,0.637432,0.468416
-0.370650,-0.571250,0.532625,-0.474301,0.288294,-0.831820
-0.284977,0.481855,0.100911,0.857911,0.078876,-0.507708
-0.099446,0.328921,0.607135,0.572903,0.422636,0.702254
-0.263559,0.348468,0.679064,0.888073,-0.447754,0.104129
-0.471832,0.191626,0.662902,0.318798,0.452614,0.832771
-0.307664,-0.282198,0.439361,0.955473,0.194567,0.221844
0.381083,-0.532816,0.864948,-0.144881,-0.966306,0.212750
