0.460662,-0.323962,0.515336,-0.441740,-0.498884,0.745641
0.235241,-0.011532,0.920265,-0.512207,0.530875,-0.675142
-0.371763,0.134647,0.162811,-0.284019,0.717992,-0.635469
0.165475,-0.546689,0.678027,0.813953,-0.459649,0.355252
-0.005278,0.976999,0.473063,0.458125,0.591416,-0.663588
-0.073910,0.721170,0.537134,-0.555146,0.151883,0.817768
0.172741,0.171488,0.920920,0.695785,0.359071,0.622054
-0.449306,0.343099,0.242974,-0.686147,0.482817,0.544142
0.571810,-0.342538,0.500849,-0.573956,-0.234009,-0.784738
0.496538,0.045255,0.737821,0.174846,0.276514,0.944970
-0.622503,0.017517,0.157037,-0.689688,-0.044240,0.722754
-0.305006,0.595063,0.652634,0.483072,-0.614605,0.623621
0.451068,-0.327953,0.787860,0.980292,-0.160324,-0.115433
-0.194085,-0.142565,0.704703,-0.566966,-0.815149,-0.118667
0.340373,-0.049682,0.871524,0.006225,-0.290508,0.956852
0.362398,0.648922,0.575906,0.901253,0.055785,-0.429687
0.309152,-0.045506,0.598800,0.824448,0.510869,-0.243513
0.000738,0.817168,0.473651,0.722719,-0.428246,-0.542479
0.815169,-0.296722,0.355105,-0.362720,-0.931759,-0.016133
-0.391746,0.325583,0.443487,0.249420,-0.963282,-0.099389
0.412239,-0.371401,0.815993,0.484649,0.870131,0.089373
-0.377781,0.509101,0.651230,0.778401,-0.498241,0.381899
0.333107,-0.477061,0.606805,0.498393,-0.441063,0.746370
-0.546889,0.305760,-0.299894,0.129272,0.970902,0.201590
0.072095,-0.244234,0.744664,0.684411,0.543887,0.485560
0.056256,-0.489653,0.533539,0.818263,0.510435,-0.264390
-0.137035,0.687757,0.546249,-0.387924,-0.220062,0.895035
-0.235013,-0.190376,0.738570,-0.914491,0.133313,0.382012
0.265213,-0.062648,-0.123705,-0.232929,0.966884,-0.104302
0.275886,-0.053920,0.096561,0.835909,-0.523301,0.165567
-0.046151,-0.363732,0.558759,0.376759,0.460684,0.803631
0.099057,0.121929,0.863999,0.372981,-0.874539,0.309947
-0.078565,-0.192682,0.774775,0.013190,0.997159,0.074157
-0.435229,0.060653,0.515978,0.549214,0.752232,0.364021
0.276453,0.043075,-0.917165,0.039735,-0.997175,0.063737
0.234788,0.065141,0.561459,-0.588202,0.777326,-0.223121
0.129088,-0.428812,0.404034,-0.411940,0.894017,0.176180
-0.100591,-0.394777,0.614303,0.613093,0.347042,-0.709704
0.012773,-0.676849,0.607968,0.308725,0.682255,0.662734
0.304666,-0.318040,0.845582,0.974822,0.222801,-0.009041
-0.369891,-0.026243,0.457386,0.849039,-0.077301,0.522644
0.106268,-0.466277,0.578940,0.923332,-0.276010,0.266975
-0.366769,-0.396086,0.299975,0.335876,0.444668,0.830336
0.364896,0.876948,0.569624,0.465434,0.060766,-0.882994
-0.280200,0.560653,0.424762,-0.037858,0.773152,0.633090
0.303759,0.431492,0.744544,-0.370775,0.250340,-0.894347
-0.690793,0.545755,0.272082,0.596966,0.795832,-0.101408
0.102463,0.522752,0.725044,0.734763,0.552488,-0.393548
-0.018221,-0.333314,0.775096,0.385121,-0.919655,-0.076918
0.516008,0.517079,0.688572,0.778149,-0.340065,0.528054
0.037409,0.135145,0.181762,-0.320073,-0.446642,-0.835502
0.240236,0.037526,0.622242,-0.205866,-0.977589,-0.044042
0.581915,-0.526930,0.593401,0.872012,0.026669,-0.488758
-0.162294,-0.008104,0.717253,0.907563,0.372055,0.194690
-0.074421,-0.164755,0.692742,-0.322165,0.946436,-0.021653
-0.383970,0.227777,0.410048,-0.491460,-0.840482,-0.228159
0.322434,0.134896,0.793246,0.635370,0.734422,0.238599
0.235354,-0.070315,0.975783,0.796862,0.481738,0.364610
-0.202543,0.452936,0.676142,0.619697,-0.746696,0.241703
0.139418,-0.109775,0.917993,-0.822452,0.381440,-0.421990
0.036444,0.436728,0.581372,0.773276,0.634053,-0.004511
0.095936,-0.764119,0.583083,0.730904,0.450264,-0.512877
-0.067268,0.978245,0.482673,0.634414,0.466098,-0.616662
-0.333050,0.005484,0.519185,0.326320,-0.788731,-0.520979
0.242280,-0.037651,0.730698,-0.049272,-0.989193,0.138094
0.359503,-0.087895,0.713029,0.163278,0.891389,-0.422807
0.088045,-0.539210,0.550967,0.987150,-0.147323,0.061897
-0.548138,-0.595251,0.322521,-0.781610,0.384938,0.490825
-0.136977,-0.449633,0.483849,0.486290,0.406708,-0.773377
0.548649,0.354320,0.645403,-0.061512,-0.990882,0.119871
-0.362738,0.036529,0.506382,0.341553,0.756354,0.557917
0.094629,0.366725,0.466327,-0.103389,-0.571365,0.814158
0.243245,0.209887,0.858600,-0.701139,-0.542228,0.463026
0.619777,-0.544009,0.601152,0.935949,0.106120,-0.335766
-0.128122,-0.332564,0.258356,-0.571198,0.110097,-0.813395
0.209583,-0.070378,0.901127,0.354432,-0.890857,0.284168
-0.294903,0.112454,0.160846,-0.151667,-0.747483,0.646736
0.168995,0.504737,0.721329,0.245568,0.951573,0.184948
0.454758,-0.324211,0.508721,0.265650,-0.018899,0.963884
0.038431,-0.243922,0.453190,-0.150307,0.932347,0.328841
-0.402872,0.318601,0.343424,-0.014176,-0.922362,0.386067
-0.484049,-0.473820,0.414271,-0.306701,-0.312764,-0.898951
-0.568574,0.065141,0.486669,0.910903,0.226042,-0.345197
-0.126192,0.515959,0.443406,0.415916,-0.817994,-0.397367
0.419052,-0.603043,0.581760,0.511051,0.846814,0.147418
-0.038885,0.841355,0.575866,0.850885,0.007961,0.525292
0.217587,-0.524624,0.668337,0.935141,0.048698,0.350912
0.112625,-0.427878,0.694345,0.941968,-0.253473,0.220110
0.360014,0.638201,0.562407,0.402414,0.915096,0.025733
-0.348887,0.299463,0.658220,-0.067160,-0.316674,0.946154
0.452998,0.173170,0.565414,-0.339741,0.564605,-0.752195
-0.284855,0.376138,0.664114,-0.509151,0.855844,0.091089
0.327373,-0.253335,-0.971239,0.146780,-0.108443,-0.983207
-0.384082,0.409362,0.243709,0.207367,0.680060,0.703220
0.065395,-0.669057,0.606338,0.076798,0.715229,0.694658
0.194255,-0.216806,0.812665,0.355535,0.929874,0.094493
-0.101271,0.086211,0.357069,0.888808,0.405994,-0.212580
-0.198740,-0.287246,0.620224,0.260990,0.965284,0.010557
0.087705,-0.479616,0.718108,0.775216,0.620554,0.118126
0.064600,-0.278083,0.664114,0.634097,0.714423,0.295840
-0.100022,-0.180339,0.382396,0.039784,0.850157,0.525025
0.388624,-0.366601,0.662978,0.253146,0.894345,0.368867
0.312670,-0.210572,0.758577,0.374582,0.894818,0.242877
0.181312,-0.029049,0.299988,-0.765153,-0.546136,0.340994
-0.228144,0.627852,0.658207,0.867120,0.478031,0.139961
0.295755,-0.246479,0.710851,-0.728893,0.553834,-0.402471
0.131018,0.031979,0.834623,-0.634764,-0.768098,-0.084264
0.235581,0.037214,0.986274,0.795915,0.570178,-0.203508
0.279065,-0.008977,0.134090,0.840010,-0.512897,-0.176976
0.330723,0.090761,0.944710,-0.239216,-0.875342,0.420182
-0.200216,0.550430,-0.098740,0.081082,-0.506520,0.858407
0.074536,-0.060592,0.885303,0.101898,0.523769,0.845744
-0.001249,0.106159,0.570266,-0.258307,-0.267146,0.928391
0.257778,0.015708,-0.058177,-0.361166,-0.755236,-0.546972
0.117904,-0.307381,0.602529,0.275518,-0.495209,-0.823929
-0.534513,0.145555,0.180867,-0.098010,-0.459328,0.882843
0.190510,-0.146866,0.788915,-0.456526,0.374955,-0.806841
0.678192,0.013090,-0.947048,-0.322022,-0.080984,0.943262
0.219063,-0.392096,0.653262,0.851270,-0.201171,0.484634
0.441304,0.617067,0.719004,-0.703692,0.669141,-0.238889
-0.167006,-0.131405,0.434653,-0.555734,-0.429195,0.712005
0.452714,0.593069,0.707309,0.899614,0.412400,0.143602
0.264532,0.043697,0.408711,0.059409,-0.987708,0.144579
-0.200386,-0.339236,0.600778,0.198317,0.952791,0.229913
0.084866,0.414972,0.738931,0.270451,-0.282985,0.920204
0.282244,0.245792,0.722332,0.063990,-0.578082,0.813465
-0.098888,-0.437726,0.612592,-0.020574,-0.333586,0.942495
0.545640,-0.553422,0.609158,-0.727957,-0.068512,0.682192
-0.004030,-0.115385,0.816581,0.994105,0.106006,0.022752
-0.088214,-0.826456,0.537241,-0.051291,-0.342194,0.938228
0.579077,-0.477311,0.507946,0.412094,-0.298311,0.860924
-0.123751,0.162448,0.679176,-0.401266,-0.761933,-0.508374
0.335149,-0.269918,0.604467,0.184585,0.410949,0.892776
0.498637,0.627602,0.693704,-0.633769,0.426814,-0.645109
-0.276056,0.704962,0.293453,0.074590,0.996254,0.043756
0.323683,-0.366538,0.813186,0.568768,0.686000,0.453770
-0.117336,0.354070,0.318766,0.464478,0.241893,0.851909
-0.122444,0.118376,0.694292,0.376704,0.433205,0.818797
0.374603,0.880874,0.568689,0.465434,0.060766,-0.882994
0.068178,0.494951,0.720380,-0.520847,-0.815855,-0.251195
0.049160,0.499376,0.782420,0.932723,-0.340266,0.119360
0.198570,-0.268795,0.841506,-0.052001,-0.989987,0.131232
-0.557164,0.240617,0.408190,-0.394002,-0.914750,0.089417
0.086626,0.277209,0.689815,-0.405288,0.887619,0.218803
-0.794391,0.249907,0.198255,0.074633,0.492160,0.867300
-0.386126,0.501122,0.238162,0.028493,-0.001579,0.999593
0.697547,0.222230,0.632974,-0.095428,-0.164663,-0.981723
0.018166,0.199040,0.438769,-0.600602,-0.449512,0.661223
-0.401567,-0.173109,0.242572,0.849146,0.482121,-0.215663
0.134536,0.496134,0.374698,0.906485,-0.340652,0.249481
-0.238703,0.255829,0.425270,-0.408490,0.255429,0.876294
-0.240520,0.337613,0.717320,0.970904,0.134309,0.198260
0.238193,-0.678595,0.457667,0.408253,0.365323,-0.836582
0.135786,-0.638324,0.459979,-0.204906,-0.098119,0.973851
0.126022,-0.285439,0.169360,0.796136,-0.476992,-0.372352
0.410707,0.640881,0.702498,0.775918,0.509404,-0.372101
0.424216,-0.007419,-0.964837,0.484505,0.220616,0.846512
-0.111773,-0.355505,-0.235436,-0.541282,-0.839375,-0.049623
-0.067779,-0.653223,0.491132,0.842986,0.437974,0.312337
-0.418654,0.539086,0.469401,-0.168680,0.838119,-0.518752
0.234503,0.065515,0.514133,-0.153211,0.988135,0.010717
0.264759,0.299901,0.789864,0.941448,0.110207,0.318638
-0.542519,0.369219,0.232937,0.038045,0.902965,0.428027
0.024581,0.133026,0.837136,0.056800,0.982768,0.175902
-0.504030,0.080475,0.366986,0.514332,-0.429820,0.742103
-0.798308,0.268234,0.194245,0.118352,0.643493,0.756247
-0.416098,-0.327827,0.309918,0.848376,0.126005,-0.514181
0.558017,0.489963,0.509990,0.428397,0.513643,-0.743402
-0.478258,0.541704,0.497695,0.876419,-0.084217,0.474128
0.298082,-0.105162,0.684870,-0.496409,0.151744,0.854723
0.006415,-0.062711,0.262834,-0.505332,0.273273,-0.818512
-0.043313,-0.692745,0.555578,-0.555775,0.827953,0.074884
-0.387375,-0.538150,0.320396,0.691746,0.262415,0.672774
-0.064373,-0.675726,0.522393,-0.079615,0.965607,0.247519
-0.381925,0.119624,0.627855,0.537890,-0.828528,-0.155615
0.290475,0.031292,0.856167,0.848961,0.527742,-0.027453
-0.243018,0.600486,0.649439,-0.588851,0.491981,-0.641255
0.712988,0.116008,0.613809,-0.469086,0.632800,-0.616053
-0.613305,-0.025994,0.160312,-0.689688,-0.044240,0.722754
0.550410,-0.049496,0.612392,-0.102849,0.094827,0.990167
-0.329871,0.368471,0.669260,0.160693,-0.969263,-0.186298
0.194482,-0.417904,0.641046,0.839764,-0.352073,0.413329
0.199081,0.282882,0.847320,0.994064,-0.029103,-0.104831
0.051488,0.193991,0.773252,0.820225,0.544098,-0.176600
-0.542801,0.266986,-0.281050,0.129272,0.970902,0.201590
0.013057,0.017640,0.813092,-0.553460,-0.831920,-0.039893
0.622049,0.299402,0.549310,-0.352461,-0.498228,0.792174
-0.004598,-0.148049,0.761718,-0.433834,0.449890,0.780632
-0.000397,-0.122118,0.073640,0.736077,-0.670369,0.093794
0.135673,0.040206,0.849405,-0.571053,0.817987,-0.069250
-0.209071,0.335121,0.713965,0.817062,-0.513029,0.263079
0.150034,-0.161889,0.759138,0.678881,0.536645,0.501132
-0.359332,0.390164,0.436978,-0.454758,-0.890453,-0.017010
0.304382,0.435419,0.721356,-0.510636,-0.857329,-0.065098
0.099910,0.085151,0.592973,0.803448,0.393009,-0.447231
-0.025544,0.208888,0.796025,0.311714,-0.425926,0.849365
0.410762,0.010347,0.858185,-0.574656,0.726885,-0.376043
-0.084751,0.553173,0.550620,0.740855,0.393308,0.544465
-0.381698,0.185949,0.606859,0.212927,-0.571367,0.792592
0.181255,-0.171924,0.837443,0.733767,0.050206,-0.677543
0.018335,-0.416595,0.129105,0.849633,0.062880,-0.523612
0.162409,-0.515272,0.653783,0.499493,0.800734,0.330652
0.300239,0.188192,0.720206,-0.157615,0.033146,0.986944
-0.193403,0.430557,0.650976,0.884445,0.291453,0.364433
-0.345594,0.099738,0.613541,0.726697,-0.492049,0.479373
-0.226157,0.041017,0.468158,-0.749475,-0.661684,0.021479
-0.353939,-0.061090,0.534194,0.071416,-0.994568,0.075721
-0.114895,0.842475,0.572765,-0.695542,-0.280259,0.661571
0.369267,-0.165191,0.927456,0.188836,0.641859,0.743208
-0.102578,-0.612393,0.521123,-0.221733,-0.715275,-0.662734
0.348660,0.437352,0.738343,0.463050,-0.028651,0.885869
0.052169,-0.072497,0.745493,0.155010,-0.190457,-0.969380
0.543199,-0.135457,0.765139,-0.434546,0.898158,-0.066950
-0.057617,-0.686136,0.538551,-0.699285,0.491414,0.519146
0.519528,-0.383494,0.510672,0.639880,0.002731,0.768470
0.316587,0.164506,0.631985,0.485639,0.194881,-0.852160
0.652135,0.169057,0.646459,-0.681687,0.711315,-0.171271
-0.325386,0.479616,0.388517,0.896044,-0.131558,0.424025
-0.400772,-0.213315,0.076835,0.507388,0.259492,-0.821718
0.258856,0.145993,-0.539861,0.968178,0.168114,0.185390
0.373411,-0.201659,0.756064,-0.555341,0.808296,0.195585
0.275204,0.330820,0.737688,0.160750,-0.429586,0.888603
-0.216281,0.004550,0.650789,-0.064591,-0.866883,-0.494309
-0.126476,0.773968,0.578445,0.467669,0.752325,-0.463997
0.514419,-0.277521,0.657392,0.689152,0.040712,0.723472
-0.423251,-0.381438,0.066931,-0.520993,0.357489,0.775092
0.648899,-0.109214,0.779159,0.181130,0.983375,-0.012851
0.277589,0.015148,0.911391,0.991023,-0.034377,0.129199
0.142258,-0.578668,0.662149,0.958396,-0.049743,0.281074
-0.040247,-0.020447,-0.996953,-0.106648,0.412149,0.904853
0.033379,-0.217554,0.763134,0.404164,0.165355,0.899616
0.533663,0.470266,0.477500,-0.110900,-0.596092,0.795220
0.287921,0.408116,-0.215535,0.721504,0.582890,-0.373726
-0.487056,0.659457,-0.037128,0.495631,0.782125,-0.377665
-0.233367,0.309686,0.723521,-0.779776,0.334919,-0.528940
0.282471,-0.009227,-0.784839,0.039438,0.998801,0.029012
-0.563577,-0.001621,0.502092,-0.387493,0.493996,-0.778342
-0.310286,-0.018451,0.593307,0.541821,-0.136996,-0.829254
0.251363,-0.336430,0.807292,0.968994,0.228384,-0.094293
0.042405,-0.004178,0.696310,-0.350040,0.539760,0.765592
-0.399750,0.408491,0.484878,0.359495,-0.316518,0.877827
0.222922,0.154532,-0.050934,0.860645,0.477744,0.176214
-0.148047,-0.238498,0.558545,0.911425,0.366848,-0.186353
0.199024,-0.362174,0.662123,-0.564528,-0.110036,-0.818046
0.167348,0.076050,0.936076,0.314162,-0.044491,-0.948326
0.443745,-0.440719,0.613942,0.263138,0.468627,-0.843295
0.574422,0.256015,0.748152,-0.623820,0.652129,0.430786
0.478145,0.532041,0.647702,0.852925,0.372780,-0.365452
0.044619,0.401945,0.559815,0.819796,0.559942,-0.119993
-0.454983,-0.434671,0.416436,-0.119005,0.180025,0.976437
-0.264191,-0.332066,0.598920,-0.096811,0.896890,0.431528
0.304155,-0.099240,0.717159,0.270933,0.940411,-0.205481
0.118018,-0.093132,0.924181,0.901131,0.334335,0.276011
0.419334,-0.588891,0.591904,-0.499404,0.334552,0.799169
-0.002043,-0.401260,0.635834,0.805462,-0.034057,0.591669
-0.217700,-0.272410,0.265694,0.116050,0.612274,0.782082
0.240293,-0.096061,0.952568,0.822292,-0.564305,-0.073454
-0.216849,-0.374268,0.287051,-0.720583,0.076462,-0.689140
-0.159853,0.595437,0.544432,-0.398537,-0.636398,-0.660429
0.344289,0.707891,0.560897,-0.596668,0.120600,0.793375
-0.504143,-0.139945,0.443380,0.733594,-0.437430,0.520091
0.027702,0.038711,0.862943,-0.680706,-0.460925,-0.569375
-0.234162,0.439347,0.689828,0.564762,-0.811306,0.151086
0.367621,0.118190,0.767906,-0.004975,0.689192,0.724562
0.350647,-0.352824,0.786710,0.871695,0.410549,-0.267577
-0.568631,0.352387,0.439290,0.285400,-0.282101,0.915951
0.048649,0.026243,0.503335,-0.511904,-0.727341,0.457089
-0.459922,-0.372335,0.407335,-0.353769,-0.118834,0.927753
0.246140,0.654905,0.756399,-0.339750,-0.505775,0.792945
-0.217303,0.630781,0.549510,0.812537,-0.554723,0.179069
-0.183696,-0.231268,0.539380,0.916597,0.109303,0.384580
0.634253,0.115696,0.638253,-0.098671,-0.791577,0.603050
-0.120913,-0.276711,0.748086,0.796109,0.419187,-0.436455
-0.057959,-0.657089,0.527966,0.301678,-0.888322,-0.346228
-0.697832,0.182582,0.193844,-0.086553,-0.600320,0.795062
0.242848,0.267361,0.800396,-0.165185,0.489700,0.856100
0.546889,0.169555,-0.918608,0.124754,0.411772,-0.902707
-0.165191,-0.327203,0.576895,0.957569,0.147989,0.247307
0.261411,-0.026555,-0.069992,-0.531719,-0.787191,-0.312418
0.646572,0.512468,0.492790,0.809523,-0.521871,0.268930
-0.025374,-0.107966,-0.594577,-0.108468,0.933210,0.342571
0.554212,-0.183581,0.612044,0.280807,0.638699,-0.716388
-0.455721,0.217055,0.708806,-0.627359,0.774452,-0.081520
0.104677,-0.031979,0.582294,0.425011,0.151501,0.892420
0.096162,0.264993,0.702845,0.218891,-0.937452,-0.270686
0.360354,0.350579,0.672708,0.144047,-0.884444,0.443857
-0.732231,0.537714,0.218930,-0.550148,-0.749759,0.367693
-0.743755,0.246728,0.197680,0.154816,0.031858,0.987430
0.591337,-0.186262,0.758229,0.412499,0.138265,-0.900404
0.138227,-0.194489,0.179156,0.955779,-0.204788,0.211066
-0.429382,-0.043199,-0.016011,0.733478,0.524912,-0.431831
-0.623126,0.497755,0.268500,0.631508,0.353029,0.690339
0.266235,0.046440,0.914398,0.823992,0.473177,0.311675
-0.480529,0.097368,0.361466,-0.147381,0.593058,-0.791556
0.159459,0.102731,0.536787,0.353684,0.487349,-0.798372
0.499602,0.352014,0.642824,-0.400121,0.342187,-0.850183
0.079700,0.347275,0.576080,0.905173,0.384914,0.180288
-0.113930,-0.238126,0.790719,0.953409,0.257640,0.156949
0.207312,0.169618,0.712669,0.867446,0.247439,0.431639
0.300126,-0.389479,0.836026,0.979739,0.158876,-0.121940
-0.247616,0.051801,0.485880,0.155257,-0.886789,0.435316
-0.020265,-0.100924,0.695428,0.968868,0.202459,-0.142496
-0.208105,0.014774,0.442271,0.683288,0.723479,0.098473
0.109731,0.261376,0.695348,0.229203,-0.907446,-0.352148
0.165929,0.110709,-0.367748,-0.705461,-0.649710,-0.283199
-0.489101,0.571064,0.502546,0.726073,-0.574497,0.377850
0.609730,0.372710,0.547425,0.944055,0.227504,-0.238749
0.582256,-0.142751,0.756960,-0.355462,0.570122,0.740680
-0.074704,0.138573,0.687543,0.329479,0.551457,0.766380
0.192893,0.031916,0.308034,0.751124,0.570194,-0.332704
-0.056540,0.803080,0.557342,-0.493016,0.777971,-0.389482
0.123411,0.177284,0.628350,0.619099,0.603018,0.503075
0.158322,-0.280451,0.726154,-0.483001,-0.842272,0.239350
-0.081290,-0.151416,0.740187,0.868014,-0.152666,0.472487
0.283663,0.081598,0.944376,-0.600427,0.788906,0.130822
-0.212080,0.300024,0.647595,-0.273677,0.884380,-0.378117
0.189657,0.295662,0.780295,0.755213,-0.218195,0.618097
0.074932,-0.201969,0.870708,-0.607060,0.794638,0.005369
-0.063748,-0.190875,-0.516379,0.001255,-0.976320,0.216327
-0.212421,0.411670,0.738089,0.877272,-0.347371,0.331251
-0.123467,0.149421,-0.069350,0.066096,0.523848,0.849243
0.134536,-0.037465,0.286289,0.562412,0.692573,0.451703
0.276567,0.047500,0.200767,0.857857,0.490981,0.151722
0.180746,0.039209,0.691231,0.162775,0.870453,0.464560
-0.304268,-0.353884,0.077730,-0.198256,-0.109109,0.974058
-0.174613,-0.086211,0.667843,-0.003272,0.893131,0.449784
0.185229,0.099427,0.937399,-0.697547,-0.694490,0.176385
-0.010048,-0.126606,-0.973711,-0.291557,-0.142764,0.945840
-0.324194,-0.628352,0.299333,0.714286,0.158008,0.681784
0.029064,0.095498,0.175748,-0.304357,-0.535522,0.787771
-0.414849,0.635082,0.389065,0.745016,0.115931,0.656895
-0.217587,0.004425,0.437125,-0.219741,0.511057,0.830984
-0.222240,-0.248722,0.387782,0.544886,-0.190581,0.816565
0.586228,-0.096372,0.749890,0.453995,-0.829841,-0.324427
-0.599512,0.377446,0.245152,-0.318074,-0.947965,0.013795
0.371140,0.200411,0.646553,-0.000989,-0.283183,0.959065
0.216452,-0.192121,0.752496,-0.064172,0.977738,0.199777
-0.448286,0.116881,0.629312,0.656181,-0.681927,0.323112
0.016121,0.453122,0.493966,-0.162451,0.908210,-0.385701
0.097696,-0.423451,0.542013,-0.227203,-0.840261,0.492281
-0.268903,-0.463534,0.295137,0.063005,0.684130,0.726633
0.674387,0.400075,0.570988,-0.435570,0.343842,-0.831896
0.195731,-0.034347,0.996044,-0.354079,-0.595269,0.721306
-0.028212,0.704650,0.425150,0.773078,0.471964,-0.423793
0.012546,-0.065329,0.290726,0.609617,0.518661,-0.599465
0.290816,0.262811,0.437700,-0.126716,-0.621401,0.773177
-0.182335,0.347463,0.691820,0.714129,0.337162,0.613467
-0.496536,0.706021,-0.041632,0.495631,0.782125,-0.377665
-0.126022,0.372272,0.635273,0.775950,0.416580,0.473669
-0.471957,0.274592,-0.100584,0.119270,-0.914654,0.386242
-0.060400,-0.409986,0.615800,0.184000,0.548865,-0.815409
0.103712,-0.191124,0.788982,0.895336,0.150045,0.419357
0.363988,-0.117006,0.788421,-0.459304,-0.715271,-0.526714
-0.455210,0.427752,0.350734,-0.363363,-0.685241,0.631199
0.080041,0.452188,0.747725,0.769676,0.245618,-0.589297
0.682845,-0.229959,0.232562,-0.261165,0.759745,0.595466
0.336172,-0.047002,-0.954733,-0.208058,0.877257,-0.432588
-0.234673,0.356688,0.576775,0.847935,-0.395296,0.353197
-0.159684,0.159518,-0.346538,-0.415699,-0.790254,0.450214
0.109389,0.105661,0.731406,0.037565,0.802121,0.595979
0.390043,0.869780,0.571776,-0.607199,-0.095238,0.788821
-0.410366,0.102419,0.179517,-0.109096,0.881132,-0.460113
-0.143846,0.190936,0.171044,-0.214790,-0.970940,0.105552
-0.046093,0.510410,0.489836,0.928889,-0.348550,-0.125212
0.508174,0.154034,0.553159,-0.514611,0.443245,-0.733968
0.022140,0.491211,0.514721,0.032494,-0.496871,0.867216
0.142201,-0.558596,0.625222,-0.239558,-0.706036,0.666427
-0.261182,0.592943,0.649333,0.148496,-0.574315,0.805054
0.143280,-0.306696,0.697740,0.310977,-0.923008,0.226603
0.182335,-0.214687,0.815979,0.066522,0.916058,0.395491
-0.402816,-0.019138,-0.174184,0.422993,-0.731219,-0.535160
0.274126,-0.055106,0.434171,-0.678457,0.707901,0.196397
0.122673,0.501372,0.730123,0.635442,0.759698,0.138107
0.184095,0.284005,0.863438,0.914761,0.403332,0.023140
-0.402305,0.028986,0.451893,0.509728,0.530499,-0.677309
0.293711,-0.327080,0.626679,0.993210,-0.105740,-0.048510
0.335094,-0.157462,0.818091,0.169519,0.852102,-0.495162
0.243756,-0.288432,0.633335,0.775284,-0.631186,-0.023208
-0.117393,-0.054046,0.701963,0.817470,-0.563601,-0.118733
0.056654,-0.718552,0.619409,-0.103929,0.925497,0.364217
0.222583,-0.340419,0.434158,0.927360,-0.026338,0.373242
0.126987,-0.246852,0.777154,-0.492210,0.717702,-0.492577
-0.232175,0.435794,0.609853,0.920584,0.370023,-0.124934
0.512489,-0.118814,0.766690,-0.289323,0.945473,0.149579
-0.475647,-0.354259,0.419243,0.062058,-0.624294,0.778720
0.457596,0.630907,0.707069,-0.717502,-0.621945,0.313648
-0.655426,-0.024685,0.500368,0.583834,-0.516675,0.626247
-0.297115,0.620185,0.629940,0.199020,-0.956146,-0.214887
0.328282,0.057660,0.795371,0.509560,0.032785,0.859810
-0.113419,-0.258884,0.634444,0.048174,-0.898265,0.436805
0.336570,0.467336,0.517956,-0.700405,0.663168,0.263897
0.489555,-0.149483,-0.972629,-0.228793,-0.382665,0.895110
-0.515156,0.276336,0.427248,-0.304619,-0.839224,0.450456
-0.030086,-0.726656,0.220721,0.947848,-0.141940,0.285372
-0.148614,0.106844,0.548976,-0.171788,-0.404398,0.898305
-0.148103,-0.058596,0.667041,0.096796,0.802954,0.588129
0.061536,-0.266737,0.690349,0.693844,0.410409,-0.591730
0.362171,0.241491,0.645657,-0.399650,0.542558,-0.738858
0.271344,-0.176911,0.700547,-0.662043,0.697342,-0.274613
-1.000000,0.340794,0.171806,-0.751304,-0.013995,0.659808
-0.069652,0.150729,0.862876,0.916813,0.170016,-0.361315
0.348605,-0.832752,0.455702,0.126887,0.404605,-0.905646
0.064772,0.241242,0.675848,0.248214,-0.785748,0.566560
0.290305,0.008477,0.923272,0.525675,0.850669,-0.005297
-0.224000,0.429436,0.746522,0.834231,-0.481356,0.268990
0.389873,-0.362237,0.811729,0.843477,0.253899,-0.473373
-0.476215,0.525994,0.402670,-0.025692,-0.542963,0.839363
0.585662,-0.149421,0.622683,-0.135792,-0.649104,0.748482
0.477464,-0.084341,0.740334,-0.188956,-0.948480,-0.254326
-0.118983,0.676225,0.547706,0.102442,-0.506877,0.855910
0.205382,-0.018514,-0.967122,0.798337,0.092385,-0.595082
-0.451351,-0.002743,0.138727,0.056395,-0.804395,0.591412
0.261922,0.069504,0.708873,0.862244,-0.384880,0.329244
0.023616,-0.281885,0.821392,0.841506,-0.507421,-0.185449
0.088727,-0.037153,0.509188,0.976835,0.209152,0.045268
0.221447,-0.237129,0.476498,-0.871827,0.278141,0.403182
-0.034570,-0.102668,0.749181,-0.423516,0.900267,-0.100765
0.102124,0.377197,0.730163,0.408563,-0.592602,0.694190
0.368075,0.291235,0.653596,-0.277864,0.647887,-0.709248
-0.109275,-0.365542,0.608917,0.755090,-0.336904,-0.562437
-0.007039,0.262436,0.684121,-0.545198,0.825712,-0.144774
0.249999,0.188192,0.714927,-0.035863,-0.436680,0.898902
0.163488,-0.396710,0.664809,0.278802,-0.121745,0.952600
0.125738,0.529734,0.703073,-0.525957,-0.723201,0.447604
-0.303702,0.079355,0.564238,0.911673,-0.225249,-0.343678
0.798876,0.188192,0.546129,-0.265860,-0.118463,0.956705
0.484844,0.625297,0.703821,0.968674,-0.137148,0.207030
-0.090144,0.649483,0.507104,0.515231,0.513543,0.686157
0.437273,-0.394402,0.576908,0.919188,-0.392216,-0.035507
-0.098604,0.195300,0.400372,0.431104,0.790212,-0.435563
0.608992,0.111145,0.636783,-0.097627,0.896320,0.432527
0.210832,-0.030171,-0.961496,0.770607,0.231559,-0.593756
0.113647,-0.262624,0.741911,0.580791,0.483298,0.655061
0.187954,0.123862,-0.338024,0.412884,0.903768,0.112829
0.294506,-0.012655,0.933390,0.538224,0.638168,0.550506
0.386014,-0.160268,0.696885,-0.544530,0.837089,-0.052625
-0.315792,0.362798,0.437432,0.451610,0.360054,0.816339
0.063012,0.695486,0.442070,0.192545,-0.795299,0.574827
-0.094345,0.814798,0.596688,0.443648,0.348112,-0.825829
0.592700,-0.043387,0.769149,0.398651,0.841643,0.364301
-0.062499,-0.135022,0.748513,-0.391456,-0.776260,-0.494148
0.267427,0.103791,0.786630,0.815840,0.578243,0.006350
0.223433,-0.003179,-0.966133,0.798646,0.021384,-0.601421
0.460548,0.618439,0.698849,-0.643148,0.765324,0.025305
0.796606,-0.158459,0.616214,0.019003,0.561996,0.826921
-0.680745,0.128226,0.180479,-0.137101,0.890933,-0.432946
-0.633685,0.279641,0.444208,-0.484283,-0.174057,0.857423
-0.148558,0.237189,0.657632,-0.481719,-0.623522,0.615765
0.098718,0.182957,0.857958,0.262756,0.332445,0.905781
-0.227123,0.409611,0.734440,0.926639,-0.156103,0.342011
-0.060853,0.024622,-0.997421,-0.106648,0.412149,0.904853
0.310174,-0.311309,0.646058,0.181685,-0.978849,0.094049
-0.137885,-0.165317,0.559333,-0.784190,0.591946,0.186134
-0.537749,0.257075,0.374283,0.881053,-0.182654,0.436329
-0.090259,0.482981,0.502894,0.977561,0.184041,-0.102482
0.486547,-0.139945,0.780241,0.325949,0.404887,0.854297
0.275660,0.067073,0.942478,-0.646960,0.755685,0.101903
0.084696,-0.332441,0.545447,0.284506,-0.916747,-0.280414
-0.163374,0.600300,0.560576,0.080055,0.648881,0.756667
-0.130166,0.149856,0.373749,-0.483432,-0.813338,0.323690
0.158549,0.122803,0.854189,-0.119745,-0.525502,0.842323
0.038374,0.194489,0.445197,-0.147703,-0.575730,0.804188
-0.621764,0.307879,0.426700,0.200116,-0.311099,0.929070
0.285536,0.103167,0.804352,-0.656735,-0.687015,-0.310981
0.108083,0.392719,0.738316,0.277683,-0.830894,0.482189
-0.309491,0.437102,0.207490,0.476851,-0.200417,0.855831
-0.132492,0.107468,0.558425,-0.164608,-0.021234,0.986130
-0.374887,-0.352761,0.412935,-0.172200,-0.825533,-0.537441
0.455269,0.155654,0.497695,-0.501216,0.307707,0.808764
0.041610,-0.221545,0.587533,0.035225,0.797184,0.602708
0.542688,0.175726,-0.959665,-0.409805,-0.434044,0.802288
0.179894,-0.218240,0.838539,0.277777,0.388060,0.878777
0.299670,0.231954,0.538444,-0.910053,0.333467,0.246178
0.327544,0.674043,0.553199,0.736631,0.301336,-0.605452
-0.137658,-0.092196,0.755156,0.616847,0.778222,-0.117773
-0.054553,-0.032477,0.669046,-0.057481,-0.944797,0.322576
0.020891,-0.535469,0.510846,-0.273797,-0.415200,-0.867551
-0.466395,0.579416,0.499445,0.895388,0.014881,0.445038
-0.067779,0.689752,0.547118,-0.453865,0.647088,-0.612604
-0.128633,0.458173,0.608089,0.258254,0.335409,0.905983
-0.033151,0.056664,0.815685,0.816427,-0.498670,0.291163
0.195050,-0.095999,0.869158,0.482725,0.605088,-0.633123
0.611774,0.145368,0.624795,-0.332642,-0.878128,-0.343861
0.271685,-0.111271,0.651391,0.802198,0.479843,-0.355286
-0.490066,0.396584,0.396215,0.621484,0.286115,0.729312
-0.102917,0.078170,0.161982,0.066310,-0.770304,0.634219
-0.323513,0.183830,0.592278,-0.686902,-0.241182,-0.685563
-0.392824,-0.348397,0.286904,0.190648,0.754865,0.627561
0.386525,0.424262,0.648451,0.483043,-0.786207,-0.385419
0.221673,0.026369,-0.091202,0.284630,0.915570,-0.284107
-0.096958,0.765866,0.552972,-0.069864,-0.769046,0.635364
0.014590,0.629659,0.421502,-0.074537,0.124379,0.989431
-0.178418,-0.135022,0.428625,0.564775,0.507074,-0.651079
0.458221,0.060217,0.816340,-0.679530,0.713002,-0.172822
0.265385,0.079914,0.554869,-0.561359,0.809102,-0.173867
0.481040,0.610584,0.689000,-0.455393,-0.266047,-0.849610
-0.186818,0.320408,0.464684,-0.402871,-0.867147,0.292833
0.374091,0.570128,0.676343,0.830308,0.004915,0.557283
-0.116655,-0.231018,0.265881,-0.470946,0.348962,0.810207
0.261012,0.035656,0.396763,-0.560587,0.820722,0.110263
-0.292405,-0.331444,0.393716,-0.635064,0.591384,-0.496950
-0.576123,0.201783,0.403325,-0.438701,-0.864185,-0.246428
0.413318,0.515521,0.675648,0.666665,0.464341,-0.583048
0.191871,-0.076363,-0.013913,-0.581111,-0.807036,0.104896
0.257494,0.431742,0.727437,0.322765,0.891356,-0.318287
0.006699,-0.291485,0.765607,0.509941,-0.825552,-0.241711
0.319937,0.628787,0.557048,0.887467,0.057793,-0.457234
-0.126873,0.253959,0.622589,-0.413992,0.737504,0.533572
0.553247,0.484229,0.507625,0.612077,0.259647,-0.746957
-0.436478,0.072310,0.500889,-0.573462,-0.539357,-0.616632
0.129712,-0.175540,-0.979552,0.227087,-0.107403,0.967934
0.102293,0.416095,0.370100,0.264175,-0.199473,0.943622
0.137830,-0.110586,0.730578,-0.766623,0.118953,-0.630982
0.509934,0.173980,0.505527,-0.642448,0.097083,0.760155
0.578168,-0.513278,0.611644,0.927072,0.058988,-0.370213
-0.086626,-0.463222,-0.045213,-0.783111,0.601850,0.156569
0.591848,0.535344,0.524331,-0.582348,-0.036932,0.812100
0.182676,-0.627728,0.605589,-0.406455,0.735352,0.542265
0.318688,-0.168496,0.688064,0.149515,-0.934441,0.323210
0.120289,0.429310,0.751935,-0.338518,0.814821,-0.470609
-0.229961,-0.834934,0.305641,-0.527161,-0.196574,-0.826716
-0.482232,0.109401,0.517074,0.722264,0.380370,0.577627
0.553701,-0.580165,0.595606,0.729561,0.097079,-0.676990
0.144811,-0.054856,0.867594,0.851118,-0.062540,0.521235
0.394187,0.638012,0.696524,-0.627345,0.771754,0.104084
0.490350,0.159020,0.768373,0.351432,-0.929410,0.112662
-0.027474,0.217865,0.791709,0.850222,-0.170742,0.497965
-0.015668,-0.275279,-0.186854,0.915326,0.284799,-0.284724
-0.165872,-0.456240,0.317483,-0.445731,0.774863,0.448231
0.074591,-0.380003,0.514307,0.740300,-0.633424,-0.225231
-0.226101,-0.254145,0.387341,0.427484,-0.448206,0.785092
0.343267,0.137888,0.770178,0.061943,0.532998,0.843846
0.163375,0.091821,0.907742,0.248196,0.960417,-0.126481
-0.682959,0.258633,0.195622,-0.315588,-0.079422,-0.945567
-0.099738,0.230769,0.412039,0.331040,-0.506693,0.796037
0.422570,0.317604,0.653409,-0.170393,0.863486,-0.474719
-0.391292,0.470578,0.236465,0.150153,0.150791,0.977096
0.481551,-0.305823,0.663914,-0.457955,-0.318963,-0.829783
-0.633231,0.507480,0.276305,0.343119,0.386200,-0.856224
-0.102521,0.157336,-0.251594,-0.159864,-0.986922,0.020691
-0.163261,-0.185575,0.679751,0.890986,0.098202,0.443283
0.423989,0.114573,0.754260,0.902985,0.428471,-0.032101
0.594573,0.022689,0.626439,-0.262363,0.817348,-0.512940
-0.009253,-0.485415,0.620999,0.197844,0.515891,-0.833495
0.052283,-0.631468,0.595846,-0.589657,0.792778,0.154294
-0.606778,-0.139384,0.376181,-0.689215,-0.046194,0.723082
0.063578,-0.494639,0.601339,0.343663,-0.511900,0.787308
0.463612,0.084653,0.643960,-0.380971,0.789447,0.481284
-0.289396,0.348085,0.460527,-0.456637,0.555116,-0.695219
0.583844,-0.225846,0.610574,-0.366525,-0.235361,0.900147
0.196299,0.315236,0.799393,0.439829,0.153174,0.884923
0.214919,0.090512,0.909520,-0.261740,-0.896155,0.358328
-0.396457,0.120684,0.496879,0.415291,0.753697,0.509386
0.257551,-0.057786,-0.379870,0.999809,0.019503,0.001540
-0.029859,0.843847,0.562782,0.885842,0.223714,0.406493
0.320845,0.032664,-0.410997,0.961184,-0.189953,0.200109
-0.126306,-0.208641,0.684121,0.854311,-0.517457,-0.048900
-0.132208,-0.021070,0.625022,-0.432461,0.885819,-0.168231
0.351612,-0.069817,0.820403,0.852051,-0.014706,-0.523253
-0.716280,0.190687,0.193229,-0.149424,-0.524610,0.838127
-0.020550,-0.215623,0.283950,-0.402777,0.360585,0.841278
0.219970,-0.154782,0.848362,0.976039,-0.178228,0.124830
0.396401,-0.199040,0.848229,0.722355,0.478555,-0.499188
0.366031,-0.234073,0.827272,0.855823,0.175892,-0.486446
0.128123,0.135581,0.901862,0.876915,0.093366,-0.471490
-0.498012,-0.098928,0.466060,-0.691757,0.682196,0.236814
-0.280143,0.571374,0.643920,0.016929,-0.960388,0.278153
0.724285,0.456801,0.558251,-0.497837,0.109275,-0.860359
-0.271571,0.358060,0.443647,-0.721478,0.540035,-0.433395
0.036843,-0.649171,0.604921,-0.564969,-0.540076,-0.623801
0.450216,0.514648,0.692675,0.026210,-0.684066,0.728949
-0.333958,-0.326893,0.405530,-0.044625,0.725555,0.686716
0.343040,-0.296596,0.836000,-0.644128,0.681352,0.347647
0.277305,-0.039335,0.874330,-0.009269,0.536792,0.843664
0.086002,-0.221356,0.790867,0.993147,0.029367,0.113119
0.115690,-0.340731,0.653248,0.465818,0.213859,0.858649
-0.072491,-0.350081,0.775911,0.505895,-0.818608,-0.271941
0.300181,-0.021632,0.653155,0.973927,-0.003241,-0.226837
-0.200670,0.343349,0.719284,0.807233,-0.320271,0.495784
-0.091167,0.173419,0.664408,0.915305,0.387290,-0.110555
0.402419,-0.278956,0.781685,0.243876,0.769219,0.590615
-0.218891,0.416220,0.730912,-0.669896,-0.609055,-0.424607
-0.573343,0.574616,0.278096,0.244759,-0.494731,0.833867
-0.214862,0.234884,0.615653,0.033221,0.924799,0.379002
-0.189600,0.616881,0.517809,0.929825,0.213136,-0.299997
-0.041837,0.015148,0.697473,0.081977,-0.244232,0.966246
-0.039907,0.429872,0.499205,0.907931,0.419119,0.000434
0.415190,0.096371,0.557810,-0.309245,0.805494,-0.505516
-0.407469,0.099052,-0.005947,-0.450743,0.351586,0.820499
0.677850,-0.144123,0.618874,-0.263881,0.460266,-0.847657
0.520663,-0.205399,0.783863,0.311333,0.859705,0.404945
-0.357970,-0.328451,0.291902,-0.495229,-0.676960,-0.544494
0.222753,0.078794,0.869131,0.457362,0.735984,0.499148
-0.480642,-0.077983,0.473010,0.857071,-0.502950,0.111669
-0.217131,0.432927,0.608075,-0.629486,-0.768170,0.116884
-0.030199,-0.371587,0.306443,-0.119112,0.730267,0.672698
0.727464,-0.138636,0.618433,0.009093,0.301137,0.953537
0.153044,-0.213753,0.517902,0.998422,0.044597,-0.034114
0.339976,-0.288741,0.768734,0.535260,-0.474921,-0.698531
0.216849,-0.061340,-0.304692,-0.000568,0.981328,0.192343
0.449819,-0.158086,0.440252,0.036064,0.041089,-0.998504
-0.377497,0.398142,0.445799,-0.249384,-0.925604,-0.284719
0.169222,0.012030,0.874063,-0.501835,0.646419,0.574721
-0.292689,0.189191,-0.369793,-0.525465,-0.639186,0.561541
-0.563408,-0.129971,0.370768,-0.199457,0.591785,0.781030
0.382379,0.066761,-0.719939,-0.401261,0.915607,0.025569
-0.070390,0.228899,0.809978,-0.632546,-0.769050,0.091911
-0.274636,0.051738,0.584633,0.950433,-0.211442,0.227970
0.209242,0.123488,0.728894,0.907487,0.369881,0.199136
-0.102067,0.129098,0.135921,-0.507003,0.231587,-0.830250
-0.430290,0.058159,-0.209120,-0.504212,0.850963,0.147078
0.073115,-0.031729,0.946648,0.350867,0.461555,-0.814776
-0.045243,-0.108716,-0.991032,-0.339620,0.205601,0.917816
-0.045073,-0.130720,0.566136,-0.256939,0.617011,0.743828
-0.162294,-0.286748,0.384695,0.161631,0.178882,0.970503
0.070220,0.235445,0.704890,-0.064023,0.929782,0.362501
0.466394,-0.002557,-0.966708,0.191471,0.283612,0.939629
-0.517030,-0.107344,0.342769,-0.041960,-0.968832,0.244139
-0.412635,-0.402632,0.075752,0.523166,-0.250158,-0.814689
0.233539,0.548373,0.716932,0.640011,0.445388,-0.626111
0.424445,0.842787,0.574422,0.625252,0.328112,-0.708098
0.007210,-0.364233,0.799808,-0.362529,-0.877376,-0.314298
0.113022,-0.575303,0.590995,-0.402507,0.519960,0.753412
0.534061,0.078419,0.731059,0.459454,0.406254,-0.789848
0.236603,0.002182,0.809043,0.776519,-0.629343,0.030769
-0.581289,-0.623115,0.326972,0.777564,-0.278099,-0.563964
-0.187840,0.334311,0.709809,-0.694535,0.686942,-0.213851
-0.178473,-0.400823,0.490411,-0.703407,-0.188753,0.685267
-0.280200,-0.231330,0.248146,0.522526,0.847436,-0.093910
0.215827,-0.109962,0.842843,0.913501,-0.052423,0.403445
0.500285,-0.401384,0.596060,0.435969,0.290121,0.851916
-0.445050,0.580352,0.415380,0.222557,-0.218921,0.950022
0.434264,0.102356,-0.965318,0.122959,-0.073421,0.989692
0.248638,0.073743,0.617845,-0.407389,0.790268,0.457724
-0.176147,0.651165,0.236946,-0.272813,0.799382,0.535315
-0.291156,0.064705,0.590754,0.926129,-0.147745,0.347068
0.324875,-0.423265,0.611096,0.431185,-0.316549,0.844912
-0.645777,0.541890,0.261283,0.334824,0.922921,-0.190027
-0.403326,0.081286,0.620491,-0.448081,0.736708,-0.506443
0.317552,0.659082,0.762186,-0.647899,-0.387764,0.655641
0.304609,-0.257762,0.806757,0.614897,-0.507198,0.603864
0.304609,0.083905,0.895206,-0.418855,-0.847311,-0.326533
0.402192,0.259569,0.331289,-0.262204,0.743965,-0.614625
0.149807,0.331069,0.845288,-0.315397,0.565027,-0.762410
0.370232,0.388168,0.737233,-0.462891,0.472750,-0.749826
0.573512,-0.249844,0.787873,0.249551,-0.607627,-0.753998
-0.048365,-0.022629,0.352846,0.644374,0.135245,0.752656
0.137261,0.184515,0.887962,0.182341,-0.796929,0.575896
-0.403440,0.411919,0.479037,0.070497,0.790928,-0.607835
-0.525488,-0.502806,0.415755,-0.526468,-0.429445,-0.733763
-0.361887,0.440158,0.481884,-0.363222,-0.395900,-0.843406
-0.123751,-0.114948,0.684576,-0.576028,0.535387,0.617699
-0.018563,-0.536655,0.029643,0.998536,0.043218,-0.032526
0.001930,-0.412730,0.504377,-0.024845,-0.997666,-0.063609
-0.492507,-0.093132,-0.042554,0.072951,-0.961455,0.265107
-0.003292,0.234323,0.797950,0.846900,0.477759,0.233468
0.653269,-0.583780,0.622269,0.504076,0.806904,-0.307918
-0.434832,-0.151977,0.468626,0.239941,0.490032,0.838031
0.133686,0.011532,0.522607,0.981724,0.103672,-0.159596
0.131131,-0.588581,0.646419,-0.429986,0.173477,0.886012
-0.629145,-0.112580,0.474680,0.272428,-0.585827,0.763276
-0.084014,-0.091136,0.663847,0.024452,0.845802,0.532937
0.296095,0.099613,0.919731,0.566216,0.823074,0.044138
0.558754,0.635271,0.501143,-0.646900,0.753211,0.119136
0.655484,0.421581,0.570213,-0.402773,0.091096,-0.910755
-0.006017,0.069069,0.616121,0.697285,0.066518,-0.713701
-0.287125,-0.010598,0.563076,0.850294,-0.515562,-0.105815
-0.080552,0.571999,0.528300,-0.478143,-0.794335,0.374714
-0.188919,-0.177161,-0.270492,0.349387,0.031099,0.936462
0.213556,0.065452,0.867340,0.177137,0.944524,-0.276579
0.414170,-0.373520,0.597544,0.837930,-0.500202,0.218340
0.168427,0.166998,0.836695,0.278105,-0.783944,-0.555057
0.202600,0.011346,0.605643,0.814026,0.406702,-0.414675
-0.500909,-0.381873,0.405196,0.981659,0.163495,-0.098057
0.035651,-0.224286,0.755102,0.772480,0.499927,0.391596
0.723604,-0.143499,0.620638,-0.029990,-0.133669,0.990572
0.470027,0.297842,0.647635,-0.325156,0.770015,-0.548953
-0.225703,-0.451191,0.302634,-0.564662,0.410037,0.716259
-0.480756,-0.350705,0.390375,0.469567,-0.837058,-0.280787
0.009991,-0.208080,0.682477,0.782583,0.621265,-0.039914
-0.162466,0.381685,0.593280,0.849611,-0.425864,-0.311127
-0.140042,0.096870,0.690456,0.459645,0.340516,0.820229
-0.212080,0.592196,0.046122,0.521118,0.853483,0.001578
-0.288147,0.559782,0.617484,-0.132817,-0.433050,0.891531
-0.332482,-0.242490,0.414552,-0.410889,-0.092428,-0.906988
0.306823,-0.049433,-0.729562,-0.414429,0.909812,0.022133
-0.282073,0.439471,0.675661,0.820076,0.529372,0.217350
-0.003917,0.713690,0.527044,0.849560,0.250003,0.464485
0.289624,-0.227902,0.820817,0.549100,-0.263172,0.793240
0.143223,-0.344846,0.685698,-0.726458,0.686433,-0.032684
0.497161,-0.612642,0.589418,-0.270839,-0.861211,0.430071
0.196414,-0.039210,0.257969,0.929688,0.362395,0.065959
0.456289,0.046440,0.858760,0.466974,-0.877250,-0.111209
0.079814,-0.189690,0.731112,-0.047122,0.184808,0.981644
0.364271,-0.184454,0.836922,0.660446,0.710688,-0.242350
-0.227747,0.442277,0.668845,0.859309,-0.412910,0.301817
0.330155,0.167187,0.440974,0.112367,-0.468180,0.876459
0.168881,0.325894,0.841934,0.845667,0.532465,-0.036430
-0.059888,0.249658,0.323737,-0.335753,-0.092807,-0.937367
-0.014588,0.086148,0.827299,-0.592420,0.711651,-0.377613
-0.472299,-0.084778,0.506088,0.173615,-0.893665,0.413787
0.159741,0.383867,0.730350,0.523425,0.673533,0.521901
-0.299785,-0.296533,0.403299,0.527030,-0.411434,0.743614
0.375852,0.002494,-0.951125,-0.638651,-0.209199,-0.740514
0.496027,-0.104601,0.889580,-0.440093,-0.139879,0.886990
0.325897,-0.435919,0.843765,-0.402915,-0.822952,-0.400513
-0.199988,0.005547,0.505286,0.113083,0.990705,0.075600
0.333957,0.788056,0.562889,0.912054,0.201849,-0.356951
-0.011921,-0.023751,0.684709,0.035946,-0.851112,0.523752
0.044959,0.339234,0.704396,0.947525,-0.319318,0.015267
-0.202202,-0.601609,0.357283,-0.243573,0.741733,0.624904
0.710719,-0.162261,-0.956003,-0.275813,-0.126853,0.952804
-0.056368,0.937291,0.473050,-0.665974,-0.390100,0.635846
0.403667,-0.506919,0.683346,0.034404,0.534619,0.844393
-0.378235,0.008726,0.548214,0.221250,0.924226,-0.311216
0.438408,0.101546,0.799687,0.181298,-0.759088,0.625232
-0.197831,0.059968,0.509990,0.096556,0.992670,0.072685
0.045584,-0.407057,0.732155,0.585533,0.805944,0.087210
-0.570730,0.257138,0.190543,-0.104447,-0.094252,0.990054
0.264532,0.022316,0.424869,-0.735708,0.550597,-0.394431
-0.533606,0.048248,0.356829,-0.061604,-0.846750,0.528412
0.491541,-0.321158,0.515991,0.511100,0.188581,0.838579
-0.363022,-0.418901,0.420165,-0.767158,0.641331,0.012724
-0.362568,0.127977,0.481577,0.131895,0.956651,0.259659
0.103827,0.446080,0.695575,0.796156,-0.095719,0.597473
0.189034,0.341167,0.725044,0.531218,0.846806,0.026954
0.048025,0.182894,0.880518,-0.292310,-0.419024,0.859636
-0.342018,-0.037153,0.553907,0.869113,-0.438174,-0.229446
0.075556,0.301147,0.734186,0.236535,-0.291389,0.926900
0.457426,0.570503,0.699117,-0.667219,0.323521,-0.670934
0.186309,-0.493829,0.621587,-0.059723,0.941595,0.331410
-0.308810,-0.434236,0.292571,0.450055,0.639221,0.623575
0.543937,0.159644,0.622335,-0.031600,-0.979797,-0.197481
-0.075613,-1.000000,0.234567,-0.797619,0.296216,-0.525414
0.089919,-0.147115,0.785975,0.846887,0.340463,-0.408494
0.310116,0.111145,0.704075,-0.320013,-0.594672,0.737535
0.096900,0.051303,0.788889,0.317004,-0.619322,-0.718296
0.051034,0.359617,0.594096,0.807806,0.415261,0.418339
0.065169,-0.128538,0.844246,0.429306,0.797799,0.423335
0.235922,-0.083219,0.934312,0.925509,-0.375515,-0.049213
0.153497,0.371151,0.853681,0.636417,0.042786,0.770158
0.331006,0.086523,0.961269,0.526558,-0.849924,0.019123
-0.069368,0.130781,0.387595,-0.457700,-0.775924,0.434112
-0.212875,-0.224412,0.387568,0.544886,-0.190581,0.816565
-0.150204,0.194615,0.629098,-0.443387,-0.892348,-0.084397
0.042405,0.183456,0.648491,0.928544,-0.362637,-0.079379
-0.399523,-0.210760,0.413041,0.726226,0.180768,-0.663263
-0.305177,-0.195051,0.372011,-0.455025,0.143124,0.878901
0.363590,-0.052362,0.771487,-0.443887,0.038158,-0.895270
-0.628008,0.010535,0.157639,-0.689688,-0.044240,0.722754
0.142201,0.404064,0.866365,0.901274,-0.413652,-0.128830
0.061593,-0.179529,0.811863,0.974073,-0.225446,0.018883
-0.561592,0.034533,0.374604,-0.343110,-0.144413,-0.928128
-0.194425,-0.107344,0.671278,-0.077780,0.773781,0.628660
-0.412807,0.348085,0.344734,-0.282272,-0.902567,0.325108
0.305235,-0.375639,0.809484,0.380699,0.915047,-0.133259
-0.092869,0.065764,0.455074,0.300384,-0.109518,0.947510
0.184264,0.250966,0.860885,0.864565,0.073402,-0.497131
0.207596,-0.358311,0.602034,0.232671,-0.142528,-0.962055
0.501647,0.107592,0.800890,-0.108464,0.879262,0.463826
-0.071582,0.132528,0.343918,-0.170238,0.850699,0.497323
-0.365690,0.664318,0.037836,0.354891,0.934884,0.006575
0.248752,0.039272,0.597049,0.603423,0.722159,-0.338182
0.383005,-0.072436,0.850380,0.715557,0.364379,-0.595992
-0.481267,0.062399,0.363471,0.048016,-0.522606,0.851221
-0.099626,-0.065454,-0.271708,0.180928,-0.350717,0.918838
0.191644,-0.128850,0.730698,-0.867970,0.480156,0.126796
-0.051940,0.012093,0.697780,-0.013360,-0.233526,0.972259
0.279576,0.318850,0.729041,-0.154620,-0.366947,0.917302
0.407244,0.166251,0.727357,0.351192,-0.541734,-0.763668
-0.146741,-0.144745,0.657966,0.880950,0.374574,-0.289172
0.439487,-0.296908,0.840878,0.642845,0.459258,-0.613052
0.272366,-0.047127,0.595231,-0.687541,-0.667963,0.284801
0.012942,-0.142814,0.744250,0.170272,0.079592,-0.982178
-0.131073,0.563894,-0.075632,-0.213852,-0.522364,0.825472
0.603713,0.117130,0.772851,-0.027029,-0.818841,-0.573384
0.006983,-0.065641,0.844660,-0.791640,-0.443551,-0.420200
0.309832,-0.658086,0.456771,-0.453783,-0.242318,-0.857533
0.229507,0.067010,0.871430,-0.576549,-0.811788,-0.092686
0.479791,-0.121869,0.755984,0.234466,0.930276,0.282156
-0.344686,0.256702,-0.235890,0.076265,0.508587,0.857626
0.634141,0.199352,0.632840,-0.631037,0.596148,0.496387
0.283890,0.049307,-0.833006,0.575268,0.807686,-0.129264
0.342417,0.506234,0.542414,0.931948,0.362568,-0.004255
-0.107971,-0.038960,0.656657,-0.094241,0.939595,0.329060
-0.023217,-0.205772,0.770913,0.177249,0.974176,-0.139873
0.334356,0.036466,-0.356749,0.665612,0.741244,-0.086708
0.257095,-0.252836,0.848148,-0.018892,0.959182,0.282159
0.547685,-0.285002,0.597290,-0.315183,-0.203149,0.927033
0.495800,-0.171674,0.499699,-0.511328,-0.191340,-0.837814
-0.557220,0.051864,0.174184,-0.689021,-0.094899,0.718501
-0.252328,0.635082,0.627989,0.741679,-0.667662,0.064341
0.300919,0.043946,0.023041,-0.118194,-0.991508,0.054243
0.068233,-0.297844,0.435094,-0.134340,-0.990906,0.007661
0.448513,0.389416,0.653850,0.624873,0.008694,0.780678
0.000511,-0.674045,0.586478,0.709749,0.445635,-0.545588
-0.381130,0.051864,0.592799,-0.473140,0.771441,-0.425462
0.110753,0.700038,0.280221,0.511607,0.319573,-0.797578
0.366485,0.334872,0.551127,0.034112,-0.235617,0.971247
-0.116882,-0.255081,0.537134,0.986659,0.097720,0.130208
-0.110240,-0.267237,0.265707,0.217191,0.805417,-0.551481
0.183299,-0.034659,0.309250,0.708247,0.705789,-0.015724
0.227407,-0.071125,0.163787,-0.840479,0.350333,-0.413353
0.780483,0.209638,0.634751,-0.029375,-0.177582,0.983667
-0.008288,-0.459419,0.503789,-0.384869,-0.094672,-0.918103
0.040077,0.482171,0.509870,0.376404,-0.489528,0.786564
-0.044562,-0.261625,0.750251,0.475611,0.079369,0.876068
0.319255,0.235007,0.443433,-0.314897,-0.358782,0.878701
0.507663,-0.006609,0.721703,0.273757,-0.207290,0.939195
0.083447,-0.491835,0.405317,0.469300,-0.852981,-0.228434
0.110581,-0.236940,0.782393,-0.230720,0.946227,-0.226766
0.534401,-0.228151,-0.970677,-0.312110,-0.087648,0.945994
0.467247,-0.070876,0.885984,0.339928,0.932928,0.118716
0.118188,0.549433,0.717574,0.951757,0.292114,0.093957
0.133118,0.141566,0.642663,0.148407,0.195521,0.969405
0.498410,-0.084467,0.738476,0.221340,0.950274,0.219059
0.427340,0.427503,0.621640,0.848975,-0.444370,0.285966
0.137887,0.265365,0.726127,0.274179,0.127917,0.953133
-0.235411,0.107592,0.178435,-0.068960,-0.629787,0.773701
-0.194368,-0.532353,0.350761,-0.230329,0.738153,0.634098
0.085888,-0.185451,0.883459,0.870268,-0.467779,-0.154328
0.309947,-0.332003,0.771487,-0.550856,0.514381,0.657244
0.040475,-0.168309,0.778878,-0.538775,0.711023,0.451849
0.171776,-0.069942,0.056079,0.942880,0.240165,-0.230863
-0.017483,0.143498,0.809591,0.679816,0.382078,0.625993
0.590713,0.085587,0.750759,-0.349507,-0.241206,0.905353
-0.305801,0.360803,0.452348,-0.693519,0.607668,0.387003
0.114670,0.253460,0.792176,-0.096958,-0.508548,0.855557
0.178872,0.346092,0.740080,-0.248932,-0.207601,0.946010
0.409174,-0.319101,0.674512,-0.426199,-0.225387,0.876102
0.169051,0.483294,0.819374,0.985759,-0.052135,0.159876
-0.488874,-0.571999,0.424134,0.572811,0.589537,0.569504
0.404065,-0.276836,0.619141,-0.431946,0.207224,0.877770
0.270778,0.363858,0.644040,-0.691598,0.625058,0.361932
-0.063237,-0.358248,0.640498,-0.245829,-0.869075,-0.429274
-0.247389,0.247226,0.453484,0.337362,-0.504870,0.794540
-0.315622,0.467835,0.367387,0.038725,-0.896542,0.441264
0.569710,-0.012717,-0.967630,0.240626,-0.045567,-0.969548
-0.042915,-0.838675,0.226775,0.877484,-0.139511,0.458866
0.611944,-0.050369,0.744009,-0.308845,0.709519,0.633402
0.430972,0.613203,0.692407,0.396457,0.538140,0.743793
0.495289,-0.202344,0.775136,0.279640,0.746718,0.603501
-0.113419,-0.497757,0.611791,0.059836,0.648531,0.758832
-0.495685,0.016145,0.352365,0.218814,0.355103,-0.908858
0.111944,0.545942,0.377905,0.845583,-0.348703,0.404222
-0.149409,-0.175663,0.570921,-0.666920,0.591872,0.452665
0.012716,0.712069,0.457319,-0.363558,-0.885124,0.290485
0.191248,0.002245,0.579621,-0.363421,0.891879,-0.269217
0.267143,0.259881,0.791094,0.990475,-0.083451,0.109522
0.171606,0.135956,0.832391,0.562750,-0.564328,-0.604025
-0.017882,0.370900,0.459217,-0.521067,-0.546234,0.655833
0.108993,-0.513651,0.608062,-0.785763,-0.587825,0.192453
-0.615123,0.026431,0.464804,0.921292,0.122125,-0.369198
0.205722,-0.025684,0.908504,0.752323,0.320680,-0.575477
