0.048670,-0.178332,0.784160,0.696510,0.436432,0.569562
-0.463236,0.394229,0.675987,0.991824,0.121829,0.037988
0.096527,-0.177676,-0.683054,0.906333,0.421939,0.022960
-0.057963,0.404971,0.518850,-0.768913,0.193465,-0.609380
0.060866,0.017195,0.089635,-0.853834,0.411499,0.318804
0.030026,-0.015818,-0.601301,0.140187,0.985061,0.100013
-0.425834,0.061541,0.503469,0.735593,-0.284494,0.614790
0.457369,0.188157,0.444301,-0.105496,0.769218,0.630218
-0.741549,-0.004945,0.521178,0.974780,0.219056,-0.042645
-0.078638,-0.212197,0.631611,0.506023,-0.862410,0.013767
-0.010047,0.894082,0.386667,-0.511669,0.148155,-0.846312
0.013358,0.463727,0.579524,-0.154448,-0.680268,-0.716506
0.084563,-0.040907,0.360781,0.880009,0.425973,0.210074
0.466372,-0.023352,0.765369,0.312331,0.912788,-0.263186
0.061157,-0.823469,0.497168,0.905609,-0.014154,-0.423878
0.132186,-0.023090,0.799925,-0.630474,0.761521,0.150294
0.424555,0.302263,-0.933450,-0.100509,-0.238073,0.966033
-0.453073,-0.071758,0.509029,0.765012,-0.127335,0.631302
0.009932,0.042478,0.685259,0.623605,-0.118652,0.772683
-0.339935,-0.426850,0.485896,-0.585302,0.797904,0.144120
-0.375363,-0.759932,0.405294,0.009925,0.229435,0.973273
-0.478684,-0.879015,0.586139,0.878030,0.466415,0.107332
0.066501,-0.139881,0.862640,-0.696285,0.064320,0.714878
0.244280,0.058986,0.771820,-0.354379,0.894179,0.273606
-0.016031,-0.303834,0.598206,0.420363,-0.896528,-0.139759
-0.417876,0.024860,0.462311,0.561547,0.745310,0.359413
-0.687653,-0.645759,0.440890,0.957569,-0.057232,-0.282466
-0.023811,0.683556,0.726526,-0.154067,-0.975651,-0.156101
0.323615,0.385059,0.761726,0.974559,-0.179698,-0.133955
0.329190,-0.407526,0.653648,0.892963,-0.185855,-0.409969
-0.420258,-0.195231,0.355494,-0.352816,-0.123534,-0.927502
-0.599663,-0.332394,0.591563,0.831214,-0.554406,-0.041448
0.767627,-0.103855,0.537586,-0.177383,0.558059,0.810621
0.029969,0.002719,-0.388762,0.963186,-0.266576,-0.034794
0.400163,-0.014051,0.769341,-0.049612,-0.983641,0.173176
0.058776,-0.004160,0.880336,0.684293,0.728883,0.021727
-0.082821,-0.841940,0.466228,0.797374,0.460512,-0.390031
-0.344698,0.323944,0.723623,0.461695,0.873652,0.153525
-0.215182,-0.426784,0.367971,-0.333500,0.142396,0.931934
0.092984,0.359184,0.836234,-0.719641,0.189921,0.667867
-0.238704,-0.300036,0.529724,0.547863,-0.194127,-0.813733
0.282610,-0.306325,0.656758,0.620515,0.730153,0.286071
0.205483,-0.510562,0.415100,0.706055,-0.183370,-0.684004
-0.241201,-0.519929,0.613943,0.218190,-0.806248,0.549871
0.156580,-0.163199,0.677055,0.855816,0.080252,0.511017
-0.809619,0.165558,0.423099,-0.596102,-0.788461,-0.151632
-0.322975,0.450168,0.520425,-0.686297,0.378119,0.621308
0.299395,-0.476763,0.500497,-0.376935,-0.817919,-0.434659
-0.407539,0.174468,0.670002,0.749351,-0.206763,0.629064
0.349285,-0.066648,0.525095,-0.144433,0.027973,0.989119
0.579511,0.451020,0.618107,0.197240,-0.503072,0.841436
-0.044604,-0.215209,0.415703,0.425846,-0.045661,0.903643
-0.433094,0.132479,0.685328,0.105854,-0.571641,0.813647
-0.117434,0.840107,0.387995,0.343712,-0.078325,-0.935803
0.471832,-0.276586,0.676645,0.846806,0.446044,-0.289766
0.253397,-0.155078,0.814402,-0.613963,0.711817,0.341125
0.034441,-0.217306,0.474871,-0.590626,0.224185,0.775179
-0.478975,-0.173484,0.512645,0.729774,-0.185967,-0.657911
0.016437,0.337699,0.667961,0.969899,0.013289,-0.243145
0.471425,-0.683882,0.533066,-0.326810,0.440474,-0.836169
0.222789,0.466740,0.725376,0.729128,-0.090972,-0.678304
0.607968,0.423510,0.619819,-0.016705,-0.444245,0.895750
-0.335173,-0.648380,0.517589,0.862651,0.062656,0.501905
0.043211,0.638227,0.456340,0.141702,-0.051947,0.988545
0.462249,0.273376,0.603561,0.178776,-0.880743,0.438556
0.260077,-0.273246,0.653854,-0.508100,-0.787023,-0.349898
0.378498,-0.739364,0.530519,-0.138642,0.376053,0.916167
-0.348356,-0.223069,0.354905,-0.209132,-0.345244,0.914915
-0.076141,0.054268,0.904441,0.135619,0.960080,-0.244649
-0.054304,0.140209,0.424263,-0.439483,-0.267460,0.857508
-0.173074,-0.440211,0.717090,0.948376,-0.217509,-0.230808
-0.155302,-0.514885,0.738059,0.762690,0.220509,-0.608012
-0.296144,-0.158418,0.366643,-0.307994,-0.450957,0.837722
0.145081,-0.207677,-0.282438,0.906820,0.387658,0.165526
0.010338,0.520519,0.676466,-0.617468,-0.782132,0.083681
-0.314205,-0.266367,0.591919,0.206514,-0.549931,0.809276
0.200430,-0.408311,0.753275,0.907029,-0.126363,-0.401659
0.032523,-0.161760,0.864571,-0.610062,-0.263551,-0.747239
-0.005518,0.085711,-0.798076,0.989357,0.035092,0.141215
-0.342607,-0.070578,0.370943,-0.551698,-0.547568,0.629126
0.785863,-0.184816,0.545503,-0.240527,-0.342193,0.908323
0.375769,-0.599710,0.580469,-0.157969,-0.977239,-0.141597
-0.051516,-0.207873,0.820935,-0.679539,-0.058379,-0.731313
0.389766,0.071234,0.786804,-0.460795,0.815812,0.349455
-0.252295,0.107588,0.738319,0.502008,0.638548,0.583304
-0.201127,-0.472963,0.665318,0.720064,-0.060065,-0.691303
-0.035834,0.052435,0.904427,0.294674,-0.770149,0.565718
0.695202,-0.452003,0.674535,-0.133445,-0.603211,0.786339
-0.426531,-0.568924,0.505277,-0.675512,0.560558,0.479018
-0.594785,-0.298463,0.586810,0.923084,-0.368711,0.109396
0.255024,0.139490,0.848423,-0.435635,0.874049,0.215083
0.252584,0.181934,0.595275,0.237469,0.163736,-0.957496
-0.175281,0.493073,0.737935,0.255984,0.811454,-0.525370
0.049425,-0.763534,0.689327,-0.318109,0.730966,0.603735
-0.129574,-0.303311,0.813703,-0.060937,0.956199,0.286304
0.140841,0.203747,0.867626,0.938089,-0.149169,0.312630
-0.745441,-0.688402,0.407088,-0.454881,0.566922,-0.686792
0.040132,0.185012,-0.701613,-0.620427,0.783439,0.035978
-0.432745,0.286149,0.688985,0.889117,0.398301,0.225450
-0.003833,-0.325517,0.401267,0.953885,-0.147847,0.261238
-0.665873,-0.204205,0.637514,-0.073447,0.930471,0.358929
-0.247764,-0.233878,0.794077,-0.572930,-0.818293,-0.046358
-0.258044,-0.515277,0.698750,0.214543,0.032417,-0.976176
0.136892,0.061867,0.693751,0.001093,-0.884842,0.465890
0.090660,-0.199685,0.755453,0.964703,0.260228,0.040366
0.284528,0.054990,0.781613,-0.433609,0.842340,0.320073
-0.263330,0.697311,0.679343,0.828585,-0.162078,0.535889
0.370368,0.240886,-0.943119,-0.030545,-0.784852,0.618930
0.349634,0.263683,0.596809,0.011725,-0.303439,0.952779
0.058021,0.065011,0.291053,0.904590,-0.426023,0.014914
0.047798,0.854975,0.464790,-0.245459,-0.224640,0.943020
0.041933,0.004094,-0.402116,0.970332,-0.217848,-0.104875
-0.680625,0.301935,0.569896,-0.694294,0.164222,-0.700705
-0.338658,0.332328,0.415388,-0.248651,-0.654511,0.713994
-0.466953,-0.497724,0.551652,0.751653,-0.658543,-0.036582
-0.140086,-0.075296,0.859120,0.963799,-0.198048,-0.178514
0.120630,0.253268,0.815717,0.909014,-0.018602,0.416350
-0.508247,-0.163527,0.456422,-0.538279,0.802690,-0.256799
-0.631664,-0.472963,0.596261,0.087309,-0.547543,0.832210
0.445870,-0.913536,0.328293,0.320290,0.623614,0.713106
0.390405,0.574361,0.777970,-0.764548,0.643669,0.034019
0.818213,-0.207349,0.531368,0.352728,0.115119,-0.928618
-0.074515,-0.001343,0.906030,0.213614,0.794623,-0.568281
0.160356,-0.057609,0.893361,0.992233,-0.088420,0.087497
-0.498489,0.158878,0.518315,0.267667,-0.929844,-0.252477
0.336102,0.432875,0.728471,0.902473,0.133640,-0.409491
0.490882,-0.022303,0.776353,0.476121,0.408403,-0.778791
0.328610,0.042085,0.661606,0.059424,0.944521,0.323031
0.549308,0.520649,-0.943325,0.058159,-0.986516,0.152981
0.003891,0.343726,0.835056,-0.082140,0.047891,0.995469
0.318621,0.228506,0.597001,0.044448,-0.384293,0.922141
-0.362238,0.415518,0.759726,-0.924773,0.351125,0.146648
0.590893,0.380735,0.614354,-0.134007,-0.698687,0.702765
-0.251772,0.149248,0.420538,-0.461511,-0.714380,-0.525994
0.097630,0.050666,0.139449,0.959343,-0.277273,-0.052734
-0.365315,-0.257460,0.550570,0.815900,0.429602,-0.386974
-0.215995,0.397831,0.554816,0.559209,0.547114,-0.622857
-0.238471,-0.460911,0.761548,0.579972,0.641048,0.502682
-0.064467,0.132545,0.697682,0.756382,0.225129,0.614169
0.123939,-0.402220,0.861161,-0.378087,0.857777,-0.348236
0.163200,-0.208332,0.656894,0.798749,0.438697,0.411759
0.150598,-0.293551,0.722185,-0.541395,0.837318,0.076091
-0.092578,0.334753,0.776860,-0.648833,-0.646160,-0.401861
0.169648,0.138440,0.835398,-0.210813,-0.130542,-0.968771
-0.059879,-0.240624,0.853464,-0.490869,0.004965,0.871219
0.168718,-0.122850,0.836371,-0.707954,-0.688616,0.156875
0.127599,0.264468,0.833768,-0.360793,0.319520,0.876205
0.102045,0.150624,0.368971,-0.179065,0.345523,0.921167
0.302532,-0.538727,0.650991,-0.472623,0.633443,0.612681
0.286502,0.444601,0.745386,-0.886923,-0.055386,0.458584
-0.239168,-0.086562,0.766383,0.865334,-0.373625,0.334067
-0.331456,0.866767,0.442328,-0.397186,0.270039,0.877110
0.006156,0.021715,0.604397,0.907360,0.420184,0.011960
0.218144,-0.392985,0.256264,0.169925,0.253980,0.952166
-0.133930,-0.426980,0.126958,0.965435,-0.221454,-0.137453
0.060866,0.364164,0.837083,-0.045354,-0.508114,0.860095
0.256591,-0.403792,0.260565,0.155427,-0.600535,-0.784347
-0.356953,-0.496545,0.369464,-0.118014,-0.181416,-0.976300
0.434661,0.511283,0.776696,0.867827,-0.242051,0.433922
-0.178533,-0.239773,0.737634,-0.387822,0.581579,0.715094
-0.294634,-0.449382,0.635227,-0.159437,0.869108,-0.468221
0.022477,0.007368,0.897703,0.214116,0.975294,0.054363
0.243931,-0.443749,0.668933,0.365983,0.711378,-0.599998
-0.091591,-0.226737,0.832166,0.986451,-0.163434,0.014279
-0.087583,0.066323,0.597151,0.161285,0.423298,0.891519
-0.041351,-0.146824,0.800774,0.471146,-0.881792,0.021540
-0.024393,-0.666001,0.633392,0.126324,0.944561,0.303064
0.120978,-0.114466,0.954967,-0.294271,0.946170,-0.134783
-0.561971,-0.147545,0.578867,-0.702220,-0.126312,0.700666
-0.640957,-0.250711,0.323321,-0.173630,0.732990,0.657706
-0.048902,-0.586741,0.243308,0.038752,-0.997142,0.064854
0.391393,0.412635,-0.933559,-0.253647,0.826370,-0.502768
0.141015,-0.057413,0.841233,0.593825,0.584731,-0.552685
-0.123360,-0.270101,0.797966,0.228027,0.924485,0.305501
0.047798,-0.020338,0.969485,-0.338785,-0.932770,0.123145
0.592229,0.220057,0.446245,-0.030349,0.813964,0.580122
0.548438,0.037173,0.650389,-0.206695,-0.547486,0.810886
-0.100476,0.237678,0.763534,0.501948,-0.864879,0.005660
-0.174469,0.692792,0.735128,-0.108076,-0.957744,0.266545
0.028284,-0.109684,0.741400,0.862590,-0.206419,-0.461876
-0.320072,0.595061,0.592837,0.144545,0.767726,-0.624263
0.333082,0.208922,0.866160,0.910580,-0.106262,-0.399440
-0.549657,-0.145056,0.665290,0.950000,-0.242145,0.197143
0.090893,0.072609,0.094607,0.873894,-0.290198,-0.389994
0.510802,0.282743,0.134258,0.700325,-0.502302,0.507187
-0.000639,0.003570,0.949831,0.055664,0.985856,-0.158083
-0.365490,0.280844,0.769834,-0.526187,0.600307,-0.602294
-0.889824,-0.530016,0.372532,0.966110,-0.093501,0.240601
0.223488,-0.618903,0.498045,0.897075,-0.211382,-0.388038
-0.095423,0.104969,0.759891,-0.473458,-0.789738,0.390066
-0.471309,-0.300626,0.520178,-0.610257,-0.061163,0.789839
0.032640,0.116103,0.905797,0.810788,0.585108,0.016451
0.197468,-0.317917,0.530341,0.008207,0.668010,0.744107
-0.029910,0.561392,0.709666,0.058871,-0.737585,0.672683
-0.449530,-0.577048,0.373422,0.350177,0.159589,-0.922988
0.040249,-0.160187,0.554172,-0.949783,0.183443,-0.253497
-0.307527,0.054401,0.516603,-0.203917,0.679361,-0.704901
0.036648,0.842268,0.466420,-0.298582,-0.244526,0.922527
0.455744,-0.102676,0.662839,-0.622794,-0.511415,0.592100
0.089382,0.042806,0.093210,-0.711905,0.596848,0.370085
0.040946,-0.047326,0.857093,0.882547,-0.460975,-0.092804
0.083923,0.134444,-0.967649,-0.011408,0.983254,0.181883
0.255779,0.188091,0.692560,0.964837,-0.216425,0.149161
0.450808,-0.328464,0.668166,0.845051,0.197940,0.496697
0.205075,0.129860,0.228256,-0.408140,0.787903,-0.461119
0.620165,0.392329,0.620791,-0.086378,-0.838566,0.537909
-0.117668,0.498640,0.740565,-0.180583,0.792837,-0.582064
0.573238,-0.098810,0.639350,0.690568,-0.010661,-0.723188
0.053142,-0.093047,-0.331375,0.993680,0.112100,-0.005826
-0.017656,0.207545,0.524424,0.682386,-0.003193,0.730985
-0.036589,-0.038353,0.859079,0.525826,-0.107670,-0.843750
-0.053026,-0.592244,0.236021,-0.097946,0.978816,0.179795
-0.406958,-0.588248,0.528944,-0.546868,0.386651,-0.742587
-0.006039,0.128615,-0.526506,0.972640,-0.228652,-0.041100
-0.631781,-0.058722,0.660209,-0.687398,-0.552141,-0.471831
-0.836276,-0.590213,0.404403,0.346906,0.081832,-0.934323
-0.758915,-0.670323,0.408156,-0.496482,0.671355,-0.550261
-0.541933,-0.735236,0.584331,0.820426,0.377005,0.429847
0.136311,-0.191431,0.736182,0.955348,0.294025,-0.029329
0.396737,0.549406,0.791392,-0.727493,0.493280,-0.476895
0.137181,0.234272,0.512549,-0.701074,0.484364,-0.523342
0.406203,-0.615562,0.677768,-0.066112,-0.965993,-0.249974
0.149726,-0.504339,0.491101,-0.197809,0.360382,0.911590
-0.004878,0.195297,0.453176,0.854922,0.048381,-0.516495
0.126844,-0.560672,0.780490,0.718173,-0.291905,-0.631679
-0.504705,-0.508925,0.368382,0.448835,0.376825,0.810278
0.399698,0.453640,0.748660,0.262159,0.667186,-0.697234
-0.781450,-0.474274,0.349646,-0.615698,0.421894,0.665524
0.170345,-0.489404,-0.683903,0.955292,0.204991,-0.213062
0.213149,0.011888,0.850450,-0.215392,0.169085,0.961778
-0.757986,-0.044837,0.518987,0.391192,0.873365,-0.290178
-0.854048,-0.029771,0.513481,-0.337019,-0.668932,0.662532
-0.228076,-0.154292,0.077898,-0.806390,0.368505,0.462536
0.151180,0.004880,0.817702,0.656167,-0.645568,0.390751
-0.197583,-0.010711,0.393830,0.299167,-0.918137,-0.259852
-0.269021,-0.447679,0.769451,0.564223,0.670686,0.481491
0.330294,0.216782,0.858654,0.804918,0.515555,-0.293785
0.321930,0.193660,0.877939,0.461220,-0.634204,-0.620534
0.608782,0.107524,0.654717,-0.003557,0.059007,0.998251
-0.414392,0.230865,0.517042,0.257498,0.488203,0.833878
-0.324253,-0.217830,0.601685,0.883603,-0.092872,0.458935
0.241375,0.112895,0.825427,-0.745798,0.634804,-0.202013
-0.388895,-0.667506,0.683027,-0.557080,-0.827817,0.066185
-0.065804,-0.147741,0.842507,0.718342,-0.570680,0.397880
-0.660762,-0.141452,0.570704,0.973851,0.037646,0.224048
0.388895,0.562309,0.772272,-0.050125,-0.822970,0.565869
0.289755,-0.120361,-0.906002,-0.631345,-0.485750,0.604525
0.061157,-0.928798,0.486389,0.066358,-0.884969,0.460898
0.456382,0.088133,0.630789,-0.052410,0.855155,0.515716
-0.269138,-0.147349,0.785160,0.906922,0.273867,-0.320141
-0.765884,-0.431238,0.366150,0.267661,-0.744736,-0.611331
-0.144035,0.008942,0.518973,-0.475703,0.118567,0.871578
0.129051,-0.217502,0.674042,0.874861,0.465773,0.132942
-0.821524,-0.390298,0.358754,0.290490,-0.740093,0.606530
0.015449,0.030755,-0.500332,0.931884,-0.338774,0.129708
0.001685,-0.514362,0.773546,-0.368858,-0.033789,-0.928871
-0.291150,-0.187371,0.362780,-0.299481,-0.432245,0.850573
-0.128296,-0.174532,0.780805,-0.689642,0.723295,-0.035189
0.042688,-0.033701,0.901305,-0.766538,0.364410,-0.528796
-0.187420,-0.409229,0.738524,-0.815015,0.400231,0.419005
-0.405448,0.087544,0.784379,0.660647,0.380913,0.646878
0.212045,-0.330101,0.523520,0.387554,0.671355,0.631731
0.137647,0.107851,0.278617,0.737066,-0.604900,0.301380
0.117435,0.036716,0.901332,-0.567356,-0.763245,-0.309137
0.165177,0.441914,0.651471,0.128852,0.364783,0.922134
0.136892,0.427765,0.834837,0.416681,0.674363,-0.609600
0.023000,0.017325,0.553665,-0.004298,0.988053,0.154057
-0.048728,0.183245,0.679151,-0.716919,-0.506182,-0.479381
-0.548553,0.118068,0.529519,0.073009,0.655350,0.751788
0.501742,0.104771,0.803883,-0.773314,-0.327694,0.542772
-0.010281,-0.280058,0.892635,-0.011571,0.995986,0.088757
0.045999,0.057937,-0.398295,0.965719,-0.238316,-0.102923
-0.655129,0.151409,0.681411,0.183664,-0.014713,0.982879
-0.000407,-0.019684,0.934765,0.347184,-0.428095,0.834385
-0.298815,-0.119705,0.785324,0.758345,0.469814,-0.451871
-0.006156,-0.505190,0.457381,0.002343,0.644301,0.764768
0.252119,-0.287459,0.656429,0.597112,0.719734,0.354175
-0.201591,0.055842,0.897442,-0.158020,0.965715,0.205969
0.179347,-0.414404,0.537230,-0.309636,0.416480,0.854792
0.349344,0.123833,0.783928,-0.496274,0.362038,0.789076
0.210419,0.332656,0.820305,0.887669,-0.397537,-0.232396
-0.023755,-0.012805,0.945859,0.192915,0.978438,-0.073770
0.465152,-0.167131,0.661250,0.949798,-0.271492,0.155483
0.178418,-0.369075,0.769629,0.916138,0.334878,-0.220337
-0.498548,-0.449774,0.570731,-0.605249,-0.159855,-0.779820
-0.458415,0.242983,0.378024,0.099669,-0.553024,0.827182
0.024393,0.113157,-0.627625,0.404431,0.596118,0.693598
-0.917818,-0.579143,0.402226,-0.050079,0.128314,0.990468
0.010396,0.689123,0.745099,-0.253466,0.833154,-0.491538
-0.636426,0.113549,0.390885,0.544806,-0.729920,0.412800
-0.158032,-0.344446,0.763671,-0.406533,0.766669,0.496940
0.357242,0.000360,-0.966869,0.497158,0.661826,-0.561089
-0.411198,-0.799495,0.408882,0.152090,0.275135,0.949299
0.112557,-0.184227,0.634761,0.861027,0.484540,-0.154449
0.533279,0.024793,0.660154,-0.330016,-0.405677,0.852359
0.152341,-0.101563,0.741894,-0.281165,0.249081,-0.926771
0.074574,0.517898,0.526588,-0.120703,0.021072,0.992465
0.043617,0.023876,-0.036891,-0.637535,0.770233,-0.017063
0.006853,-0.332656,0.726458,-0.098022,-0.590539,-0.801034
-0.441224,-0.876722,0.536449,-0.677644,0.339695,-0.652231
-0.272564,0.219991,0.720404,0.995334,0.095770,0.011744
-0.437913,-0.916614,0.397473,-0.026842,-0.463050,0.885925
-0.266988,0.163659,0.359452,-0.316878,0.792466,-0.521140
0.139157,0.382373,0.840493,-0.616635,0.782785,-0.083718
0.008480,-0.306651,0.755042,0.595304,0.542735,-0.592496
0.005052,0.234467,0.455367,0.803139,-0.009858,-0.595710
0.511152,0.302329,0.157994,0.526754,-0.829988,0.183441
-0.215588,0.512854,0.791488,-0.306301,-0.720493,0.622150
0.380996,-0.571153,0.572923,-0.337619,0.890761,0.304233
0.207399,0.020274,0.768738,-0.228490,0.973546,-0.000444
0.229005,0.004684,0.619791,-0.376737,0.917663,0.126351
-0.176791,0.478270,0.629748,0.568152,-0.069210,0.820008
-0.149088,0.132611,0.881472,-0.308289,0.807055,0.503606
0.101580,0.278945,0.825044,0.432643,-0.487864,0.758162
-0.423046,0.366129,0.722801,0.288670,0.956114,0.050156
0.093913,0.035994,-0.768108,-0.275577,0.271977,0.922001
0.541003,-0.050077,0.633460,0.661194,0.679329,-0.318330
0.259611,0.390954,0.703202,0.705190,0.603730,-0.371776
-0.085666,0.062327,0.908399,0.491084,0.158942,-0.856489
-0.155361,-0.162348,0.609793,-0.347765,0.903293,0.251240
-0.344234,-0.428945,0.372655,0.077525,0.155648,0.984766
0.294808,0.277110,0.600507,-0.004761,-0.253303,0.967375
0.383319,-0.023744,0.762041,-0.123757,-0.822226,0.555544
-0.350912,0.090099,0.780449,0.626031,0.760596,0.171984
0.098443,-0.030229,0.796994,0.031539,0.319331,0.947118
0.297653,0.149378,-0.973443,0.122974,-0.209592,-0.970025
0.063886,-0.863885,0.496799,0.898512,0.315274,-0.305416
-0.268615,-0.451739,0.761986,-0.577689,-0.654702,-0.487483
0.166511,-0.243639,0.662633,0.789258,0.440402,0.427922
0.112034,0.391084,0.844780,-0.371774,0.663331,-0.649443
-0.602219,-0.112239,0.587934,-0.612042,-0.396039,0.684512
-0.124056,0.211869,0.765588,0.930509,-0.339192,-0.138211
0.082878,-0.553926,0.271508,-0.211477,0.317880,0.924246
-0.307759,0.794780,0.630789,-0.289921,-0.739790,0.607171
-0.588571,-0.043854,0.340880,0.837988,-0.001454,-0.545687
-0.862295,-0.805390,0.432179,-0.470172,0.168693,-0.866303
-0.213090,-0.507549,0.727896,0.913716,-0.039567,0.404422
-0.078987,0.373071,0.561527,0.442917,0.676013,-0.588923
0.099953,0.125864,-0.930574,-0.146881,0.985794,0.081464
-0.617726,-0.121345,0.610409,0.458968,-0.884164,0.087189
-0.689395,-0.262699,0.318158,-0.431731,0.109967,0.895274
0.827621,0.712441,-0.941517,0.371044,0.014861,-0.928497
0.486758,-0.413880,0.676891,-0.590831,-0.543731,0.596049
0.050180,-0.286149,0.581291,0.480413,0.690775,0.540400
0.225113,0.251171,0.699435,0.961122,0.273496,-0.038008
0.000698,0.098876,-0.969430,-0.165347,0.950722,0.262276
-0.550818,0.251301,0.701257,-0.234729,-0.930628,-0.280772
0.094030,-0.008024,0.452080,-0.024293,0.753642,0.656836
0.097050,-0.582221,0.276165,-0.289055,0.361381,0.886482
0.075270,-0.597222,0.418360,-0.660236,0.081745,0.746596
0.069577,-0.593882,0.517439,-0.847467,0.003365,0.530837
0.617958,0.393705,0.615354,-0.108052,-0.285234,0.952348
-0.184051,-0.238463,0.606095,0.244509,0.880472,0.406182
-0.539668,0.074902,0.666016,-0.716695,0.530370,-0.452831
-0.281102,-0.034814,0.258949,0.303349,-0.494891,0.814286
-0.789465,-0.652506,0.405910,0.074449,0.256384,0.963704
-0.048032,0.279533,0.586413,0.927050,0.116489,0.356381
0.274189,0.014509,0.768177,0.089772,-0.940459,0.327839
-0.373273,-0.524777,0.670536,-0.679323,0.733218,-0.030201
-0.076548,-0.273114,0.418867,0.399440,0.189063,0.897052
0.401440,-0.496347,0.648910,0.061539,-0.551351,0.832001
0.074863,-0.419905,0.746947,0.294323,0.595961,0.747131
-0.072192,-0.342613,0.443137,-0.691872,-0.480783,-0.538666
-0.277094,-0.046998,0.773765,-0.248588,-0.849004,-0.466258
-0.296899,-0.434710,0.777230,0.589477,0.707462,0.389890
-0.558486,-0.052565,0.701846,0.929230,-0.302330,0.212434
-0.002555,0.026824,0.417168,0.888878,0.376611,-0.260881
0.025031,-0.008156,0.563020,-0.403946,0.908936,-0.103263
0.395691,-0.225624,0.624311,-0.138913,-0.359851,0.922611
0.272564,-0.413944,0.533614,-0.327608,0.014158,0.944708
0.270996,-0.466216,0.634035,0.819927,-0.418898,0.390186
0.268208,-0.047326,-0.893032,-0.667189,-0.477096,0.572048
-0.310605,-0.536633,0.652635,0.664511,-0.720299,-0.198983
0.216052,0.108243,0.813895,0.922246,0.314673,-0.224594
0.055233,0.671436,0.515891,0.579000,-0.402692,-0.708941
-0.221222,-0.253921,0.818716,-0.041974,0.848885,0.526908
0.236961,-0.327218,0.678589,0.716402,0.219605,-0.662225
-0.609596,-0.371434,0.599370,0.858368,-0.147345,0.491419
-0.218840,-0.285298,0.818785,0.854927,-0.491716,0.165274
0.138168,-0.042478,0.908495,-0.742775,-0.560316,0.366513
0.171681,-0.564666,0.184660,0.821588,-0.568780,0.038494
-0.505226,-0.540430,0.492361,-0.078298,0.452068,0.888540
0.598385,0.468771,-0.951447,-0.236143,-0.123100,-0.963890
0.558369,0.166214,0.113166,-0.476912,0.759562,-0.442290
0.020908,0.955523,0.466133,-0.037579,-0.142048,0.989146
0.465384,0.377133,0.605657,-0.278379,0.622707,0.731260
-0.281217,0.642879,0.617709,0.443705,0.562899,-0.697331
-0.199849,-0.056431,0.814635,-0.649446,0.026831,-0.759934
-0.047335,-0.462024,0.609012,0.141022,0.667064,0.731531
0.424266,0.267481,0.608204,-0.206687,-0.735818,0.644866
-0.308050,0.782530,0.630721,-0.477286,-0.647564,0.594019
-0.610001,-0.766874,0.391214,-0.266923,0.706407,-0.655547
0.245267,-0.409033,0.262072,-0.151597,0.551045,0.820590
0.984435,0.816263,-0.928697,-0.368837,0.100796,0.924013
-0.738529,-0.438968,0.639226,0.991800,0.075421,0.103171
-0.028923,-0.771002,0.705722,0.367308,0.757883,0.539164
0.081485,0.604690,0.278822,-0.072924,-0.506010,0.859439
-0.805843,-0.692987,0.377162,0.905392,0.277889,0.321004
0.242188,0.038287,0.907769,0.772458,-0.635065,0.001140
-0.437390,-0.008482,0.625147,0.035098,0.129340,0.990979
0.025612,0.045427,0.460271,-0.458476,-0.503554,-0.732280
0.175049,-0.088985,0.864037,0.310072,0.496686,0.810653
0.025671,-0.778600,0.682958,-0.680588,-0.605699,-0.412225
0.230107,-0.443290,0.261387,-0.147636,0.457520,0.876858
0.312580,-0.313725,0.642869,-0.311653,-0.015815,0.950064
-0.556336,-0.153374,0.670604,-0.614180,-0.156814,-0.773429
-0.103787,0.009465,0.593371,0.119234,-0.129558,0.984377
-0.145604,-0.240952,0.623613,0.395972,-0.127825,0.909322
0.037403,0.695280,0.690396,-0.581838,0.629207,-0.515329
0.064468,-0.028919,0.877788,0.504279,0.758463,-0.412839
-0.301254,0.281564,0.703626,0.829287,0.349858,-0.435755
0.063307,0.108439,-0.512508,0.969561,-0.230092,-0.083721
0.093101,0.077261,0.898141,0.744612,0.460757,0.482966
0.069926,-0.018111,0.846930,0.874124,0.484290,0.037013
-0.230283,-0.082304,0.777668,0.552835,-0.816770,0.165108
-0.151121,0.461305,0.618750,0.868929,0.264657,0.418234
-0.150657,0.192481,0.770026,0.275118,-0.946552,-0.168374
-0.546347,-0.926899,0.405143,-0.566785,-0.733045,-0.376031
0.399234,-0.147807,0.526040,-0.009013,0.307747,0.951426
-0.541293,-0.453313,0.367245,0.355975,0.317478,0.878914
0.123184,-0.331542,0.794241,0.233262,0.811324,0.536043
0.411836,-0.317393,0.642308,0.463529,0.543109,0.700124
0.145662,-0.305669,0.724664,-0.760610,0.624554,-0.177215
-0.178418,-0.120493,0.344373,0.229792,-0.469451,-0.852533
-0.393426,0.557790,0.587153,0.810963,0.584785,-0.019116
-0.134859,0.282285,0.749728,0.456449,0.047175,0.888498
-0.279359,0.754822,0.621038,0.378632,0.628849,-0.679107
-0.105529,0.666787,0.601918,0.671294,-0.165535,0.722470
-0.448020,0.137131,0.379106,0.005246,-0.488739,0.872414
-0.660820,-0.246389,0.614491,0.979411,0.154671,-0.129737
-0.220873,-0.133069,0.695682,-0.874746,-0.093016,0.475570
-0.286910,-0.563619,0.683547,0.025118,-0.993964,0.106794
0.088395,0.133790,-0.550337,0.977409,0.031184,0.209044
0.208851,0.047916,0.890129,-0.557077,0.570429,0.603553
0.342142,0.375496,0.735552,0.985239,0.011843,-0.170773
0.198744,0.006845,0.748276,-0.128595,0.813975,-0.566487
-0.034558,0.050600,0.047396,0.784965,-0.508165,0.354399
-0.271112,-0.326893,0.763589,-0.090678,-0.645284,0.758542
-0.021896,0.628730,0.709502,0.802109,-0.260104,0.537557
-0.080671,0.432811,0.744373,-0.123020,-0.477282,0.870096
0.083576,-0.105492,0.799664,-0.127903,-0.949861,0.285314
0.400685,-0.006059,0.686355,0.483185,0.819651,0.307740
0.002672,-0.026497,0.413279,0.997514,0.066680,0.022784
-0.271518,-0.273376,0.354617,-0.153883,0.039093,0.987315
-0.056162,-0.185864,0.648841,0.785117,-0.612942,0.088845
-0.005983,-0.541218,0.769738,0.494394,0.256676,0.830477
0.160297,-0.273376,0.854436,-0.234116,0.821298,0.520250
-0.552445,0.072152,0.577100,-0.437093,0.717091,0.542890
-0.533163,-0.289423,0.510755,-0.725012,-0.159243,0.670074
0.123766,-0.100711,0.599315,0.864874,0.190572,-0.464408
0.040538,-0.774866,0.475295,0.720589,0.684217,0.112245
-0.068881,0.118134,0.887663,0.499281,-0.475887,0.724051
-0.266873,-0.289360,0.829029,0.348581,0.935321,-0.060546
0.212277,-0.347066,0.794748,0.210124,0.747555,0.630087
-0.197004,-0.195689,0.620969,0.205079,-0.934257,-0.291731
0.203275,0.276258,-0.984578,0.314213,0.027844,-0.948944
0.444128,-0.024727,0.682958,0.314719,-0.277836,0.907612
-0.177431,-0.251891,0.742537,-0.221380,0.595282,0.772418
0.069926,-0.039138,0.906071,-0.222117,-0.924313,0.310336
-0.261935,-0.453902,0.571402,0.379618,0.391395,-0.838272
0.281857,0.047784,0.783845,-0.433609,0.842340,0.320073
-0.076722,-0.171649,0.827906,0.951041,-0.224200,-0.212735
-0.228831,-0.488815,0.696408,0.211030,0.389072,-0.896710
0.500232,0.277766,0.599069,-0.614893,-0.234665,-0.752887
-0.163144,-0.187829,0.342989,-0.223933,0.495033,0.839522
0.479092,-0.490126,0.557144,0.726067,0.173700,0.665323
0.200721,-0.056495,0.856641,0.284157,0.790267,0.542893
0.244686,-0.085579,0.853546,-0.250539,-0.384130,0.888636
0.046056,-0.177152,0.385653,0.861439,-0.249292,-0.442467
0.142699,0.012216,0.889389,-0.029996,-0.999142,0.028572
-0.114937,-0.161104,0.709721,0.282398,-0.932597,-0.224753
-0.388257,0.144925,0.438165,-0.132321,0.990745,-0.030251
-0.139912,0.210166,0.639418,0.312801,0.949815,-0.002516
-0.313973,-0.106998,0.608519,-0.700425,0.445474,-0.557635
-0.654142,-0.163593,0.605301,-0.434147,0.832857,-0.343316
0.019689,-0.731830,0.687259,0.070564,0.698603,0.712021
-0.187014,-0.498640,0.723541,0.859975,-0.211775,-0.464321
0.172378,-0.340254,0.782832,0.798843,0.550166,0.243243
0.448194,-0.018766,-0.967951,0.948078,-0.055257,0.313201
-0.655476,-0.083222,0.588249,0.916760,-0.373137,-0.142548
-0.131839,-0.321127,0.737374,-0.009061,0.570601,0.821178
0.419677,-0.398092,0.649033,0.002624,0.380361,0.924835
-0.276339,0.127763,0.426413,-0.389457,-0.921045,-0.000099
-0.208794,0.045819,0.839356,-0.568199,0.791207,-0.226146
-0.706412,-0.411980,0.359124,-0.705700,0.362445,-0.608786
-0.404866,-0.155012,0.530218,0.905505,-0.058780,-0.420244
-0.263853,-0.547965,0.267194,0.451738,0.135939,0.881733
-0.650599,-0.524972,0.491224,-0.102890,-0.923233,0.370209
-0.277906,-0.059510,0.833919,0.723933,-0.514533,0.459540
-0.504821,-0.111781,0.447958,-0.768394,0.520896,-0.371803
0.157568,0.536829,0.381462,0.936245,-0.107918,-0.334363
-0.014521,0.043002,0.855354,0.739665,-0.636137,-0.219602
-0.246137,0.555955,0.585400,-0.211132,-0.798002,0.564461
-0.173074,-0.285625,0.736210,0.562401,-0.351836,-0.748276
-0.221745,0.699144,0.604657,-0.132578,-0.416244,0.899536
0.298583,0.384274,0.729676,0.319305,0.831084,-0.455350
-0.038331,0.029903,-0.693861,0.878355,-0.454890,-0.146858
0.006679,-0.536239,0.775422,0.294499,0.202819,0.933882
-0.576258,-0.018570,0.662702,0.761558,-0.151751,-0.630081
-0.186259,-0.033701,0.811950,-0.705240,0.459728,-0.539709
0.301892,0.021255,0.459668,0.293993,-0.169924,-0.940582
-0.321118,-0.092457,0.617970,0.481893,-0.598629,0.639862
-0.021722,-0.102478,0.828728,0.864417,-0.483944,0.136312
0.466139,0.080535,0.792364,0.624897,0.470715,-0.622842
-0.581832,-0.096257,0.623311,0.231859,-0.699701,0.675766
-0.457486,0.133135,0.545612,-0.424419,-0.679093,-0.598916
0.136194,0.076016,-0.599480,-0.583742,0.797627,-0.151778
-0.384074,0.286739,0.664085,0.053703,0.865302,0.498365
0.474794,-0.030556,0.639993,0.840848,-0.281125,0.462540
-0.080556,-0.288966,0.846602,0.987124,0.153731,0.044185
0.181439,0.066124,0.877364,0.885314,0.044372,-0.462871
0.071495,-0.017719,0.887115,0.004303,-0.936945,0.349450
-0.747183,-0.144401,0.338497,0.842949,0.348223,0.410094
-0.367871,-0.535125,0.692382,0.169370,0.712954,0.680448
-0.732547,-0.261782,0.669016,0.503984,-0.863567,-0.015864
-0.363516,-0.573576,0.370793,-0.111619,0.298666,0.947808
-0.073122,-0.397177,0.137312,0.744738,-0.199199,-0.636934
0.558195,0.218158,0.646787,0.616855,0.688589,0.381228
0.214601,-0.019552,0.623626,0.821803,-0.384765,-0.420233
0.258160,0.294927,0.725307,0.613563,-0.736666,-0.284366
0.483855,0.280516,0.188481,-0.663483,0.676737,-0.319088
0.362236,-0.198703,0.683356,-0.416357,0.157421,0.895469
-0.293647,0.321913,0.422839,-0.513403,-0.263814,0.816590
-0.634860,0.034291,0.716268,-0.601345,-0.786678,0.139724
-0.427110,-0.723840,0.393953,-0.160318,0.138727,-0.977268
-0.216110,-0.307502,0.734936,-0.725472,0.374590,-0.577384
0.007144,0.133266,-0.995836,-0.329953,0.821219,0.465543
0.039841,0.048767,0.070735,0.988708,0.148166,0.022425
-0.026717,0.649427,0.581318,0.912334,-0.401508,0.080233
0.598617,-0.268660,0.511714,0.415654,0.701536,-0.578859
0.123649,0.494514,0.522739,-0.074944,-0.029974,0.996737
-0.255894,-0.615432,0.707461,-0.316740,0.881004,0.351435
-0.200953,0.083222,0.874186,-0.310988,0.507190,0.803769
-0.121036,0.103068,0.834220,0.915291,-0.347655,-0.203417
-0.345336,0.074378,0.507235,0.016413,-0.648734,0.760838
-0.536822,-0.809910,0.390721,0.389819,-0.054399,-0.919284
-0.429492,-0.256870,0.339894,-0.742395,0.524412,0.416944
0.191196,0.210100,-0.967143,-0.602260,0.638651,0.478965
0.131142,-0.336718,0.196918,-0.681686,-0.533295,0.500900
-0.231444,0.323552,0.799610,0.929348,0.324998,0.175182
-0.475666,0.721941,0.454819,0.748682,0.528356,0.400395
0.188987,-0.598663,0.518863,0.835253,0.455549,0.307940
0.461262,-0.031212,0.645746,-0.623803,0.324515,-0.711027
0.434255,0.063308,0.789707,-0.619363,0.672458,0.405204
-0.507841,0.444405,0.735046,-0.705281,0.465105,-0.535028
-0.242885,-0.450364,0.662702,-0.343730,0.132797,0.929632
0.658032,0.044576,0.674590,-0.534026,-0.562401,0.631285
0.260715,-0.159335,0.867858,0.942036,-0.004141,-0.335486
-0.051052,0.241738,0.724896,0.991869,0.117575,0.048694
0.376815,0.035076,0.803445,-0.318473,0.867128,0.382968
0.650540,-0.286083,0.518507,-0.397661,-0.467023,0.789781
-0.257463,0.016212,0.752810,0.601371,0.426020,0.675914
0.042514,-0.000949,0.965403,0.757342,0.644974,-0.102190
0.218899,0.056955,0.891854,-0.534300,0.571811,0.622539
-0.568998,-0.153636,0.607478,-0.148445,0.964653,0.217734
-0.105588,-0.245734,0.741072,-0.422026,0.427762,0.799321
0.217505,-0.229424,0.605479,0.286597,0.876635,0.386488
0.590370,0.161956,0.471597,0.089885,0.643793,0.759902
-0.745847,-0.563161,0.396788,0.387972,0.401331,0.829705
0.063190,0.181672,0.666838,-0.088329,-0.165617,0.982226
0.373388,-0.407330,0.611258,-0.502450,0.820723,-0.271951
-0.489314,0.144597,0.525780,0.146255,-0.832277,-0.534720
0.001975,-0.207021,0.813073,-0.684054,0.726283,0.067698
-0.261878,-0.205450,0.345400,-0.245047,-0.115230,-0.962639
-0.165409,-0.226869,0.614765,-0.544983,-0.173653,-0.820267
-0.710999,-0.390626,0.317884,0.090870,-0.299563,-0.949739
0.434314,-0.586807,0.520425,-0.294657,0.652872,0.697808
0.600709,0.445453,0.627393,-0.505197,0.096866,0.857551
0.177720,0.001473,0.624297,-0.610198,0.779674,-0.140591
0.047856,0.519601,0.507934,-0.409524,-0.882241,0.232251
-0.632536,-0.539645,0.369026,-0.220382,-0.854410,0.470549
-0.433615,-0.585236,0.675302,-0.600598,0.767110,-0.225444
0.477639,-0.814758,0.550228,0.184912,-0.834736,-0.518674
0.350040,0.061343,-0.956843,0.502292,-0.154828,-0.850724
-0.102103,0.650477,0.746304,0.125369,0.924831,-0.359125
-0.001975,0.068811,0.589331,0.778978,0.575846,0.248182
0.103670,0.062522,-0.077377,0.688227,-0.723512,-0.053609
0.423858,0.118134,0.156761,0.844597,-0.418106,0.334429
0.151818,0.227721,0.840370,0.979610,0.069766,0.188406
-0.364677,-0.433465,0.486362,-0.509587,-0.347403,-0.787167
-0.220990,-0.206104,0.758219,0.986261,0.113408,0.120116
-0.655071,-0.560083,0.481924,0.195215,0.858950,-0.473387
-0.059879,0.066714,0.875556,0.276355,0.389121,0.878756
-0.560983,0.125275,0.630105,0.591045,0.754334,0.285738
0.368394,0.228768,-0.966965,0.516888,0.579535,-0.630052
0.412591,0.522550,0.767752,0.499578,0.533868,-0.682207
0.024508,-0.326957,0.393789,0.979250,0.015525,0.202060
0.195726,-0.194707,0.435083,-0.243466,0.134912,0.960481
-0.175862,-0.163987,0.456559,-0.746297,0.335532,-0.574855
0.105877,0.954737,0.375463,-0.517781,0.381267,-0.765858
-0.736265,-0.115449,0.331936,0.805894,0.235638,0.543148
0.379429,0.207349,-0.972607,0.430823,0.313392,-0.846272
-0.602451,-0.377197,0.601055,0.858368,-0.147345,0.491419
-0.407887,0.684670,0.441808,0.612477,0.654318,-0.443554
-0.490824,-0.746240,0.548680,-0.633213,0.423254,-0.647995
0.039086,0.100579,0.932231,0.974642,-0.117107,-0.190680
-0.427633,-0.185864,0.362739,0.109456,0.236832,0.965365
0.075154,-0.013133,0.499141,0.946912,-0.254350,-0.196629
0.413636,0.095732,0.778326,-0.616868,0.509586,0.599829
0.211058,0.044640,0.676494,0.075561,-0.769744,0.633864
-0.540771,0.307373,0.407636,0.775019,0.202835,0.598501
0.484899,-0.006387,0.652525,-0.217272,0.632344,-0.743595
-0.421072,0.165690,0.522109,0.077508,0.519170,0.851149
0.052677,0.015164,-0.443082,0.924948,-0.301317,-0.231686
-0.014288,0.630301,0.718898,0.338152,-0.567387,0.750816
0.344408,0.216323,0.598425,0.057677,-0.418032,0.906600
-0.543094,0.517506,0.421661,-0.696197,0.701860,0.150673
0.100767,0.181606,0.809183,0.902051,0.275385,-0.332368
0.032931,-0.457832,0.595206,0.111957,0.661482,0.741557
-0.234000,-0.317131,0.830084,0.443764,0.867227,-0.225813
-0.255139,-0.632922,0.729197,-0.107816,0.988132,0.109408
0.419677,-0.014247,0.782558,-0.343237,-0.865665,0.364434
-0.454234,-0.156453,0.636775,0.914239,0.168118,0.368651
-0.752992,0.107326,0.526958,0.363062,-0.347789,-0.864424
0.018470,-0.025971,0.910139,0.945557,-0.316428,0.076120
0.353060,-0.005273,0.818004,-0.296405,0.907216,0.298500
0.171738,0.069335,-0.884047,-0.620372,-0.738148,0.265096
0.241492,0.264468,-0.978853,-0.214345,-0.076929,0.973724
0.317575,0.272066,0.720911,-0.270202,0.592699,-0.758748
-0.255953,-0.270625,0.826920,-0.377816,-0.908520,-0.178454
0.065455,-0.003176,-0.530738,0.984082,-0.176754,-0.018462
-0.750377,-0.009531,0.516836,0.829802,0.246573,-0.500630
-0.064294,0.296826,0.792337,0.003500,0.991823,0.127570
-0.358463,0.629777,0.444917,0.169588,0.010682,0.985457
-0.498316,0.164117,0.509399,0.159115,-0.617898,-0.769990
-0.570682,0.127631,0.565664,-0.726113,0.394940,0.562834
-0.409861,-0.455606,0.501277,-0.102664,0.993972,0.038477
0.294400,0.534797,0.770149,-0.048752,-0.836865,0.545235
0.377919,-0.242851,0.677987,-0.608964,-0.553539,0.568117
0.029039,-0.468837,0.590892,0.111957,0.661482,0.741557
-0.239632,0.153506,0.635788,-0.325545,-0.925742,0.192409
0.110524,0.064815,0.954350,0.188956,-0.925930,-0.327031
0.033395,0.162808,0.859750,-0.056378,-0.456185,0.888097
0.016205,0.150756,-0.844054,0.961698,-0.249780,-0.112903
-0.368103,-0.465037,0.531847,0.885193,0.203614,-0.418300
0.309501,0.081059,0.652621,0.018044,0.985573,0.168283
0.731386,0.065471,0.692039,0.980167,0.158109,-0.119472
-0.684284,-0.407592,0.592796,0.931537,-0.035822,0.361879
-0.581426,-0.188223,0.618709,-0.051950,-0.226275,0.972677
0.263503,0.197852,0.849012,-0.168863,0.976226,-0.135901
-0.544140,-0.333311,0.586770,-0.362027,-0.409828,-0.837244
0.368044,0.089379,-0.971525,-0.323210,-0.219167,-0.920598
0.123360,0.277306,0.812676,0.942621,0.135699,0.305044
-0.348473,-0.557330,0.652210,-0.288537,0.911887,0.291906
-0.461378,0.037501,0.525533,0.432966,-0.212428,0.876022
-0.055871,-0.453706,0.412169,0.949337,-0.274761,0.152529
-0.134742,0.089511,0.874350,0.103986,-0.989124,0.104026
0.199966,-0.350145,0.781435,0.531631,-0.546004,-0.647493
0.351492,-0.333835,0.257305,-0.215457,0.613767,0.759518
0.480835,-0.488685,0.658346,0.305037,0.055253,-0.950736
0.203392,-0.265320,0.679178,0.790248,0.499603,0.354831
0.033278,-0.030426,0.720719,0.621334,0.622063,-0.476425
-0.099896,-0.612354,0.119754,0.944050,0.072588,-0.321715
0.449587,0.168441,0.459011,-0.184553,0.684150,0.705606
-0.457894,-0.718206,0.524766,-0.791739,-0.111036,-0.600684
0.081194,0.336260,0.839603,0.671033,-0.015322,-0.741269
-0.063016,0.246193,0.861586,-0.288129,-0.099920,-0.952364
-0.341736,-0.460649,0.569334,0.324714,-0.743451,-0.584672
0.328087,-0.547309,0.594111,-0.258419,-0.894955,0.363697
0.166511,-0.232045,0.518274,0.710063,0.557349,0.430317
-0.207167,-0.418006,0.498935,-0.692319,0.697554,0.184693
-0.193984,-0.245604,0.632734,0.909308,0.225178,0.349934
0.309328,0.044903,0.788242,0.089778,0.814739,0.572835
-0.170054,0.402876,0.332361,-0.551921,-0.817906,0.162521
0.424730,0.265976,0.599548,0.906923,0.317633,-0.276767
-0.048728,-0.115186,0.890827,-0.465907,-0.827647,-0.312939
0.375595,-0.046474,0.521740,0.020280,0.386521,0.922058
-0.184806,0.270167,0.396446,0.440782,0.869952,-0.221124
-0.051807,0.271871,0.424318,0.238567,0.005924,0.971108
0.025090,-0.057413,0.493744,0.998334,-0.010996,0.056636
-0.759902,-0.567091,0.386023,-0.750930,0.172627,0.637420
-0.058021,-0.217634,0.909974,-0.072753,-0.456952,0.886511
0.417761,0.399338,-0.958295,0.110622,-0.878968,0.463873
-0.302996,-0.583861,0.626365,0.782710,0.305840,0.542058
-0.029678,0.301084,0.314843,-0.361751,-0.713090,0.600531
0.474968,-0.639407,0.710022,0.113535,0.989502,-0.089416
0.133349,0.271934,0.883253,-0.271228,0.526063,-0.806035
-0.619119,0.153310,0.682808,-0.508693,-0.368466,-0.778116
-0.757579,-0.707070,0.403321,-0.212403,0.324067,-0.921881
-0.690382,-0.777027,0.400281,0.245472,0.086888,0.965502
-0.329306,0.233420,0.683931,-0.200637,0.901824,0.382698
-0.339935,-0.475387,0.663085,-0.699117,0.710737,-0.078020
-0.635556,-0.199031,0.454436,-0.183348,0.936403,-0.299221
-0.453073,-0.241738,0.636241,0.864677,0.114651,0.489070
-0.055697,-0.420103,0.760521,0.373305,0.730020,0.572463
-0.038099,0.133331,0.630091,-0.316937,-0.799427,0.510359
0.370136,-0.113485,0.665277,-0.271118,0.751038,-0.602027
0.350854,-0.021583,-0.959664,0.498324,0.721377,-0.480924
0.072947,-0.334491,0.801883,-0.551895,-0.726202,-0.409929
0.036706,0.000492,-0.630885,-0.408913,-0.880940,-0.238190
0.263968,-0.000622,0.793268,-0.006587,0.849400,0.527708
0.222848,-0.062588,0.437726,-0.270426,-0.270521,0.923953
-0.519863,-0.279992,0.508180,-0.681095,-0.184682,0.708521
0.110873,-0.335210,-0.679959,0.936176,0.249142,-0.247999
0.132304,0.315103,0.673508,-0.675967,0.573480,0.462806
0.441515,0.286083,0.592686,0.373414,0.387094,-0.843042
-0.643280,-0.160581,0.542572,0.994159,-0.015477,-0.106809
-0.610292,0.077655,0.682972,-0.386860,-0.088261,-0.917905
0.092867,-0.232568,0.801610,-0.750969,-0.188114,0.632976
-0.431699,-0.575868,0.683863,-0.782421,0.447706,0.432870
-0.140841,-0.164707,0.814251,0.110420,-0.993018,-0.041512
-0.461552,-0.506697,0.579675,-0.526347,0.307973,-0.792535
0.016842,0.900239,0.465407,-0.157015,-0.177080,0.971591
-0.295505,-0.478990,0.722171,0.843870,0.325551,-0.426498
-0.674876,-0.270167,0.326554,0.505995,0.851192,-0.139431
0.350795,-0.029903,-0.963157,0.485402,0.778967,-0.396983
-0.531653,-0.500998,0.304503,-0.654620,0.423395,-0.626266
-0.274189,0.777421,0.637583,-0.244762,-0.550333,0.798264
-0.195086,-0.454754,0.500866,0.849182,-0.426050,-0.312042
-0.103032,0.248812,0.676275,0.504918,-0.741624,0.441646
0.270531,0.391346,0.719938,-0.576104,-0.746973,0.331866
0.123707,0.428029,0.447341,0.029600,-0.029759,0.999119
0.102335,0.444535,0.860271,0.898456,0.392813,-0.196148
-0.047450,-0.720629,0.660771,-0.008550,0.635106,0.772378
-0.233883,0.269905,0.655552,0.231972,-0.417870,0.878393
0.279416,-0.140995,0.888430,-0.501730,0.609639,-0.613683
-0.314613,-0.589362,0.507906,0.948058,-0.049040,0.314295
-0.107445,-0.665541,0.484308,0.292213,-0.276396,-0.915542
0.276687,0.182066,0.840110,0.147224,-0.989078,-0.007018
0.123243,-0.080143,0.692436,0.871990,0.197891,0.447741
-0.125334,0.946877,0.469351,-0.163845,-0.430197,0.887741
-0.013475,0.008220,0.907810,-0.383550,-0.897115,-0.219259
0.463119,-0.131627,0.533327,0.316259,0.122848,-0.940685
0.055524,0.004290,0.945763,0.570654,-0.740893,0.354163
0.470902,-0.607637,0.707749,-0.757435,0.646488,0.091351
0.688001,0.495759,-0.946680,0.149058,0.129514,0.980310
-0.061796,0.191433,0.701914,0.872132,0.339771,-0.352053
-0.495237,0.161039,0.520137,-0.468417,0.861981,-0.193842
-0.887908,-0.765041,0.433768,0.746536,-0.089702,0.659271
-0.543036,0.253070,0.523684,0.020692,-0.515815,0.856450
0.190033,-0.200013,0.845054,0.973075,-0.131293,-0.189437
0.349925,0.261848,0.219955,0.611227,-0.714852,0.339689
0.228714,0.353879,0.707256,0.983928,0.151984,-0.093734
0.039145,-0.002848,0.291834,0.858203,-0.504643,-0.093933
-0.177431,-0.070382,0.794884,0.231474,0.643704,-0.729428
0.044953,0.032588,-0.036562,-0.637535,0.770233,-0.017063
-0.831514,-0.602331,0.369916,0.019444,0.223127,0.974595
0.314902,-0.457898,0.662606,0.368270,0.533294,0.761561
0.245964,-0.333901,0.675124,0.842203,0.387148,-0.375247
-0.531479,0.035536,0.354083,-0.572766,0.339897,-0.745929
0.039726,-0.007172,0.326609,-0.317104,0.932691,0.171852
0.105762,-0.056889,0.683863,-0.051572,0.277790,0.959257
0.597166,0.172043,0.659346,0.084800,0.185956,0.978892
-0.057847,-0.647005,0.479240,0.061389,0.260506,0.963519
0.010279,-0.057085,0.518768,0.352050,-0.755881,0.552000
0.507550,-0.587265,0.489690,-0.019594,0.860018,0.509887
0.050412,0.025185,0.895141,0.556373,0.488941,-0.671852
0.523463,-0.187239,0.537655,0.809669,0.576556,-0.109630
-0.032872,0.084204,0.689957,0.665220,0.593016,0.453667
0.015217,0.135819,0.850190,0.622618,-0.097097,0.776478
-0.257986,-0.659384,0.757850,0.999529,0.029209,-0.009450
-0.572947,0.059182,0.354015,0.560337,-0.364774,0.743614
0.434602,0.375822,0.598809,-0.521968,0.175916,0.834627
0.171100,-0.577506,0.794104,-0.741970,0.298867,0.600132
-0.204553,-0.343660,0.635419,0.963344,-0.183212,-0.195965
0.348415,0.482592,0.751111,0.204707,-0.827009,0.523595
-0.014345,0.104969,0.434617,0.542243,0.665726,-0.512622
0.394181,0.302395,0.601424,0.100096,-0.487446,0.867397
-0.726274,-0.698686,0.398678,0.497254,-0.024258,0.867266
0.056802,0.041235,0.501524,0.906491,-0.385455,0.172334
0.335928,0.352765,0.741524,0.975376,-0.189974,-0.112032
-0.629284,-0.440081,0.372779,0.043002,0.706271,0.706635
-0.334359,0.189402,0.743291,0.068369,-0.408033,0.910404
-0.650308,-0.139553,0.671166,-0.200992,-0.642671,0.739308
-0.068360,0.788819,0.396925,-0.028684,-0.087061,0.995790
0.584679,0.055382,0.665674,-0.179505,0.585965,0.790204
0.139854,-0.056757,0.861339,-0.384094,-0.545793,-0.744702
-0.224707,-0.345757,0.361876,-0.191621,0.304388,0.933075
0.248170,0.074051,-0.887663,0.984607,0.082600,-0.154034
-0.784296,0.190384,0.400596,-0.583503,-0.792124,-0.179063
0.066733,-0.006844,-0.525739,0.968620,-0.230030,-0.094140
-0.291382,0.408705,0.739908,-0.673786,0.730192,-0.113275
0.031827,-0.044771,0.608423,0.826237,0.528924,0.193834
0.232140,0.018439,0.666331,0.022239,-0.971560,0.235747
0.140086,0.167000,0.854573,0.205698,-0.346710,0.915140
-0.303519,-0.341367,0.565116,-0.726851,0.113073,0.677423
0.439074,-0.258899,0.683547,-0.088129,-0.311324,0.946209
-0.391742,-0.744014,0.544393,-0.488609,0.837172,-0.245774
0.516378,0.363770,-0.958144,0.498978,0.518278,-0.694557
-0.205366,-0.012412,0.794980,-0.713314,0.276786,0.643873
-0.280926,-0.388727,0.548571,-0.733431,0.644372,-0.216482
-0.305611,-0.483967,0.534135,0.884775,-0.322313,0.336582
0.261180,-0.450562,0.543969,-0.350866,0.302832,0.886107
-0.545418,-0.417875,0.591919,0.772303,-0.090427,0.628786
0.268090,-0.130710,0.522328,-0.239996,-0.009608,0.970726
-0.313916,-0.426194,0.364739,0.006355,0.450138,0.892936
-0.472180,-0.736809,0.547995,-0.633213,0.423254,-0.647995
0.073528,-0.033571,0.717829,0.847882,-0.057024,0.527109
-0.545824,-0.884910,0.398980,0.862070,-0.114680,0.493643
-0.027995,-0.524448,0.721144,-0.320311,-0.084115,0.943571
-0.454119,-0.130318,0.638418,0.917499,0.159567,0.364327
0.321697,-0.602069,0.685123,0.141321,0.872607,0.467530
-0.476885,-0.469818,0.314405,-0.660373,0.672273,-0.334599
0.145951,0.663185,0.296189,-0.008483,-0.255698,0.966720
0.617029,0.350735,0.594631,-0.055532,-0.645222,0.761974
-0.052504,0.653032,0.728841,0.010489,-0.959415,0.281801
0.047973,0.968952,0.471104,0.112216,-0.056039,0.992102
0.217911,0.051780,-0.896566,0.994329,0.081710,0.068062
-0.337961,-0.047784,0.340675,0.330300,0.614788,0.716196
-0.062202,0.398357,0.551995,0.860094,0.416380,-0.294732
0.197178,-0.458488,0.650046,0.207816,-0.440664,0.873285
0.011789,0.546262,0.678809,-0.523262,-0.851699,0.028384
-0.336974,-0.204990,0.355631,-0.264329,-0.385567,0.884007
0.047218,0.020798,0.742167,0.856511,0.515486,-0.025751
-0.168661,-0.266433,0.732224,-0.547201,0.592207,0.591491
-0.025729,-0.097435,0.815251,0.519887,-0.642342,0.563129
0.988093,0.810696,-0.929533,-0.368837,0.100796,0.924013
0.329656,-0.464513,0.546078,0.415505,0.889247,0.191297
-0.242130,-0.204860,0.789420,-0.499050,-0.861547,-0.093198
-0.749449,0.085121,0.540654,-0.434946,0.771255,0.464745
0.541643,-0.179575,0.523999,0.420109,0.725271,-0.545427
-0.212801,-0.450888,0.750577,-0.338208,0.802673,0.491255
-0.388025,0.209904,0.744825,-0.012162,-0.996167,-0.086624
-0.130270,0.034814,0.520712,-0.449755,0.164857,0.877805
-0.548553,-0.496611,0.577483,0.123975,0.069596,0.989842
0.275409,-0.319686,0.643993,-0.330401,-0.365849,0.870052
-0.687827,-0.335472,0.364739,0.754207,0.182172,0.630861
-0.368277,0.132217,0.420045,0.054629,0.915532,0.398519
-0.551109,-0.666982,0.575799,-0.703736,-0.149778,-0.694494
0.311361,0.212916,0.858545,-0.816876,-0.382708,0.431564
-0.105355,0.700651,0.598398,0.807077,-0.117250,0.578688
-0.307004,-0.096845,0.820935,0.057357,-0.741452,0.668550
-0.879022,-0.652506,0.394775,0.693356,0.239608,-0.679592
0.509351,-0.568728,0.485184,0.011881,0.828014,0.560581
0.024799,0.286477,0.857901,-0.327239,0.926601,0.185269
-0.065164,-0.318377,0.751933,-0.105673,0.285360,0.952577
-0.262458,0.526480,0.778860,-0.784474,0.541517,-0.302258
-0.769601,-0.413683,0.623708,0.764716,-0.641114,0.064677
-0.183007,0.525168,0.772642,0.396359,-0.096243,0.913037
-0.345627,-0.187109,0.557377,-0.555218,0.642669,-0.527930
0.057614,0.074444,0.944434,-0.652743,0.524167,0.546969
-0.317633,-0.502506,0.635912,0.936844,-0.347504,-0.039551
-0.481357,-0.742966,0.549844,-0.633213,0.423254,-0.647995
0.006040,-0.712703,0.685670,0.404553,0.739340,0.538250
0.256011,0.368683,0.721897,0.726315,0.342925,-0.595709
-0.199965,-0.339272,0.465215,0.107269,0.508225,0.854518
-0.406144,-0.452461,0.370272,-0.170791,0.439052,0.882079
0.125625,-0.000556,0.925177,0.210929,-0.974693,-0.074049
0.431409,-0.094816,0.527122,-0.010125,0.536197,0.844032
-0.057207,-0.012150,0.803623,-0.255221,-0.432983,-0.864516
-0.689918,-0.271804,0.598973,0.616395,0.515529,0.595221
0.024393,0.131038,0.825140,-0.722250,-0.224101,0.654319
-0.388721,-0.608096,0.177196,-0.445793,0.781862,-0.435844
-0.436520,-0.093243,0.356357,-0.481231,-0.230361,0.845784
-0.352655,0.094946,0.760521,-0.803122,0.457988,0.381106
-0.195609,-0.558707,0.638281,-0.569595,-0.764264,-0.302427
-0.014054,0.690760,0.720514,0.497268,0.864606,0.071982
0.037808,-0.534601,0.266687,-0.569205,0.559684,0.602295
0.411779,0.004946,-0.956391,-0.528812,-0.687615,-0.497537
-0.072714,-0.383946,0.757946,-0.418785,-0.530119,-0.737288
