-0.195738,-0.567524,0.271354,0.856714,0.426870,0.289523
0.525528,-0.474007,0.582453,0.699094,-0.046402,0.713523
0.207940,0.803212,0.457503,-0.239420,-0.668644,0.703984
-0.088625,-0.299825,-0.151244,0.918654,-0.199683,0.340885
0.582724,-0.436098,-0.013518,0.981902,0.030428,-0.186930
0.530674,-0.549416,0.644511,0.735787,0.511882,0.443389
-0.126117,-0.180200,0.163387,-0.438396,-0.489450,0.753823
0.077742,-0.093399,0.819873,-0.387024,-0.535588,-0.750571
-0.431869,-0.329615,0.505428,-0.115431,-0.433060,-0.893943
-0.201250,-0.249239,0.667054,-0.670845,0.053832,0.739642
-0.169271,-0.017466,0.237451,0.394781,0.914229,-0.091286
0.699172,0.235046,0.248387,0.028571,-0.043569,0.998642
-0.179858,0.488727,0.528494,-0.028400,-0.724685,0.688494
-0.215144,-0.023598,0.717915,0.472180,-0.352464,0.807969
-0.732991,-0.161447,0.401405,0.392693,-0.625424,-0.674268
0.006799,-0.001169,0.884033,0.535873,0.675251,0.506830
0.302186,0.503679,-0.978738,0.209165,0.247797,-0.945963
0.062378,0.091824,0.888338,-0.620587,0.781927,0.058845
0.091638,-0.077278,0.858989,0.081952,0.036149,0.995981
-0.062084,0.016239,0.757889,0.968584,0.248347,-0.013032
0.162727,-0.025584,0.534068,-0.416067,-0.861591,-0.290772
0.112736,-0.069920,0.907771,-0.080066,-0.987306,-0.137169
0.472596,-0.572429,0.552406,0.263982,-0.919247,0.292059
-0.168903,-0.369626,0.735121,0.300911,-0.900569,0.313731
-0.048558,-0.013551,0.684410,-0.034801,0.417883,0.907834
-0.272415,-0.525994,0.473378,0.163583,0.243590,0.955984
0.262193,-0.896026,0.292144,-0.074271,0.716186,0.693946
0.602427,0.035865,0.620561,0.011337,0.833488,0.552421
0.274472,-0.852278,0.294259,-0.024285,-0.715012,0.698690
0.380923,-0.319041,0.677791,0.411404,0.550990,-0.726056
0.044439,-0.032592,0.504308,-0.412240,-0.074596,0.908016
0.659547,0.307536,0.592244,-0.175252,0.931027,0.320117
0.510971,0.071845,0.495686,-0.082433,0.889513,-0.449412
0.151848,-0.063959,0.909712,-0.466557,0.372745,-0.802113
0.139129,-0.758177,0.394151,-0.618552,0.767857,0.166701
0.193016,0.782712,0.549794,0.048085,-0.515372,0.855617
-0.361220,-0.469743,0.454741,-0.463430,-0.780412,-0.419751
-0.209632,-0.799882,-0.169334,0.141001,-0.127224,0.981801
0.702333,-0.273364,0.282103,-0.599534,-0.611004,0.516946
0.056569,-0.242989,-0.041225,0.849285,-0.374491,-0.372119
0.783789,0.526404,0.406481,0.811235,-0.400543,0.425985
0.366513,-0.197840,0.671508,0.679167,0.579099,-0.450973
-0.401288,-0.561274,0.483344,0.803651,0.299419,0.514289
0.019078,-0.603271,0.436178,-0.142259,-0.034999,0.989211
0.069730,0.287675,0.801820,-0.736427,-0.675195,-0.042275
0.756956,0.585399,0.447525,0.082705,-0.591094,0.802351
0.317698,-0.050115,0.862186,0.126667,-0.935627,0.329481
0.916781,0.228622,0.543088,0.336881,0.553041,-0.762009
-0.468995,0.291354,0.385977,-0.324738,-0.938703,0.115680
-0.869732,0.063203,0.255740,0.418429,-0.655140,-0.629053
0.236316,-0.077627,0.806274,0.996153,-0.002050,0.087607
-0.125971,-0.802103,0.396926,0.066472,-0.404959,0.911915
0.367763,-0.954730,0.305605,0.129067,0.472601,0.871774
0.537584,-0.537149,0.611491,0.537205,0.787213,-0.302831
0.656974,0.141821,0.539915,-0.746069,-0.628740,0.219244
-0.664768,0.301343,0.498137,0.290799,0.752070,0.591462
0.725785,0.250234,0.579068,-0.359892,0.927080,0.104879
-0.029885,-0.815536,0.390145,0.447788,0.712948,0.539621
0.674987,0.156777,0.714543,-0.425160,0.043151,0.904089
0.624555,0.141415,0.710450,-0.612040,-0.471042,0.635237
0.273443,-0.108762,0.683564,0.358170,-0.884392,-0.299275
-0.128838,0.227570,0.499132,-0.100507,0.486682,0.867778
-0.187870,-0.623657,0.118150,-0.311908,0.143789,0.939169
0.272045,0.191298,-0.972554,-0.059412,0.170514,0.983563
0.361514,0.146845,0.633089,-0.517043,0.688152,-0.509032
0.085388,-0.097253,0.864475,-0.514725,0.100055,0.851497
0.316743,-0.711506,0.330688,0.784058,-0.619087,-0.044542
0.163095,-0.197954,0.751917,0.946124,0.100234,0.307900
-0.227863,-0.722896,0.398456,-0.590711,-0.264064,0.762451
0.205881,-0.700058,0.423675,0.989823,0.115356,0.083321
0.473480,-0.481016,0.412204,-0.271173,0.719011,0.639912
-0.152361,0.744861,0.167605,-0.114847,-0.343472,0.932114
0.448263,-0.499943,0.563865,0.715455,-0.671394,-0.193276
0.242713,-0.191940,0.822112,0.788565,0.067928,-0.611188
0.791361,0.423424,0.336311,0.819726,-0.552931,0.149392
-0.374601,-0.292698,0.482685,0.827753,-0.560466,-0.026506
-0.047160,0.018810,0.815207,-0.213899,-0.859008,0.465137
-0.622055,-0.552921,0.319938,0.678860,0.733030,-0.042620
0.173240,-0.057534,0.731787,0.976797,-0.121333,-0.176484
0.521265,0.173191,0.815307,-0.842418,0.370566,0.391169
-0.638229,-0.365013,0.551822,0.927561,-0.371795,0.037413
0.053114,-0.479615,0.523717,-0.391782,0.579809,0.714372
0.766734,0.175351,0.729025,-0.432611,0.891037,-0.137483
-0.473260,-0.308994,0.508812,0.795556,-0.525383,0.301767
-0.162507,-0.525409,0.105136,-0.358040,0.215528,0.908491
-0.247713,0.181252,0.463276,-0.070335,-0.968512,-0.238825
-0.037237,-0.857886,0.394574,0.396125,0.916289,0.059160
-0.322699,-0.267407,0.532276,0.609537,-0.791516,0.044340
0.370410,0.413086,-0.983030,0.331467,0.046719,-0.942310
0.282926,0.536682,-0.976859,-0.279577,-0.306491,0.909890
-0.047382,-0.626110,0.249283,-0.681651,0.723095,-0.111739
0.264547,-0.456249,0.626334,0.735821,0.654278,0.174607
-0.184489,-0.014428,0.713822,0.741562,-0.220341,0.633668
-0.096197,0.004439,0.706755,-0.624027,0.670546,-0.401196
-0.628010,-0.529263,0.292082,0.867636,0.470374,-0.161111
0.050467,-0.093342,-0.160949,0.124218,-0.826028,0.549771
0.264399,0.600701,0.590539,-0.442882,0.772103,-0.455754
-0.283148,0.058354,0.497975,-0.097125,-0.388718,0.916223
0.730563,0.242640,0.595740,-0.175400,0.872682,0.455698
-0.323949,-0.489487,0.471699,-0.291348,-0.615116,-0.732632
-0.000185,-0.472898,0.355906,-0.390501,-0.152167,-0.907939
0.816578,0.353213,0.546260,0.084094,0.846733,0.525330
-0.636465,-0.250176,0.481838,-0.536460,-0.186191,0.823130
0.094431,-0.072255,0.367576,0.159533,0.465540,-0.870530
0.332109,-0.914369,0.435407,-0.542271,0.675261,0.499965
0.495828,-0.352161,0.712092,-0.690700,0.037542,0.722166
0.435692,0.063670,0.818081,-0.296380,0.177378,0.938454
-0.343283,-0.116648,0.470691,0.165437,0.618102,0.768492
0.823562,0.167815,0.113348,-0.125672,0.173914,0.976709
0.207204,-0.244800,0.748845,0.917753,-0.391531,0.066584
0.230214,0.044511,0.936312,0.927685,0.347478,0.136602
0.721596,0.573542,0.386861,0.952117,-0.017243,-0.305246
0.135232,-0.026578,0.122094,0.953411,-0.133374,-0.270590
0.353501,0.240715,0.732745,0.230877,-0.808062,0.541969
-0.579637,-0.449593,0.000989,-0.805495,0.509219,0.303107
0.615805,0.175526,0.545962,0.596169,0.791218,-0.136222
-0.180592,-0.130374,0.512780,-0.098509,0.841954,0.530481
-0.421358,-0.077570,0.575510,-0.499192,0.861590,-0.092036
-0.427090,0.127044,0.697436,-0.711511,0.427746,-0.557482
0.104648,0.064896,0.608331,-0.847100,0.314899,-0.428090
-0.400258,-0.171554,-0.057610,0.013146,-0.425534,0.904847
0.020915,-0.845968,0.508563,-0.565015,-0.802541,-0.191536
0.519131,-0.120152,0.603441,0.179117,0.350700,0.919199
0.105164,-0.044860,0.178665,0.219775,-0.556956,0.800936
0.311156,0.186450,0.684771,0.854243,-0.460326,0.241598
0.506709,0.067873,0.122355,0.227548,-0.953732,0.196511
-0.036355,0.118926,0.722145,0.148581,0.844895,0.513884
0.150230,-0.098890,0.860905,0.147709,0.003144,0.989026
-0.253814,-0.059288,0.358793,0.955021,0.282077,0.091477
0.178826,-0.079731,0.814162,0.763154,0.491772,0.419234
0.093769,-0.099649,0.660535,-0.709327,0.403762,0.577782
0.301305,-0.411856,0.643615,-0.556277,0.212533,-0.803359
0.163682,-0.016706,0.802803,-0.531599,-0.727286,-0.434118
0.182135,0.052746,0.910795,-0.385975,-0.636207,-0.668030
0.635507,0.236390,0.595777,0.811682,-0.495357,0.309506
-0.296012,0.056661,0.713150,0.826753,-0.029470,-0.561792
0.707848,-0.340360,0.406008,0.950208,0.075383,0.302360
-0.560450,-0.364429,0.580562,0.939955,0.040518,-0.338884
0.300789,-0.270854,0.587914,0.687602,0.702721,-0.182719
0.077080,-0.180667,0.559050,-0.403004,-0.186623,0.895969
0.081125,0.096027,-0.695533,0.067837,-0.997217,0.030915
0.428560,-0.262384,0.557022,-0.144220,0.954945,0.259386
0.281382,-0.274006,0.576431,-0.019621,-0.873826,0.485842
-0.215292,-0.098013,0.578459,0.026860,-0.829795,-0.557422
-0.146923,-0.697256,0.103556,0.754040,0.005584,-0.656804
-0.899064,-0.358000,0.480532,0.465201,0.783123,0.412682
0.052527,-0.749884,0.481975,-0.408654,-0.885527,-0.221005
0.086269,-0.557709,0.524612,0.813723,-0.469584,-0.342559
-0.091564,-0.281835,0.480458,0.087734,0.168303,0.981823
0.127660,-0.007594,-0.431364,-0.243259,0.968815,0.047135
0.698145,0.067581,0.109541,0.751230,-0.301921,0.586938
0.199704,0.777104,0.568008,0.679055,0.468689,-0.564992
0.046572,-0.280373,0.727706,0.782772,-0.576861,0.233452
0.124793,-0.141996,0.808812,0.211622,0.972309,0.099154
-0.564419,0.233060,0.487661,0.807017,0.144139,0.572667
0.230436,0.627628,0.555305,0.524957,-0.391793,0.755591
-0.229334,0.364136,0.474199,0.447127,0.739557,-0.503123
-0.813785,0.201751,0.121460,0.065711,0.843812,-0.532600
0.419445,-0.442113,0.623995,0.436084,-0.289784,-0.851972
0.155965,-0.047605,0.855841,-0.522140,-0.852094,0.036126
0.694984,0.243984,0.538771,0.813542,-0.513067,0.273700
0.338799,0.730433,0.560419,-0.323805,0.690030,-0.647309
-0.516192,-0.234579,0.422692,0.579421,-0.339405,0.740997
-0.522001,-0.556893,0.342432,0.941985,0.196757,0.271941
-0.436208,0.211391,0.720714,-0.619282,0.757474,-0.206696
0.515750,0.073189,0.504818,0.267061,0.829484,-0.490545
0.311156,-0.174767,0.786069,-0.472865,0.736609,0.483535
0.524940,-0.134288,0.306028,-0.244900,-0.939254,-0.240470
0.139569,-0.890828,0.407090,-0.003598,0.405258,0.914195
-0.598530,-0.108352,0.424670,-0.247208,-0.547795,-0.799255
0.077154,-0.052511,0.819736,0.347436,0.186818,0.918906
-0.478333,-0.182767,0.579479,0.873343,-0.111674,0.474131
0.106340,-0.029498,0.911952,-0.411389,0.254698,-0.875150
-0.152729,-0.714251,0.104415,0.732757,-0.065134,-0.677366
0.833191,0.176168,0.104664,-0.540515,0.442161,0.715777
0.811725,0.080084,0.512034,0.581281,0.586077,-0.564469
0.144202,0.072429,0.380428,0.790849,0.608639,-0.064154
0.459877,-0.462031,0.604723,0.704124,-0.659945,-0.262073
0.412018,0.103738,0.301176,0.890564,-0.350838,0.289497
0.140085,-0.553680,0.648890,0.498890,0.241921,0.832216
0.265428,-0.432066,0.502193,0.585344,-0.343308,-0.734515
0.463849,-0.039719,0.468962,0.142546,0.986023,-0.086246
0.341150,0.622955,0.507406,0.935696,0.292959,0.196593
0.406358,0.159579,0.713473,0.809164,0.504783,0.300744
0.048190,-0.125817,0.827611,0.485076,0.603346,0.632989
0.047822,-0.269218,0.757653,-0.144616,0.485272,-0.862321
0.542879,-0.261214,0.485123,0.639378,0.768867,0.006250
0.810624,0.357826,0.560120,0.896646,-0.441726,0.030086
-0.250507,0.134581,0.640977,-0.171244,0.967348,0.186852
0.242787,-0.339954,0.639509,0.070591,-0.946951,-0.313531
0.049879,-0.039309,-0.136887,-0.464360,0.870544,-0.162861
0.316229,0.106252,-0.037816,-0.592164,0.773217,0.226885
-0.498035,-0.243050,0.649898,0.883933,0.465846,-0.040611
-0.896638,-0.351929,0.481851,0.648290,0.667035,0.367128
-0.053630,-0.083763,0.863268,0.744231,0.516164,0.423906
0.058261,-0.012032,0.701268,0.584902,0.762096,0.277668
0.139569,0.100234,-0.981176,0.799892,0.048914,-0.598147
0.292483,-0.546204,0.427469,-0.561173,0.182243,-0.807386
0.544129,-0.376928,0.477285,0.129119,0.930516,-0.342737
-0.310423,0.093342,0.676497,-0.643950,0.615408,-0.454535
0.689763,0.264020,0.308467,-0.568883,0.548581,-0.612725
-0.314391,-0.118167,0.515020,-0.715348,-0.027709,-0.698219
-0.411433,0.005084,0.581457,0.550797,0.722191,0.418405
0.081493,0.195676,0.686500,0.605120,0.351713,0.714233
-0.500092,-0.302395,0.513216,-0.839855,0.262767,-0.474970
0.803198,-0.046204,0.429771,0.074785,0.093846,0.992774
0.506193,-0.488317,0.625052,0.560958,-0.827752,-0.012352
0.579341,-0.326285,0.495960,-0.728013,-0.596156,-0.338520
-0.510752,-0.402511,0.525135,-0.688219,0.230073,-0.688056
-0.066423,-0.249064,0.768639,0.872120,0.486254,0.054445
0.695497,0.166941,0.721361,-0.444576,0.884615,-0.140745
0.031206,-0.668574,0.473129,0.895747,-0.438614,0.072488
-0.111487,-0.160574,0.790299,0.701754,0.072849,0.708685
0.866716,0.595621,0.405896,0.341117,-0.580291,0.739528
-0.192942,-0.010981,0.530870,0.160420,-0.183805,0.969784
0.273001,0.099417,0.659901,0.838407,-0.463134,-0.287367
0.465246,0.003155,0.821042,-0.641501,-0.199289,0.740784
0.613967,-0.375291,0.575883,-0.195987,-0.238431,0.951178
-0.063924,-0.003330,0.888077,-0.126810,0.984358,-0.122305
0.295202,0.592583,0.401915,-0.192929,-0.121059,-0.973716
0.366587,0.069452,0.728129,-0.165094,-0.379764,0.910232
0.358573,-0.727513,0.343191,0.594975,-0.798814,0.088887
-0.116193,0.706133,0.370015,-0.784759,0.493392,-0.375123
0.217570,-0.685163,0.482996,0.829030,0.246684,0.501853
0.181987,0.136449,0.868170,0.920020,-0.066106,-0.386256
0.150596,-0.382536,0.737983,0.315114,0.813434,0.488906
-0.283662,-0.270911,0.653132,-0.226486,0.961654,0.154680
0.252858,0.669219,-0.977481,0.235311,0.036394,-0.971238
-0.112664,-0.026400,0.687545,0.240073,0.700469,0.672093
0.558169,-0.321964,0.722543,-0.667100,-0.741029,0.076508
-0.225657,-0.269567,0.657897,-0.687370,0.522886,0.504095
0.172284,0.957771,0.470280,0.865933,-0.458945,0.198822
0.008123,-0.072019,0.773006,0.450648,0.598637,0.662231
-0.042310,-0.610983,0.115127,-0.109658,0.241336,0.964226
-0.313290,0.242347,0.403968,-0.306201,0.940723,-0.145878
0.797463,0.590480,0.389075,0.903185,-0.305137,-0.301907
0.142730,-0.930608,0.085641,-0.424756,-0.727667,0.538593
0.671678,-0.435104,-0.110685,0.847115,-0.486471,-0.213873
0.165374,-0.087560,0.861639,-0.378728,-0.216993,0.899710
-0.052894,0.203448,0.663509,-0.559547,0.079999,-0.824929
-0.352473,-0.346204,0.139114,-0.162260,0.631135,-0.758512
0.442234,-0.414134,0.419233,-0.502219,-0.815286,0.288244
0.328138,-0.491647,-0.262633,0.196442,0.875657,0.441174
-0.588900,-0.189719,0.321157,0.469561,0.028291,0.882447
0.003124,-0.602861,0.488619,0.619921,-0.011581,0.784579
-0.425107,0.166239,0.724608,-0.355216,0.870925,-0.339574
0.310934,-0.286623,0.580014,0.151761,0.954346,-0.257281
0.262710,0.324182,0.485845,0.669119,-0.572743,0.473546
0.222862,0.633586,0.530684,-0.640642,0.369461,-0.673109
0.361221,-0.137383,0.667142,0.738025,0.258488,-0.623300
0.400992,0.426170,-0.245065,-0.590310,0.598700,-0.541380
0.419003,-0.188318,0.528096,0.138345,0.730587,0.668658
0.196471,0.097489,0.810604,0.709942,-0.485502,0.510168
0.512957,-0.466473,0.553452,0.977723,-0.042754,0.205501
-0.211395,-0.289136,0.666855,-0.541310,0.190440,0.818973
0.187650,0.201637,0.607460,0.938027,0.327322,-0.113862
-0.329757,-0.410340,0.449018,-0.079954,0.067173,0.994533
-0.254769,-0.761563,0.109466,-0.739347,0.513021,0.436091
0.368056,0.251635,0.328249,0.762148,-0.365891,-0.534093
-0.590150,0.150467,0.120415,-0.071821,0.901102,-0.427618
0.087373,-0.082244,0.512532,-0.198874,0.925145,-0.323352
0.084432,-0.834931,0.507754,-0.531773,-0.374344,-0.759661
-0.027899,-0.000349,0.860133,0.756586,-0.020430,0.653575
0.888328,0.065481,0.492488,-0.226980,0.138112,0.964057
-0.181182,-0.572312,0.383738,0.461678,0.478329,0.747030
-0.097298,0.474884,0.579317,0.524897,0.740373,-0.419917
0.207056,-0.376400,0.652672,-0.717308,0.215846,-0.662480
0.168241,-0.362325,0.729896,0.562656,0.759210,0.327138
-0.284691,-0.606016,0.455786,0.892799,-0.358012,0.273383
-0.311450,-0.058294,0.450598,0.744643,0.624048,0.236793
0.033780,0.121846,0.839717,-0.467460,-0.876806,-0.112661
-0.014741,-0.156132,-0.153994,-0.245838,-0.180763,0.952307
0.629701,0.199473,0.594222,-0.661558,0.573052,-0.483686
-0.269619,-0.029323,0.539218,0.270028,0.908807,-0.318047
0.459658,-0.198949,0.342407,0.035392,0.127174,0.991249
0.343871,-0.789660,0.098007,0.213651,-0.491979,0.843985
-0.541703,-0.063784,0.588922,-0.413452,0.205511,0.887030
0.711597,0.562383,0.266788,0.487186,-0.222401,0.844504
-0.346739,0.090070,-0.170404,0.799094,0.599544,-0.044673
-0.088403,-0.213727,-0.247890,0.828898,-0.359725,0.428400
0.758058,0.108238,0.517583,0.289646,-0.406894,0.866338
-0.037457,0.179323,0.746219,-0.164030,-0.954891,0.247541
0.108839,-0.042054,0.965935,0.797193,0.495376,-0.345088
0.433633,-0.450701,0.613059,-0.705013,-0.008477,-0.709144
0.139275,0.152513,0.827922,0.496096,-0.388665,0.776421
0.675943,0.060864,0.526852,-0.047921,-0.606675,0.793504
0.067376,-0.734230,0.114194,0.448843,-0.018905,0.893411
0.078404,0.036275,0.983415,0.405243,0.853816,0.326765
-0.168977,-0.320385,0.677878,-0.497462,0.825258,-0.267359
-0.184343,-0.039077,0.332280,0.969898,0.083202,0.228856
0.229406,-0.503094,0.517856,-0.600465,0.346132,-0.720857
0.768203,0.589428,0.455699,0.128597,-0.626646,0.768621
0.034884,0.247781,0.658258,-0.721169,0.225742,-0.654947
0.702188,-0.376867,0.590303,0.953595,0.222271,0.203107
0.393346,-0.381951,0.549931,-0.700263,-0.662251,0.266562
0.184415,0.360396,0.577575,0.396994,-0.552963,0.732549
-0.299393,-0.678328,0.372391,0.261870,0.600039,0.755895
0.258005,-0.248305,0.838522,0.778030,0.621762,0.089899
0.029075,-0.563377,0.433802,0.082399,0.383567,-0.919830
0.635434,0.240946,0.714158,-0.343262,0.022831,0.938962
0.293511,0.130958,0.625251,0.425603,-0.557952,0.712427
0.016505,-0.241178,0.739003,0.660906,0.718737,-0.215918
-0.264401,-0.156599,0.601600,-0.144665,0.986916,-0.071191
0.447455,0.893224,0.347247,-0.294064,-0.530548,0.795013
-0.280281,-0.164018,0.658706,0.290125,-0.804857,-0.517719
0.364676,0.363551,-0.227025,0.678853,-0.599288,0.424279
0.246388,-0.241471,0.828793,0.176844,0.933670,0.311426
-0.231024,-0.153272,0.613158,0.059719,0.954620,0.291779
-0.638597,-0.014952,0.570123,-0.404381,0.511360,0.758279
0.645727,0.283118,0.395619,-0.056896,0.756879,0.651074
0.271677,0.600291,0.524314,-0.788786,0.380850,-0.482462
0.790995,0.093456,0.516127,-0.142061,0.631381,-0.762349
0.027825,-0.353387,0.097833,0.854806,-0.405422,-0.323943
0.524720,-0.524065,0.441292,-0.484372,-0.263953,-0.834094
-0.430106,0.205316,0.131438,-0.014114,-0.992775,0.119157
-0.839590,-0.303564,0.458399,0.104068,0.823709,0.557380
0.535233,0.306074,0.405075,0.879301,-0.265285,0.395541
-0.155451,-0.314192,0.657450,-0.051004,-0.389866,0.919458
-0.634774,-0.014952,0.291086,-0.529882,0.632654,0.564778
0.508252,-0.007826,0.492352,-0.355623,0.617240,-0.701817
0.052747,-0.762323,0.117876,0.253118,-0.187682,0.949056
0.276530,0.442933,0.476626,-0.567478,-0.507531,-0.648368
0.185077,0.017815,-0.984597,-0.331156,-0.270114,0.904087
-0.287411,-0.786741,0.045094,0.867088,0.497376,0.027863
0.621613,0.226461,0.405971,-0.553094,0.814308,0.176042
0.205881,-0.579966,0.378338,0.094693,0.470333,0.877394
0.715788,0.415011,0.390643,0.685709,-0.603895,0.406342
-0.588458,-0.336214,0.556848,-0.649707,0.702434,0.290634
0.112662,-0.485864,0.659042,0.093343,-0.574421,0.813220
-0.365925,-0.523305,0.380615,-0.725044,0.150974,0.671951
-0.140233,-0.112209,0.555766,-0.231403,0.095067,0.968202
0.403713,-0.911100,0.302408,0.953562,0.148209,0.262209
0.647344,0.030314,0.078823,0.797103,0.104643,-0.594707
0.467303,-0.153622,0.864674,-0.661706,-0.264060,0.701725
-0.130895,-0.483704,0.372167,-0.464160,-0.396536,-0.792032
0.377908,-0.140830,0.087146,0.534245,-0.753282,0.383599
0.153097,-0.421378,0.629680,-0.337774,0.558021,0.757972
-0.009594,0.049826,0.872749,-0.246194,0.929007,0.276287
0.263885,-0.454263,0.649052,0.989882,-0.013871,0.141214
-0.297336,-0.030956,0.570111,0.005644,0.838383,0.545052
0.258664,0.717641,0.554447,0.123293,-0.763332,0.634132
0.316668,-0.730258,0.334669,0.002104,0.997738,0.067189
-0.024298,-0.523013,0.453982,-0.416464,-0.679814,0.603664
-0.225732,0.521088,0.532438,-0.325131,-0.764593,0.556496
0.425987,-0.426344,0.720889,0.873407,-0.220609,-0.434156
0.213821,-0.299532,0.696429,-0.541705,0.599527,-0.589172
0.092666,-0.747956,0.117964,0.880790,0.035597,0.472167
0.161771,-0.211915,-0.266813,0.927028,-0.361255,-0.100569
0.179194,-0.178856,0.696702,0.833158,0.167044,0.527204
0.140673,-0.431835,0.646240,0.231298,0.551428,0.801517
0.148980,0.132067,-0.984361,0.551284,-0.015694,-0.834170
0.117221,-0.205256,0.796047,-0.246689,0.113539,0.962421
0.977578,0.640128,0.361667,0.923030,0.024228,-0.383965
0.329975,0.504849,0.496358,-0.391830,-0.271002,0.879220
0.474140,-0.141472,0.329306,0.544058,0.678613,0.493442
0.696821,0.282594,0.560556,-0.443374,0.801421,0.401426
0.398934,-0.005141,0.811947,0.426161,0.698066,-0.575404
0.182061,-0.157476,0.458324,0.178966,-0.359474,-0.915833
0.011798,-0.124591,0.792029,-0.010564,-0.903100,0.429301
-0.031135,-0.863552,0.528842,0.736825,0.645539,0.200917
-0.017020,-0.817522,0.497813,0.612196,0.521158,0.594651
0.110531,-0.048832,0.853415,-0.101456,-0.744049,-0.660377
-0.631467,-0.409463,0.541993,0.871682,0.283296,0.399892
0.050541,-0.135047,0.849919,0.940230,0.203718,0.272886
0.302113,0.085924,-0.058892,-0.635547,0.765991,-0.096635
-0.108325,0.444277,0.508202,0.405943,-0.608200,0.682131
0.217864,-0.585980,0.528170,0.839136,0.235556,0.490270
-0.037605,-0.619218,0.264661,-0.699191,-0.354720,-0.620730
-0.234627,-0.632185,0.270035,0.880430,0.218036,0.421073
0.592133,-0.563727,0.583983,-0.153532,0.899778,0.408445
-0.127146,-0.437910,-0.095532,-0.115678,0.340542,0.933086
0.062598,0.793165,0.372764,-0.337215,0.201797,0.919546
-0.270797,-0.253328,0.661269,0.004274,-0.689558,0.724218
-0.017460,0.439895,0.598353,-0.400811,0.682339,0.611362
0.461423,0.252922,-0.022961,-0.699173,0.553127,-0.453000
-0.455249,-0.065246,0.553987,0.412261,-0.774228,0.480221
0.705126,-0.299300,0.567871,0.845277,0.534320,-0.003069
0.183237,-0.336096,0.559486,-0.667498,-0.660966,-0.342886
0.172726,-0.148716,0.681748,0.825643,0.291314,0.483166
-0.220365,0.114370,0.761883,0.323951,-0.772993,0.545470
0.000699,-0.262676,0.715476,-0.532388,-0.844472,-0.058569
0.366293,-0.005490,0.819960,0.195469,0.547709,-0.813515
-0.310936,-0.479204,0.470181,0.362793,0.551864,0.750884
0.051277,0.334581,0.704391,-0.361657,0.426943,0.828809
0.136262,-0.157066,0.752328,0.999368,0.027568,-0.022423
0.814887,-0.115535,0.435158,-0.159253,0.450983,0.878210
0.230140,-0.023541,0.866889,-0.390641,-0.476157,0.787829
0.493768,0.766883,0.440147,0.021076,-0.516627,0.855951
0.388201,0.281543,0.732198,0.266741,-0.807997,0.525348
-0.187208,-0.473775,0.098854,-0.175078,0.661874,0.728883
0.160521,0.041298,-0.398630,-0.965766,-0.239556,-0.099547
0.445321,0.449475,0.430916,-0.158332,0.785232,-0.598617
0.004448,-0.752629,0.492712,0.611858,0.680598,0.403008
0.185003,0.474941,0.515742,0.951942,-0.232574,0.199290
-0.157582,-0.770854,0.098966,0.823680,-0.481814,0.299009
-0.012242,-0.844803,0.290352,0.933426,0.271210,0.234864
0.268002,0.061331,0.715315,-0.305940,0.861707,-0.404799
0.533615,-0.311098,0.710724,0.406944,-0.140991,-0.902506
-0.878628,-0.004207,0.376410,-0.926808,0.180362,-0.329389
-0.486712,-0.048832,0.594956,0.006374,-0.023473,0.999704
-0.217572,0.064543,0.737896,-0.493045,0.791596,-0.360946
0.175371,-0.346029,-0.991453,0.227326,0.016765,-0.973674
0.517810,-0.562618,0.552369,0.945453,-0.255802,-0.201703
0.387613,-0.334171,0.660473,0.839943,-0.124944,-0.528095
0.255431,-0.519976,0.432508,0.811164,-0.258711,0.524482
-0.304026,-0.532300,0.358046,-0.572826,0.500456,0.649164
0.185516,-0.129147,0.874466,0.795900,-0.419353,-0.436678
0.271383,-0.078971,0.908020,0.194300,0.636246,-0.746618
0.633964,0.431485,0.422331,0.994788,0.005747,0.101802
0.555007,-0.470559,0.561650,-0.142050,0.950604,0.275997
0.277265,-0.777920,0.400272,0.959563,-0.281152,-0.013864
0.707628,0.397606,0.380329,0.822898,-0.449813,0.347143
0.766734,0.235399,0.593563,0.088393,-0.990533,-0.105027
0.205219,-0.112908,0.383402,-0.601512,-0.717392,0.351472
0.440397,-0.493925,0.609625,0.951513,0.156534,0.264802
0.146701,0.072372,0.878584,0.489674,0.380466,-0.784516
-0.596766,-0.342171,0.444477,0.310046,0.131330,0.941607
-0.119868,0.705081,0.420378,0.511797,-0.813356,-0.276614
0.056569,-0.078679,0.844308,0.997129,0.009981,-0.075059
0.138393,0.058586,0.919678,0.515817,0.821689,-0.242403
-0.283662,-0.383527,0.330028,-0.657567,0.357501,0.663173
-0.198899,-0.080608,0.607261,-0.286658,-0.956518,0.053851
-0.079435,-0.039484,0.578459,-0.222042,0.923862,0.311731
0.409961,0.085924,0.509396,-0.120416,0.796188,-0.592946
-0.005110,0.121496,0.848239,-0.630590,-0.711490,-0.310063
0.876934,0.235456,-0.173527,-0.489847,0.159372,0.857118
0.656828,0.133821,0.542864,0.910270,-0.065797,0.408754
0.329387,-0.445560,0.615286,0.428224,0.896553,0.113212
0.316817,0.455725,0.468327,0.892649,0.149169,0.425354
0.080463,-0.212090,0.761497,0.273448,-0.702392,0.657170
0.695791,0.029673,0.443208,-0.290450,0.703007,-0.649169
0.165448,-0.915713,0.286744,0.798828,0.311294,-0.514752
0.911708,0.231659,0.539542,-0.057347,-0.602045,0.796400
0.301157,-0.152513,0.075725,-0.121658,-0.916047,-0.382175
0.237272,-0.282944,0.497490,0.491149,0.057881,-0.869150
-0.863042,-0.407360,0.477185,0.437805,0.849563,0.294227
0.184121,-0.431599,0.659838,0.782604,-0.621822,-0.029469
0.502592,-0.408879,0.554173,0.820287,-0.148769,0.552265
-0.469583,-0.043459,0.548886,0.832913,-0.213919,0.510387
0.418563,-0.475058,0.636946,-0.352721,-0.491119,-0.796486
-0.152142,0.001109,0.813814,0.855289,-0.025590,0.517519
0.133321,-0.463785,0.506995,0.154222,0.794435,0.587443
0.178018,0.046903,0.934583,0.805892,0.415771,-0.421512
0.762985,0.354614,0.370077,0.929733,-0.022145,0.367569
0.545010,0.090829,0.693468,0.430136,0.497045,-0.753611
0.261899,0.309112,-0.980168,-0.116713,0.193894,0.974055
0.106488,-0.749356,0.115512,0.549925,-0.365598,0.750946
0.010328,0.472374,0.621108,-0.051759,-0.405160,0.912780
0.037603,0.080433,0.707439,0.783045,0.487947,0.385679
0.037529,0.271439,0.782872,0.162643,-0.691717,0.703616
0.375851,-0.124299,0.847480,0.793906,-0.297861,-0.530086
0.354382,-0.028389,0.713760,0.027605,-0.620082,0.784051
0.118691,-0.492349,0.680989,0.578950,0.575871,0.577226
0.459290,-0.123539,0.489988,0.781746,-0.340372,0.522514
0.128762,0.446263,0.676199,-0.763378,0.198589,-0.614668
0.852820,0.504906,0.566005,-0.179979,-0.270013,0.945886
0.199485,0.663611,0.638899,0.913479,0.089587,-0.396901
0.831280,-0.017056,0.427071,-0.124508,-0.081885,0.988834
0.161477,0.044568,-0.724571,0.290521,0.956691,-0.018435
0.347252,0.275992,-0.983776,-0.194415,0.256602,0.946762
-0.193458,-0.227103,0.658768,0.848049,-0.051669,-0.527393
-0.422608,0.135340,0.437311,0.938902,-0.328375,-0.103114
-0.657418,-0.255667,0.170914,-0.562088,0.104121,-0.820497
0.163682,-0.043751,0.667652,0.768826,0.039246,-0.638253
0.340782,-0.199648,0.632218,-0.306704,0.872569,0.380205
0.442896,-0.328153,0.515406,-0.127071,-0.431130,0.893297
-0.261679,-0.671786,-0.069429,0.478534,-0.271622,-0.835001
-0.657932,-0.401752,0.556836,0.943681,-0.095383,0.316809
0.622717,0.269860,0.247765,0.807378,-0.227000,-0.544621
0.191912,-0.939721,0.415501,-0.606012,0.528736,0.594296
0.065025,-0.044158,0.831331,0.998808,-0.018119,-0.045321
0.271311,-0.386447,0.612474,-0.786505,-0.488050,0.378440
0.314611,-0.582476,0.116334,-0.517611,-0.514251,0.683830
-0.952657,-0.278737,0.502889,-0.748073,-0.663476,0.013649
0.198089,-0.002863,0.739762,0.786438,0.329528,-0.522424
-0.962508,-0.276459,0.504544,-0.688730,-0.723339,0.049314
-0.442382,0.375409,0.425877,-0.129234,0.989873,0.058731
0.717845,0.009170,0.097634,0.501379,0.558957,-0.660443
0.301157,-0.354557,0.556823,0.104935,-0.189295,0.976297
0.051865,0.764897,0.396440,0.089572,0.861982,0.498962
0.548685,-0.583061,0.662115,-0.484618,-0.863504,0.139666
-0.264621,-0.701694,0.230098,0.391652,0.198876,-0.898363
-0.221983,-0.061798,0.574167,0.422572,0.830928,0.361928
-0.187870,0.174884,0.687856,0.467424,-0.438629,0.767541
0.056938,0.106776,0.697598,-0.491673,0.491067,-0.719104
0.330931,-0.801753,0.382668,0.376305,0.109357,0.920019
-0.542291,-0.047723,0.585252,0.938485,-0.310691,0.150724
0.376144,-0.311857,0.464383,-0.073109,-0.759333,0.646582
-0.434884,-0.374183,0.546609,-0.056892,0.793525,-0.605872
-0.521853,-0.439485,0.517011,0.814339,-0.230010,0.532867
0.368350,-0.058411,0.527150,0.659119,0.225534,0.717424
0.215732,0.750701,-0.977145,0.055446,0.085272,0.994814
0.314831,0.379381,-0.984510,-0.364969,0.063421,0.928857
0.069436,0.107945,-0.285662,0.970983,-0.218887,-0.096332
-0.441059,0.306367,0.461161,-0.375844,-0.905529,-0.196869
-0.362912,-0.494627,-0.093964,-0.208470,0.458892,0.863689
-0.958760,-0.197723,0.399514,0.880879,-0.441036,-0.171869
0.576473,0.304673,0.223044,0.612887,-0.728748,0.305443
0.384010,-0.087617,0.863194,0.678640,0.535946,-0.502205
0.168535,-0.129204,0.685331,0.866965,0.307557,0.392148
0.068113,0.092056,-0.228730,0.973096,-0.229962,0.014209
-0.225438,0.501868,0.519996,-0.456908,-0.801528,0.385730
0.656018,0.075117,0.504967,0.354613,-0.924745,0.138193
0.883036,0.693284,0.254036,-0.021520,0.035696,0.999131
-0.038044,0.477978,0.726749,0.806013,0.489729,0.332429
0.303510,-0.084169,0.859735,0.053419,-0.993086,0.104527
0.465392,0.499651,0.421610,0.387546,0.918580,0.077582
-0.462085,-0.495151,0.471064,0.521238,-0.081290,-0.849531
0.281676,-0.367348,0.559287,-0.145090,-0.732639,0.664973
-0.187504,0.259521,0.564089,0.323237,-0.539140,0.777718
0.199558,-0.733994,0.381274,0.151881,0.657219,0.738238
0.127292,0.173658,0.879728,0.794471,0.343507,0.500818
0.490387,-0.235862,0.473254,0.408970,0.781997,0.470345
0.662930,0.344453,0.542926,0.020938,0.372136,0.927942
0.049072,-0.079613,-0.298004,0.890783,-0.449296,0.068111
0.103105,0.485222,0.598552,-0.148011,0.413526,-0.898382
0.142290,0.314427,-0.199890,-0.741773,-0.046645,-0.669026
0.377908,-0.319918,0.592443,0.813561,0.470339,0.341906
-0.275796,-0.733353,0.377530,0.651243,0.655168,0.382932
0.126262,-0.899941,0.325711,-0.327742,-0.942709,-0.062326
-0.263959,-0.703505,-0.071694,0.484781,-0.246699,-0.839123
0.530822,-0.536507,0.580748,0.056795,-0.930190,-0.362657
-0.930087,-0.138377,0.452950,0.829925,0.504767,0.237561
0.486196,-0.261917,0.708447,0.102619,-0.946082,-0.307244
0.694616,-0.387384,0.573905,-0.620400,0.331788,0.710648
0.057599,0.458587,0.676074,0.771067,-0.511501,0.379238
-0.726743,0.020560,0.265544,-0.237925,0.500739,0.832257
0.273443,-0.528036,0.649985,0.027217,-0.864985,0.501059
-0.687044,0.052978,0.379719,0.068622,0.204641,0.976429
-0.479434,-0.387267,0.312585,-0.396548,-0.193935,-0.897295
-0.220511,-0.170909,0.586421,0.163360,-0.946697,0.277631
0.697261,-0.121846,0.292418,0.004113,0.476760,0.879024
0.198383,0.021380,0.965960,0.982560,-0.010340,-0.185657
0.651019,-0.435047,0.583124,0.859209,-0.043666,-0.509758
0.294467,-0.346728,0.621282,0.998166,0.022952,0.056017
0.332476,-0.721613,0.309612,0.264462,-0.627462,0.732360
-0.427532,-0.177569,0.561290,-0.517183,0.504426,-0.691430
0.280132,0.196789,0.722357,-0.272358,0.736449,-0.619245
0.051865,-0.540828,0.249208,-0.019362,0.996130,0.085738
-0.261020,0.031894,0.553140,-0.062558,0.784914,0.616438
-0.846132,-0.158470,0.328087,0.401059,-0.896536,-0.188081
0.070392,-0.011098,0.731016,-0.270664,-0.371576,0.888072
0.509354,0.043049,0.846099,0.552072,0.812956,0.185253
0.482228,0.073363,0.686264,0.402387,0.525456,-0.749654
0.648520,0.372489,0.399302,-0.821184,0.495650,-0.282821
0.233229,0.056661,-0.952648,0.802875,0.584284,-0.118336
-0.406212,-0.359405,0.467183,0.938630,-0.266807,0.218605
0.111706,-0.295211,-0.036236,0.983081,-0.174075,-0.057008
0.294467,-0.229791,0.594857,0.763639,0.629216,-0.144720
0.774454,0.301928,0.560842,-0.681598,0.695519,0.227327
0.342031,0.581193,0.513639,-0.783671,-0.565347,-0.257376
-0.168021,-0.184813,0.645941,-0.107390,0.587199,0.802287
0.211467,-0.383937,0.440881,-0.540487,0.117931,-0.833046
0.161625,0.374008,0.631447,0.908536,0.410357,-0.078546
0.432163,0.477511,0.493061,0.897283,0.041890,-0.439464
0.060025,0.019102,0.626110,0.941064,0.069837,0.330939
0.466274,-0.213260,0.485832,0.683996,0.624552,-0.376940
0.891270,0.731834,0.372130,0.353355,0.925230,-0.138163
-0.379305,-0.578273,0.477584,0.821084,0.123447,0.557299
-0.171182,0.020795,0.828569,0.924323,0.343198,0.166861
0.236978,-0.305782,0.457217,0.830899,-0.555271,0.035786
-0.632349,0.027979,0.376758,0.095025,-0.335621,-0.937192
0.511340,-0.785165,0.299994,-0.666416,0.740953,0.082943
-0.108693,0.542582,0.218665,0.896547,0.362771,0.254166
0.145745,0.229730,0.576941,-0.403200,-0.908229,0.112025
-0.628745,-0.025758,0.361268,0.621132,-0.693136,0.365729
-0.306599,-0.129265,0.638899,0.011787,0.476699,0.878987
0.757176,0.600059,0.367377,-0.304840,0.935686,0.177662
0.127586,-0.233702,0.242950,0.472098,0.380934,0.794993
-0.171182,0.073656,0.682034,0.343079,0.939275,0.007712
0.183973,-0.102744,0.687707,0.649387,0.279796,0.707115
-0.206542,0.000349,0.529377,0.104197,-0.275298,0.955695
-0.336225,-0.107300,0.641562,-0.561067,-0.326283,-0.760752
0.183385,-0.533819,0.518342,0.201574,0.845497,0.494472
0.271311,-0.561274,0.368820,0.214884,0.682116,0.698958
0.232641,-0.031484,0.842827,-0.406704,-0.856798,-0.317000
0.154199,-0.374942,0.667838,-0.350842,-0.374327,-0.858364
0.380333,-0.124534,0.871044,0.978170,0.206692,0.021473
-0.312699,0.121671,0.699651,-0.591252,0.710946,-0.380759
0.634184,0.190596,0.250005,0.475673,-0.281531,0.833352
0.400772,-0.110512,0.866988,0.999299,-0.036019,-0.010217
0.798639,0.640363,0.276144,-0.137369,0.059183,0.988750
0.140157,-0.025641,0.129683,-0.258158,-0.941573,-0.216322
0.127586,0.047955,0.732857,-0.314577,0.944410,0.095554
0.132513,0.099300,0.036609,0.872101,0.487787,-0.038786
0.583458,-0.348246,0.010917,0.950702,-0.309330,0.021903
0.228670,0.221377,0.882777,-0.243004,-0.893179,0.378393
-0.214924,-0.086390,0.592841,-0.020160,0.999671,0.015888
0.392684,0.283821,0.729934,0.524175,-0.818535,0.235034
0.621468,0.092291,0.120701,-0.419536,0.856836,-0.299702
-0.060689,-0.785514,-0.066145,-0.288272,0.272552,-0.917941
-0.716672,-0.418808,0.403632,-0.506078,0.854652,-0.115992
0.686234,-0.328153,0.584966,0.243513,0.286975,0.926470
-0.153759,-0.251927,0.662513,0.354079,0.930600,-0.092797
0.310934,-0.857534,0.178889,-0.683513,-0.079031,-0.725647
-0.579123,-0.320912,0.573967,0.866579,-0.496688,-0.048394
0.232200,0.309172,-0.103482,0.883674,0.458526,0.094200
0.444000,-0.532300,0.377728,-0.183736,0.294560,0.937804
0.206617,-0.324474,0.561464,-0.497004,-0.164029,0.852104
-0.065613,-0.023366,0.798486,0.831074,0.545458,0.108585
0.312552,-0.303504,0.564686,-0.721672,-0.374246,0.582348
0.391876,-0.935571,0.302707,0.133898,0.458981,0.878298
0.093327,0.103097,-0.765217,0.997243,-0.043549,0.060088
0.120822,0.439546,0.663496,0.138723,-0.525373,0.839488
0.238228,-0.956659,0.084347,0.185299,0.862417,-0.471064
0.054658,-0.157419,-0.058182,0.239608,0.387066,0.890375
0.069582,-0.654207,0.552805,-0.574123,-0.661101,-0.483041
0.936261,0.260572,0.553763,-0.421908,-0.668173,0.612812
0.049292,0.434230,0.526006,-0.064376,0.335152,0.939962
0.403345,-0.462384,0.599622,-0.882063,0.156207,-0.444481
0.109281,-0.470210,0.685629,0.953451,0.298221,0.044683
0.314391,-0.412615,0.606950,0.199228,0.523732,0.828259
0.354088,-0.188318,0.670152,0.984046,-0.175205,-0.030933
-0.559566,-0.576811,0.505838,0.815959,0.565751,0.118901
0.649256,0.281018,0.325164,0.777470,-0.548215,0.308222
-0.000405,0.123190,0.773864,0.548814,0.240720,-0.800535
0.886271,0.034988,0.516787,-0.292012,-0.008783,0.956374
0.394669,-0.189134,0.686998,-0.302969,0.648732,0.698110
0.192132,0.309112,0.590303,-0.430189,0.398999,-0.809776
-0.198089,0.374885,0.474199,-0.479856,-0.779775,0.402106
-0.309099,-0.052629,0.383912,0.726572,0.523038,0.445561
0.711377,0.398073,0.369455,0.823285,-0.520940,0.225439
0.098694,-0.667465,0.538509,0.927996,0.253041,0.273485
-0.496857,-0.397780,0.336099,-0.168767,-0.454257,-0.874739
0.038339,-0.675409,0.466125,-0.621931,0.744418,-0.242991
0.704467,-0.379498,0.504743,-0.372781,0.835638,-0.403414
0.807167,0.482709,0.406680,0.601941,-0.583213,0.545463
0.109721,0.166649,0.203648,0.417033,-0.257380,0.871688
0.591103,0.138142,0.525906,0.295792,0.951412,0.085573
-0.352693,-0.216354,0.623572,-0.796349,-0.604187,0.028065
0.136630,-0.349651,0.732696,0.691292,0.633611,0.347351
-0.240801,-0.295853,0.470629,0.802633,-0.545219,0.241902
-0.368205,-0.461450,0.335303,-0.530225,0.586179,0.612581
-0.220953,-0.692699,0.234353,0.376181,-0.166204,-0.911517
-0.404301,0.169861,0.431438,0.966770,-0.248825,-0.058674
0.795994,0.426519,0.553053,0.005977,-0.206442,0.978441
0.224774,0.483822,0.658097,0.265199,-0.220584,0.938623
-0.987578,-0.227745,0.358569,0.677427,-0.734398,-0.041857
-0.150230,-0.108879,0.469920,-0.159281,-0.764276,0.624909
0.196323,0.839369,0.455799,-0.208327,-0.791931,0.573972
-0.930161,-0.287675,0.404415,-0.219806,0.808686,0.545630
-0.393861,0.308762,0.460725,-0.554221,-0.716039,-0.424414
0.488402,0.161098,0.621693,0.347743,-0.653927,0.671903
0.226539,-0.737559,0.493322,0.108582,0.494596,0.862314
0.458040,-0.040889,0.817160,0.331874,0.518566,-0.788003
0.135746,0.193926,0.514311,-0.647745,0.297796,-0.701245
0.268884,-0.337383,0.365026,0.059621,-0.995816,-0.069248
0.828413,0.274883,0.523679,0.633033,0.074749,-0.770507
0.218012,0.023131,0.940169,0.961356,0.256058,0.101138
0.324608,0.589720,0.634545,0.926304,0.079816,-0.368226
0.072669,-0.318107,0.480694,0.050910,-0.874009,-0.483236
0.782465,0.333176,0.323683,-0.526867,0.815506,-0.239501
-0.719097,-0.008235,0.536680,0.918651,0.340814,0.199818
0.008565,0.064486,0.766175,-0.645550,-0.133545,0.751952
0.824812,-0.069509,0.428502,-0.158595,0.396491,0.904236
0.572211,0.473190,0.245886,-0.218296,-0.333217,0.917231
0.646463,-0.288491,0.553725,-0.060822,0.573473,0.816963
-0.213087,0.436448,0.593264,-0.093828,-0.874886,0.475153
0.039146,-0.751517,0.120029,-0.066554,-0.275476,0.959001
0.508546,0.193751,0.566229,-0.524041,0.772760,-0.358082
0.763353,0.662093,0.465652,-0.068293,-0.720748,0.689825
0.047674,-0.899535,0.312386,0.408127,0.912510,-0.027516
0.440177,-0.085863,0.888151,-0.525070,0.771776,0.358697
0.447821,-0.247196,0.546173,-0.341837,0.928546,0.144739
0.146259,0.306894,0.647907,0.162580,-0.512484,0.843166
0.402241,0.301343,0.740173,0.152811,-0.658043,0.737311
0.351663,-0.391413,0.416334,0.247531,0.752573,0.610215
-0.388127,0.065420,0.682046,-0.456339,0.870986,-0.182038
-0.650360,-0.500232,0.552717,-0.782616,0.306785,-0.541660
0.453997,-0.030314,0.473951,-0.494597,-0.694450,0.522602
0.196249,-0.459931,0.676161,-0.516956,-0.831525,-0.203280
-0.119133,-0.564779,0.298016,0.760462,0.455714,-0.462625
0.583606,-0.358118,0.498373,-0.369516,-0.611570,-0.699600
0.348870,-0.038667,0.306041,0.743852,0.659585,0.107851
0.121778,0.088376,0.882354,-0.413163,0.810898,-0.414417
0.428192,-0.079849,-0.097510,0.319100,0.742887,0.588467
0.235729,0.552162,0.534603,0.713971,-0.010456,-0.700098
0.314537,-0.683469,0.363968,-0.397737,0.673682,-0.622863
0.131041,0.033644,-0.754157,0.915687,0.397012,0.062436
0.101783,-0.048129,0.028758,0.971461,0.131232,-0.197591
0.077080,0.074009,-0.697212,0.081248,-0.995364,0.051466
-0.509724,0.236158,0.490000,0.702095,0.311179,0.640492
-0.373425,-0.275232,0.319689,0.027087,0.244147,0.969360
0.689469,0.323832,0.249457,-0.572112,0.151376,0.806085
0.085462,-0.306249,0.641823,-0.544941,0.566340,-0.618303
0.580003,-0.589720,0.458461,0.785836,-0.479172,0.390969
0.076124,-0.823248,0.486828,0.799806,0.596835,0.064019
0.366367,0.569627,0.610906,0.122955,-0.769693,0.626462
-0.244404,0.474299,0.610570,0.145895,-0.858937,0.490859
0.411359,0.803155,0.443382,0.125624,-0.478837,0.868869
0.599705,-0.401342,0.561849,0.864564,0.300617,-0.402688
0.035839,-0.893342,0.122977,0.742508,0.209682,0.636173
0.520823,-0.128213,0.592978,0.823917,-0.512923,-0.240980
-0.098108,0.497490,0.732397,0.889179,0.220970,0.400664
0.935306,0.128213,0.515629,-0.081544,-0.386588,0.918640
-0.644477,-0.440302,0.553402,-0.765883,0.130098,-0.629680
0.175151,-0.914369,0.410250,-0.514812,0.418624,0.748146
0.281234,-0.317582,0.624679,0.883833,0.448499,-0.132993
0.157728,0.240244,0.838149,0.976855,0.034229,-0.211146
-0.610366,-0.113318,0.621419,-0.324134,0.700453,0.635848
0.658151,-0.341765,0.581308,-0.093821,0.647321,0.756421
0.378938,-0.351227,0.550018,0.513129,0.255521,0.819394
0.068038,-0.408586,0.674171,0.970608,0.168158,0.172170
0.112662,0.064137,0.902646,0.001098,0.914930,0.403611
-0.208970,0.440480,0.604748,-0.440874,-0.811086,0.384408
0.631245,-0.441414,0.048304,0.993411,-0.107472,0.039794
0.858923,0.207128,0.114405,-0.275638,0.285554,0.917869
0.027384,0.025469,0.971770,0.920699,-0.388614,-0.035946
0.210366,-0.213727,0.819076,0.144770,0.853963,0.499788
0.159346,-0.301636,0.546447,0.581819,0.583438,0.566646
-0.399890,0.078447,0.642109,0.752155,-0.368400,0.546393
-0.105826,0.401403,0.744415,0.894294,0.090486,0.438237
0.142436,0.150934,-0.676697,0.240994,0.968333,-0.065222
-0.275354,0.057477,0.489739,-0.117783,0.553848,0.824245
0.240653,0.075000,0.182771,-0.425291,0.259242,-0.867134
-0.055248,-0.792759,0.508774,-0.729814,-0.667199,-0.149053
0.568830,0.784113,0.329008,0.578551,-0.098287,0.809702
-0.285573,-0.478912,0.456694,0.157999,0.838411,0.521636
-0.303732,-0.224008,0.515057,0.858879,-0.484103,0.167245
0.447675,-0.477394,0.167767,0.620213,-0.341026,-0.706425
0.075097,0.262266,0.802293,-0.692420,-0.720268,-0.042042
-0.722846,-0.430141,0.412577,0.519480,0.673459,-0.525922
0.599925,0.038200,0.510603,0.164320,-0.981526,0.098008
0.129424,0.353387,0.214323,0.128412,-0.660316,0.739927
-0.164492,0.481893,0.710338,0.450935,0.847575,-0.279774
0.498695,0.119393,0.255790,0.293041,-0.537442,0.790749
-0.422534,-0.376636,0.107824,-0.684012,0.666574,-0.296321
0.042895,-0.550700,0.466299,-0.697056,0.201067,0.688248
0.441279,-0.384286,0.570994,0.873549,-0.475774,0.102718
0.096783,0.085574,0.774337,0.008923,0.130999,0.991342
-0.439221,-0.415888,0.480968,0.921957,-0.084287,0.378010
0.322845,-0.104673,0.376273,-0.520136,0.221652,0.824820
0.184928,0.117525,0.884332,-0.352592,-0.064788,0.933532
0.378570,-0.660980,0.372441,0.378205,0.216710,0.899999
0.243301,-0.418166,0.457117,0.731678,-0.452490,0.509804
0.058923,-0.283001,0.653406,-0.464474,0.833850,0.298258
0.545524,0.269803,0.104129,0.072071,0.311312,0.947571
0.871715,0.598658,0.268592,-0.087992,0.032274,0.995598
0.304172,0.642231,0.528544,0.833456,-0.345032,0.431629
0.123323,-0.320035,0.655559,-0.629599,-0.116842,0.768084
0.357323,-0.455899,0.616293,0.643327,0.678420,-0.354789
0.648520,0.299240,0.387408,0.382249,-0.611822,0.692503
0.105384,-0.086975,-0.186118,0.969630,-0.238757,0.053036
-0.019372,-0.206774,0.006053,0.932569,-0.283274,0.223764
-0.084434,-0.633878,0.308890,-0.759102,0.450112,0.470279
0.341666,-0.415652,0.293400,0.842107,-0.132144,-0.522871
-0.113104,-0.074650,0.703209,-0.236326,0.952139,0.193857
0.338063,-0.967700,0.305369,0.050988,0.453197,0.889951
0.158829,-0.091064,0.846497,-0.382300,-0.338018,0.859994
0.523764,0.010396,0.730667,0.217124,-0.741704,0.634612
0.529938,0.122723,0.701977,-0.173347,0.743910,-0.645406
-0.130821,0.125350,0.495487,-0.463438,-0.342140,0.817414
-0.480758,-0.574358,0.485272,-0.514504,-0.709858,-0.481027
0.002536,-0.120327,0.834840,0.983120,0.053836,-0.174863
0.799301,0.631015,0.403694,-0.804619,0.593622,0.014218
0.133321,0.082829,-0.477907,-0.254706,0.966486,0.032080
0.268810,0.069217,0.866043,0.504246,-0.674295,0.539501
0.158978,0.250701,0.605444,0.994907,0.010180,0.100284
-0.143172,0.110690,0.717517,-0.596711,0.752066,0.279880
-0.056278,-0.137793,-0.319826,-0.736302,0.674977,0.047596
0.114574,0.769510,0.445696,-0.295749,-0.509530,0.808029
0.259914,-0.793867,0.305431,0.675380,0.332154,-0.658434
-0.556479,0.102747,0.575734,0.857700,-0.503167,-0.105705
-0.024444,0.121906,0.708758,0.338677,0.849061,0.405454
-0.170153,0.051812,0.691502,-0.296725,-0.284348,0.911647
0.072229,-0.040129,0.903280,-0.256825,-0.894041,0.367059
0.193382,-0.105842,0.584369,0.977295,0.206430,0.047765
0.003270,-0.350410,0.671819,0.607556,0.786398,-0.111596
0.161183,-0.681191,-0.993929,-0.277729,-0.004599,0.960649
0.136924,-0.789311,0.265606,0.920592,0.098130,-0.377996
0.508986,-0.544917,0.581183,0.322256,0.919135,0.226588
0.285867,0.408469,0.480769,0.765321,0.344774,0.543520
-0.112222,-0.111564,0.815294,0.907264,-0.399939,0.130079
-0.221983,0.106366,0.683067,-0.538910,-0.785838,0.303371
0.779672,0.485515,0.249208,0.130887,-0.417392,0.899251
-0.467965,-0.167758,0.413597,-0.539275,-0.624961,-0.564452
0.150818,-0.046379,0.895828,-0.301151,-0.695709,0.652148
0.510678,-0.482303,0.623161,0.929356,0.283044,0.237033
-0.307775,-0.101343,0.394114,0.267693,0.115925,0.956505
-0.308879,-0.476342,0.094598,0.419548,0.099405,-0.902274
0.514058,-0.694510,0.316442,-0.037296,-0.371873,0.927534
-0.812755,0.116591,0.372391,-0.544762,0.743776,0.387340
0.870024,0.420972,0.328547,-0.609336,0.613977,-0.501739
0.186546,0.429264,0.522385,0.943385,-0.136437,0.302340
0.607131,0.017523,0.510454,0.071472,-0.994437,0.077378
0.463700,0.086041,0.556077,-0.498903,0.816290,0.291146
0.125601,-0.613550,0.529999,0.839256,0.522240,-0.151377
0.376216,-0.407417,0.158958,-0.464879,0.304501,0.831364
0.623451,-0.308235,0.373013,0.770133,0.095084,-0.630757
0.477155,-0.020678,0.612026,-0.050202,-0.983972,0.171109
0.119207,-0.440480,0.761485,-0.677466,-0.667593,-0.308804
0.172210,-0.700350,-0.991502,-0.277729,-0.004599,0.960649
0.641096,0.217114,0.587404,0.117621,-0.489120,0.864250
0.221466,-0.022838,0.668099,0.338859,-0.105199,-0.934937
0.107664,-0.567873,0.510466,-0.444028,0.890405,-0.100086
0.180150,-0.327044,0.718537,0.961672,0.040714,0.271162
0.261606,-0.224532,0.830759,-0.075816,0.859854,0.504879
-0.094063,0.160107,0.678102,0.878179,-0.181132,0.442711
-0.032384,0.177629,0.524090,-0.154562,0.813876,-0.560103
0.797537,0.155198,0.539082,-0.553024,0.812912,0.182589
0.130308,-0.846906,0.104328,-0.563692,0.019150,-0.825763
0.342326,0.700001,0.432098,0.138655,-0.704031,0.696502
0.454805,-0.513141,0.455077,0.879064,0.447039,-0.165539
0.174270,-0.794334,0.283646,-0.190159,0.592736,0.782626
-0.168903,0.495151,0.519598,0.112989,-0.714443,0.690511
0.185738,-0.301753,0.553091,0.161211,0.205754,0.965234
-0.400332,-0.039719,0.574926,0.562563,-0.526685,0.637280
-0.336887,-0.250526,0.623062,0.547195,0.826664,0.131166
-0.826724,-0.214368,0.390493,0.134475,-0.865028,-0.483367
-0.360413,0.235107,0.429746,0.994075,0.066735,-0.085801
-0.206323,0.414487,0.430779,0.964571,-0.249308,0.086308
0.243889,0.843515,0.463189,-0.289699,-0.684313,0.669172
0.321669,-0.066123,0.698942,0.941228,0.117523,-0.316666
-0.108842,-0.162093,0.806846,0.955039,-0.095518,0.280672
-0.024593,-0.343048,0.286943,0.274104,-0.558772,0.782714
-0.372321,-0.209520,0.484526,0.269013,-0.637382,0.722064
-0.438559,-0.133821,0.601426,-0.454766,0.301829,0.837907
-0.049661,-0.203505,0.637879,0.219087,-0.543664,-0.810204
-0.602647,-0.107475,0.324728,-0.197436,-0.697632,0.688715
0.347620,-0.184870,0.868917,0.064415,-0.863792,0.499714
0.645213,0.148716,0.718997,0.391166,0.405133,-0.826351
0.520897,-0.535106,0.568705,-0.590195,0.608849,0.530068
-0.177285,-0.392408,0.444402,0.255377,0.050084,0.965543
0.542289,0.274359,0.108060,-0.114626,0.275384,0.954476
0.624629,-0.428679,0.560456,-0.693743,-0.366371,0.620075
0.243081,-0.314310,0.555044,0.284535,0.233879,-0.929699
0.438266,-0.381249,0.596997,0.249494,0.679526,0.689925
0.122000,-0.054440,-0.987745,-0.337413,-0.160499,0.927574
0.309319,-0.333996,0.635030,-0.661558,-0.703535,-0.259575
0.053263,-0.870618,0.521328,0.774352,0.517952,0.363463
0.802684,0.096145,0.437049,0.196720,-0.082792,0.976958
-0.605294,-0.349765,0.383539,-0.647327,0.716979,0.258668
-0.198605,-0.284929,0.634110,-0.522944,0.767485,0.370804
-0.231246,-0.383527,0.722767,-0.129227,0.979707,0.153212
0.110311,-0.005957,0.886509,-0.589192,0.267375,0.762472
-0.144718,-0.164367,0.805702,0.941868,0.168080,0.290919
0.101415,-0.150702,0.797578,-0.630582,-0.723281,0.281481
0.122000,-0.103097,0.756359,0.907842,-0.400562,0.123988
0.108693,-0.816763,0.503424,0.787558,0.340042,0.513930
-0.151260,-0.103389,0.557570,0.602289,0.194944,-0.774109
-0.037899,0.327747,0.662974,-0.639381,0.485088,-0.596558
0.325196,-0.839719,0.308952,-0.180962,-0.675028,0.715255
0.090166,0.089720,0.930527,0.152863,0.977695,-0.144034
-0.224702,0.151754,-0.116483,0.665058,0.590287,-0.457448
-0.130675,-0.815597,-0.072490,-0.113992,-0.728652,0.675332
0.249403,0.132887,0.895965,0.629866,0.090267,-0.771441
0.175151,0.685808,0.388677,-0.463460,-0.206077,0.861822
0.134424,-0.077802,0.891921,-0.567229,-0.820051,-0.075952
-0.195148,0.098013,0.762207,-0.551410,0.795953,-0.249812
0.595589,0.446437,0.344087,0.672503,0.740059,-0.007253
0.312700,-0.238843,0.128800,0.915469,0.303957,0.263681
0.729830,0.245271,0.596561,-0.126428,0.923427,0.362351
-0.032826,0.151579,0.841882,0.582203,0.807334,0.096186
