0.283457,0.652064,0.512196,-0.662463,-0.284268,0.693062
-0.644723,0.042642,0.555193,0.036678,0.442958,0.895792
0.172792,0.100638,0.625427,0.953497,0.227912,-0.197232
0.228367,0.011739,0.332052,0.975174,-0.205724,-0.081930
0.147366,0.186660,0.526625,0.220434,-0.965140,-0.141113
-0.097002,0.145456,0.493967,-0.584678,-0.249089,0.772079
0.016975,-0.299697,0.083607,-0.329470,0.177963,0.927243
0.135628,0.214530,-0.490681,-0.164878,0.955280,0.245471
-0.108497,0.538249,0.434139,-0.738119,0.461122,-0.492491
0.283992,0.254295,0.440577,-0.277574,0.601450,0.749139
0.026376,0.096478,-0.038442,0.968494,-0.122444,0.216856
-0.107523,-0.311552,0.283355,0.773232,-0.198275,0.602328
-0.577506,-0.609111,0.032854,-0.062038,0.251880,0.965768
-0.178149,-0.334486,0.519003,0.091524,0.641046,0.762025
-0.344536,0.176436,0.638269,-0.165168,0.160052,-0.973192
0.028518,0.142152,0.873313,-0.652912,0.378203,-0.656253
-0.245512,-0.273614,0.492101,-0.629967,-0.230705,-0.741564
-0.177126,0.350385,0.266277,-0.180699,0.411796,-0.893181
0.140839,0.108917,0.936718,-0.018906,-0.999821,-0.000430
-0.240253,0.163220,0.258208,0.315472,0.060050,0.947033
0.132170,0.120889,-0.478980,-0.369083,0.889777,0.268467
0.209274,0.237386,0.335908,-0.682151,0.719065,0.132721
0.514820,0.445386,0.464674,0.569894,0.358648,-0.739319
0.205671,0.183278,0.778312,0.028702,0.839639,0.542386
0.307323,0.083146,0.448054,0.293138,0.922380,-0.251567
0.042595,-0.498212,-0.216720,0.409369,-0.379019,-0.829916
-0.526996,-0.004742,0.498405,-0.216629,0.861815,0.458636
0.068265,0.142502,0.087507,-0.003429,0.497188,0.867636
0.448820,0.788735,0.570885,0.824088,-0.362914,-0.434939
0.973650,0.738902,0.474811,-0.476658,-0.012339,0.879002
0.626167,0.674221,0.332924,-0.151812,-0.125759,0.980376
-0.398163,-0.397808,0.328643,0.332389,0.174442,-0.926870
0.021407,0.375690,0.829378,-0.329183,0.700416,-0.633290
-0.587929,-0.567519,0.001995,0.809135,-0.550373,-0.205890
0.585592,0.543769,0.183459,0.002111,0.742598,0.669734
0.275372,-0.036383,0.463500,0.992640,-0.095577,0.074369
-0.057645,0.113854,0.622834,-0.482677,-0.078602,-0.872264
-0.256666,-0.703141,0.309553,0.492711,-0.481267,-0.724996
-0.724702,-0.752935,0.047775,0.490492,0.094594,0.866296
0.428753,-0.244694,0.698622,0.911139,-0.165309,-0.377489
-0.150190,0.444725,0.509503,0.801671,0.380142,0.461319
-0.314483,0.232799,0.650798,-0.375063,-0.926953,-0.009229
0.130123,0.191946,0.860147,0.296510,0.939358,-0.172301
-0.602542,-0.478426,-0.205298,0.487998,-0.863182,0.129518
0.310782,0.622444,0.618095,-0.200796,0.784790,0.586332
-0.027446,0.248193,0.180709,-0.057731,0.295056,0.953734
-0.593483,0.330522,0.562905,-0.550709,-0.781618,-0.292904
-0.165680,-0.216512,0.512766,-0.744676,-0.567630,0.351075
0.244538,0.506064,-0.994579,0.001130,0.125879,0.992045
0.294951,0.271399,0.831680,0.572110,-0.718854,0.394890
-0.507561,0.294410,0.447059,-0.216300,0.538270,-0.814542
0.144687,0.264518,0.821152,0.827400,0.043520,-0.559925
-0.475805,0.111794,0.613188,0.503025,-0.713411,0.487863
-0.122963,0.080541,0.468138,-0.228614,-0.744319,0.627474
-0.248192,0.055586,0.632200,0.180552,0.200325,0.962949
-0.083364,-0.352600,0.056325,-0.330878,0.011230,0.943607
0.406153,-0.187942,0.167118,0.661877,0.583312,0.470814
0.263779,0.442626,0.787242,0.861540,-0.183488,-0.473372
0.161004,0.169790,0.274067,0.278007,-0.947253,0.159448
-0.034461,0.135233,0.527140,-0.439330,-0.671171,0.597092
-0.364652,-0.343155,0.354014,0.096028,0.616082,0.781806
0.148632,0.118246,0.983950,0.040992,-0.997434,0.058702
0.106695,0.152181,-0.375652,0.391901,-0.917858,0.062846
0.394851,0.591619,0.611881,0.039373,-0.775945,0.629570
0.126762,0.210138,-0.441482,0.273063,0.940495,-0.202253
-0.033633,0.090648,-0.086457,-0.436704,-0.034446,0.898945
0.444729,0.413939,0.324854,0.003583,-0.206413,0.978458
-0.045517,-0.242051,0.127363,0.765646,-0.641443,0.048349
0.489394,0.005986,0.727525,-0.567092,0.122134,0.814549
0.208202,0.224831,0.928391,0.897784,-0.296639,0.325560
0.535764,0.509096,0.403895,-0.502395,0.355728,0.788072
0.013322,0.129908,0.332432,0.335536,-0.285303,0.897785
-0.280096,0.142968,0.256151,0.493827,0.486890,0.720468
-0.000949,0.031369,0.822672,-0.830110,0.556442,0.035908
-0.196609,-0.168468,0.013362,0.467973,-0.308795,-0.828038
-0.727430,-0.365234,-0.054145,-0.171296,0.208377,0.962931
-0.081854,0.468203,0.400777,-0.122002,-0.601307,0.789649
0.168798,0.049522,0.181056,0.928650,0.060633,-0.365969
-0.043083,0.254412,0.486457,0.740512,0.663535,0.106598
-0.325199,-0.316878,0.346872,0.174526,0.314768,0.932985
0.182631,0.258493,0.822538,0.471659,0.388242,-0.791711
-0.424076,-0.238708,-0.092593,0.558979,-0.070079,0.826215
-0.323834,0.624505,0.512655,0.630886,-0.380222,0.676324
-0.005041,0.186893,0.861902,0.675481,0.705496,0.214478
0.530114,-0.709904,-0.006287,-0.412012,0.022005,-0.910913
0.114976,-0.409003,0.510744,0.743966,-0.353687,-0.566939
-0.192810,0.203763,0.647881,0.568237,0.777488,0.269478
-0.175032,0.247376,0.757624,0.566893,-0.232361,0.790342
0.073818,0.240224,-0.828640,-0.754786,0.601945,0.260692
0.028471,0.470186,0.292621,-0.000757,-0.260813,0.965389
-0.575704,-0.513488,0.010601,0.868145,-0.367812,-0.333225
-0.172255,-0.233849,0.529565,0.488210,-0.333358,0.806550
0.318137,0.509718,0.536506,-0.720638,0.172180,0.671591
0.162174,0.296976,0.531979,0.906532,-0.214442,-0.363612
-0.121014,-0.140325,0.393646,0.377575,0.192267,0.905798
-0.492365,-0.664697,-0.073727,-0.774685,0.125410,0.619787
0.055795,-0.244810,0.078845,0.450089,-0.200129,-0.870269
-0.234650,0.578364,0.499042,0.682823,-0.124203,0.719949
0.469716,0.620073,-0.985090,0.048666,0.223375,0.973517
0.595529,0.007619,0.760127,-0.468127,-0.045311,0.882499
0.235626,0.128586,0.632580,-0.406907,-0.796323,-0.447545
-0.675410,-0.062310,0.501668,-0.645792,0.253694,-0.720133
-0.003580,-0.221760,0.732633,-0.605616,-0.545446,-0.579411
0.274933,0.254218,0.766968,-0.755751,0.140071,-0.639703
-0.052677,-0.300163,0.068943,0.798737,-0.282893,-0.531028
-0.203478,-0.691168,0.175031,-0.380446,0.904482,-0.192803
0.119944,0.200964,0.275319,0.369632,0.632928,0.680275
0.318965,0.385758,0.259940,-0.069602,-0.086698,0.993800
0.042888,-0.410635,0.221046,0.915220,-0.283325,-0.286529
-0.687245,-0.465716,0.388874,-0.341747,-0.611056,-0.714017
0.001096,0.142463,0.887865,0.905816,-0.399860,0.140035
0.298312,0.251108,0.692688,-0.784466,0.614012,-0.087186
-0.443462,0.137099,0.577736,0.896558,0.200744,0.394823
-0.014734,0.827335,0.311185,0.612245,0.284388,0.737753
0.305228,0.064682,0.693381,-0.362073,-0.831169,0.421973
0.432698,0.622094,0.328173,-0.461250,0.113179,0.880022
0.527728,0.029620,0.657493,0.757718,-0.411575,-0.506428
-0.622415,0.298414,0.581860,0.932644,-0.022583,0.360091
-0.366406,-0.081862,0.663103,0.762088,0.131001,0.634082
-0.085653,0.896525,0.317265,0.222501,-0.915424,-0.335398
-0.772484,-0.046412,0.519752,0.851262,-0.304327,0.427480
-0.074888,0.929566,0.320730,0.668357,-0.619721,-0.411393
-0.039380,-0.488805,0.185403,-0.395291,0.411040,0.821457
-0.252477,0.157817,-0.006309,-0.329317,0.918396,-0.219317
-0.570833,0.233461,0.415083,0.120813,-0.765442,0.632063
-0.526947,-0.034168,0.504462,0.288904,-0.956389,0.043071
0.377901,-0.181878,0.758775,-0.635680,0.609583,0.473624
-0.028080,-0.674570,0.128179,0.499027,0.374401,0.781534
-0.132267,0.359325,0.192936,-0.139810,-0.879660,0.454589
-0.037042,0.898702,0.307776,0.921479,0.258905,0.289560
0.435620,0.490632,0.274012,0.490360,-0.255050,-0.833364
0.383065,0.408731,0.559563,0.833926,-0.199956,0.514379
0.019507,-0.318860,-0.262399,-0.576991,0.445834,0.684334
0.008890,0.256706,0.700131,0.487041,0.450148,0.748437
0.104503,0.208078,0.876543,0.772311,-0.467963,-0.429589
0.032805,-0.224831,0.255235,0.530656,0.099972,0.841671
0.337376,-0.076343,0.617894,0.158650,0.558172,0.814417
0.142253,0.392832,0.722719,0.846478,-0.062957,0.528688
0.350041,0.572689,0.608662,0.612871,-0.564049,0.553388
-0.522418,0.330483,0.435469,-0.071808,0.892576,-0.445142
-0.091303,0.294954,0.251032,0.258640,0.086548,0.962089
0.751589,0.543614,0.439660,0.815344,0.380235,-0.436619
0.211856,0.357498,-0.984811,0.057531,0.328339,0.942806
0.705268,0.190469,0.701003,0.892496,-0.438193,-0.106944
0.151604,0.126565,0.871178,0.525844,-0.729819,0.436868
0.221646,0.130685,0.711431,-0.660244,0.559756,0.500751
0.114585,-0.586760,0.269798,-0.039713,0.624364,0.780123
0.196367,-0.792389,0.184431,0.693316,0.290540,0.659469
0.326320,0.098655,0.621593,-0.434153,-0.350733,0.829758
0.550377,0.392055,0.461019,0.484344,0.348833,-0.802326
0.286379,-0.429799,0.630400,-0.127181,0.588958,0.798094
-0.490611,-0.456853,0.367191,-0.016886,0.526766,0.849843
0.250774,0.092047,0.792014,0.236496,0.490073,0.838987
-0.034996,0.222071,0.734656,-0.003553,-0.516456,0.856306
0.010400,-0.448262,-0.236805,-0.511979,0.410355,0.754643
0.608193,0.485851,0.399581,-0.806722,0.495573,0.321881
0.220233,0.317850,0.532516,0.886298,-0.245216,-0.392867
-0.327293,0.598539,0.527766,-0.726528,0.292215,-0.621906
0.339276,-0.070396,0.810411,-0.669601,0.196224,0.716332
0.521201,0.766384,0.607712,-0.248313,-0.844944,0.473720
-0.059399,0.274858,0.905379,-0.474831,0.735632,-0.483095
-0.421203,-0.624815,-0.042220,-0.444659,0.273746,-0.852843
0.150678,-0.011389,0.277476,0.538685,0.434861,-0.721606
-0.142544,0.403211,0.261740,0.428984,0.694660,0.577426
0.345268,0.055936,0.698399,-0.350744,-0.840266,0.413439
0.188038,0.139703,0.559652,0.388656,0.904906,-0.173471
-0.164705,-0.267006,0.504105,0.725577,-0.636872,-0.260638
0.277708,-0.864067,0.000978,0.480654,-0.113796,-0.869495
0.462556,0.513644,0.086177,-0.586632,0.172609,0.791245
-0.109130,-0.525111,0.047372,0.571191,0.567736,-0.592804
0.038261,0.242051,0.504261,0.108625,0.594561,0.796680
0.424466,-0.213442,0.698790,0.980341,0.164568,-0.108855
-0.144833,0.198438,-0.057364,0.070711,-0.962121,0.263291
-0.450574,0.170450,0.269552,0.363547,0.125944,0.923023
-0.783005,0.182423,0.151192,0.259029,0.460047,0.849271
0.194760,-0.211925,-0.040342,0.872067,-0.277023,-0.403433
0.072697,0.174882,0.527933,0.187588,-0.971501,-0.144900
0.282094,-0.517958,0.566917,-0.262791,0.541754,0.798401
0.134410,-0.520057,-0.139914,-0.638785,0.739118,-0.213676
-0.542680,-0.239835,0.479650,-0.527392,-0.083740,-0.845485
0.646234,0.649227,0.277510,-0.173961,0.803728,0.568997
-0.257447,0.065887,0.557004,0.146060,-0.710845,0.688015
-0.002752,0.211848,0.846623,-0.393838,-0.890869,-0.226372
0.635227,0.499612,0.192802,-0.568406,0.015841,-0.822596
-0.584179,-0.057918,0.493442,-0.511004,0.728144,-0.456816
0.466063,0.030436,0.634469,0.776632,0.495188,-0.389401
-0.484523,-0.342494,0.348168,0.347125,-0.060495,0.935866
-0.412727,0.162598,0.059588,-0.635236,-0.341598,-0.692666
0.222912,0.367994,0.678147,0.485707,-0.242900,-0.839695
-0.353986,-0.327490,0.009930,-0.480348,0.261888,0.837066
-0.163877,0.787880,0.212451,0.946180,0.317822,-0.061101
-0.276540,0.010184,0.441974,-0.462227,0.796441,-0.389907
0.230219,0.171733,0.778904,0.878593,0.357948,0.316145
0.234261,0.581513,0.495275,0.925751,-0.203773,-0.318530
0.363581,0.590259,0.620420,0.764472,-0.630801,0.132938
0.335964,0.125088,0.769482,0.389119,0.852446,-0.349173
-0.087844,0.703802,0.146933,0.796946,0.245864,-0.551750
0.167045,-0.182733,0.612663,0.876603,-0.443692,-0.186292
-0.189401,-0.667613,0.307050,0.755145,0.222116,-0.616783
-0.866783,0.065071,0.174137,0.416508,-0.379445,0.826162
-0.112589,-0.443365,0.282483,0.001406,0.414178,0.910195
0.031928,0.204307,0.502987,0.496525,0.554553,0.667783
-0.455834,-0.378838,0.359926,-0.689444,0.617769,0.378191
0.230219,0.022118,0.327671,0.989237,-0.134001,-0.058765
0.923090,0.758299,0.471838,-0.476658,-0.012339,0.879002
-0.393536,0.254062,0.659214,0.072417,-0.115966,0.990610
-0.454470,-0.181995,0.337394,0.480534,-0.658069,-0.579684
-0.158471,-0.484451,0.286630,-0.164420,-0.189779,0.967962
0.261879,0.465366,0.253279,-0.536845,0.137765,0.832357
0.204794,0.520913,0.632747,0.985613,0.066199,0.155516
-0.282872,0.467037,0.732264,0.694493,-0.283037,0.661490
0.507319,0.662793,-0.998614,0.028327,0.208219,0.977672
0.375661,0.236920,0.166537,-0.598612,0.787597,-0.146134
-0.295097,0.303234,0.156121,-0.016063,0.077569,0.996858
-0.077470,-0.166719,-0.030875,0.762646,0.559059,0.325305
0.120284,-0.154435,0.727704,0.919039,-0.285138,-0.272147
-0.354668,-0.371997,0.006477,-0.597682,0.111553,0.793935
-0.092326,-0.643940,0.195898,0.442882,-0.223698,-0.868225
0.132705,-0.240535,0.606035,0.344748,-0.241101,-0.907204
0.541706,0.760943,0.603901,-0.029956,-0.765872,0.642295
-0.296802,0.240962,0.414803,-0.140951,-0.720906,0.678548
-0.017120,0.554148,0.405728,-0.462836,0.062359,-0.884248
-0.116095,0.235248,0.734388,-0.361575,-0.932279,-0.010942
-0.620418,-0.018580,0.567018,0.220362,0.540161,0.812199
-0.504590,0.285975,0.698757,-0.739883,0.555828,-0.378982
-0.529919,-0.422918,0.023488,0.712819,0.122693,0.690533
0.108011,-0.132045,0.227282,0.908833,0.089281,0.407495
0.752417,0.644601,0.426662,0.937892,0.092914,-0.334255
0.106550,0.170839,0.345587,0.415866,-0.907207,-0.063493
-0.359830,-0.659372,-0.053028,0.491754,-0.303746,0.816037
0.178198,0.377323,0.620263,0.946119,-0.195035,-0.258497
0.185163,-0.155212,0.513337,0.784208,-0.004029,-0.620485
0.106695,0.146933,0.316639,-0.652761,0.751798,-0.093296
0.266457,-0.494519,0.571746,-0.441842,0.642604,0.625967
0.212587,-0.338063,0.579245,0.969226,-0.134739,-0.206025
0.056331,0.185027,0.458660,0.750463,0.061824,0.658014
0.521590,0.675503,0.577222,-0.222925,0.729966,-0.646107
-0.354082,0.266306,0.541502,0.257537,0.746845,0.613105
-0.108741,0.676398,0.193328,0.950413,0.310558,-0.016396
0.045226,0.432053,0.391008,-0.537453,-0.601779,0.590768
-0.496798,-0.117235,0.464159,-0.552598,0.589460,-0.589213
-0.503909,0.314274,0.689379,-0.739883,0.555828,-0.378982
-0.301283,-0.304011,0.434463,0.054699,0.933557,0.354230
0.242932,-0.263702,0.524737,-0.097294,0.286379,0.953164
-0.384719,-0.042059,0.662556,0.756917,0.116565,0.643031
0.252526,0.451878,0.677141,0.567857,0.805882,-0.167606
0.091791,0.144096,0.067557,0.948031,-0.307410,0.082075
-0.071673,-0.025461,0.379340,0.972825,-0.229009,-0.034151
0.294756,0.159838,0.770466,-0.305478,-0.927160,0.216928
0.159154,0.151131,0.648551,-0.448333,-0.887910,0.103021
-0.442438,-0.477766,0.023823,0.108426,0.120733,0.986746
0.452328,0.050377,0.644706,0.767688,0.047300,-0.639076
-0.170355,0.451178,0.404532,-0.064830,-0.672504,0.737249
0.338837,0.503732,0.578641,0.925068,-0.170243,0.339509
0.343612,0.038016,0.529677,0.444335,0.895720,0.015905
0.380190,0.082874,0.559261,0.125107,0.992101,0.009202
-0.082292,0.429760,-0.029903,0.754956,0.653007,0.060189
0.045956,0.361969,0.460996,0.797292,0.589219,0.130943
0.412825,0.518386,-0.994389,-0.126140,-0.044317,0.991022
-0.148583,-0.272992,0.288642,0.782881,-0.405518,0.471860
0.434501,0.388712,0.177759,0.765097,-0.549088,0.336345
0.077324,-0.074166,0.258096,-0.237096,0.065373,0.969284
-0.171671,-0.077509,0.619637,0.978600,-0.196755,0.060238
-0.160664,0.202752,0.709821,-0.430589,-0.902151,0.026783
-0.258760,0.156612,0.035670,0.084070,0.942332,0.323950
0.224082,0.498290,0.656051,0.974200,0.204494,-0.095481
0.305132,0.519786,0.616150,0.943927,-0.319918,0.081569
0.350235,0.663531,0.640515,-0.811436,0.409525,-0.416968
0.509072,0.693034,0.596714,-0.015063,-0.761435,0.648066
0.236015,-0.854738,-0.006712,0.510308,-0.075308,-0.856688
-0.186186,0.232450,0.761547,0.434667,-0.514470,0.739179
0.641557,0.545985,0.150387,-0.744841,0.667139,-0.011722
-0.202308,-0.685338,0.173556,-0.460168,0.862977,-0.208603
-0.126713,-0.063243,0.010433,0.358500,-0.321724,-0.876340
0.278391,-0.104641,0.510866,-0.573976,-0.808950,-0.127084
-0.518861,-0.379460,-0.036162,-0.779728,0.381740,0.496286
-0.161930,0.309726,0.175423,0.234119,0.814631,-0.530627
0.134800,0.127109,0.959172,-0.519147,-0.734632,-0.436809
0.687246,-0.013333,0.775495,0.853543,-0.334483,-0.399482
-0.681742,-0.842922,0.049842,0.163790,-0.482087,0.860677
-0.194953,0.203879,0.765067,0.282549,-0.356924,0.890377
-0.032658,-0.286131,0.074352,0.689040,-0.297005,-0.661069
0.093983,0.151520,-0.266870,0.990540,-0.125653,-0.055147
-0.060762,0.226775,-0.985415,0.259002,-0.084761,-0.962150
0.242153,-0.789435,0.173288,0.065789,-0.780442,0.621757
-0.661966,-0.441654,-0.081438,0.489623,-0.676631,0.549945
0.102750,0.162909,0.728531,0.864551,-0.422527,0.272070
0.336743,0.040426,0.525731,0.302052,0.952182,0.045985
0.293150,0.503499,0.594445,-0.612736,-0.719734,0.326400
-0.108009,0.619412,0.427154,-0.762158,0.564934,-0.316172
-0.362412,-0.411179,0.018749,-0.179388,0.280559,0.942925
-0.078395,-0.338762,0.160077,0.790950,-0.133196,-0.597208
0.084874,-0.301524,0.441974,0.002422,0.572476,0.819918
-0.558558,-0.262847,0.352248,0.445031,-0.391313,-0.805495
0.271523,-0.748698,0.125240,0.501676,0.033894,-0.864391
0.036799,-0.066275,0.077739,-0.683808,0.030523,0.729023
0.458806,0.611988,0.317980,0.465190,-0.108508,-0.878535
-0.023063,0.202519,0.849462,0.496978,0.853809,0.154994
-0.419789,-0.426495,0.453910,-0.315761,-0.350597,-0.881690
0.069336,0.089093,0.879415,0.708121,0.648135,0.280154
-0.142982,0.409663,0.709095,-0.481399,0.096578,-0.871165
0.500889,0.481497,0.404230,-0.221988,0.145041,0.964201
-0.000609,-0.205395,0.713946,-0.920381,0.364508,-0.141540
0.518912,0.759310,0.610718,-0.207591,-0.874268,0.438818
0.217360,-0.139275,0.771282,-0.466930,0.862772,0.193911
-0.035191,0.232955,0.704144,0.101332,0.050583,0.993566
0.194808,-0.568530,0.212216,0.340144,0.799024,-0.495846
0.077470,-0.483752,0.475940,0.309993,0.409422,0.858066
-0.137040,0.200809,0.317980,0.849466,0.369623,0.376545
0.313120,-0.365311,0.605197,0.987449,-0.010044,-0.157620
0.406542,0.089404,0.740702,0.592018,0.762691,-0.260416
-0.476242,-0.010379,0.498572,0.402770,-0.915181,0.014830
-0.177954,-0.120073,0.619447,-0.019606,-0.158276,0.987200
0.004847,0.001361,-0.042756,0.883208,-0.439749,-0.162984
-0.241810,0.165280,0.015284,-0.155685,0.958723,0.237932
-0.389883,-0.210449,0.544843,0.688468,0.097094,0.718738
-0.387934,-0.413395,0.415631,-0.037190,-0.998545,0.039054
-0.388129,0.274547,0.648752,0.433318,-0.819450,0.375150
-0.034850,-0.423268,0.083819,0.570401,-0.196540,-0.797505
0.163099,0.145417,0.829501,-0.547637,0.630057,-0.550565
-0.255108,0.455026,0.731795,-0.604975,0.364081,-0.708131
0.700008,-0.055352,0.788840,0.879838,-0.282824,-0.381962
-0.705365,-0.712470,0.040856,-0.082930,0.479425,0.873656
0.435474,-0.230973,0.693403,0.911139,-0.165309,-0.377489
0.247753,-0.051621,0.746537,-0.032909,-0.879995,-0.473842
0.405958,0.712820,0.545961,0.020262,-0.255185,0.966680
0.089598,0.042253,0.706044,0.901749,-0.419531,0.104123
-0.349309,-0.227863,0.541524,0.298673,-0.087031,0.950379
0.372446,0.338607,0.846813,-0.053942,-0.907988,0.415509
0.433331,0.066547,0.733158,0.167926,-0.951864,-0.256429
0.720611,0.582912,0.419073,-0.696777,0.172186,0.696314
0.311221,0.074127,0.895476,-0.375471,0.920976,0.104040
-0.117459,-0.236298,0.491732,-0.822853,0.524843,-0.217836
-0.684226,0.215580,0.298757,0.532831,0.657003,0.533328
-0.563040,-0.021068,0.469938,0.976891,-0.212637,0.021654
0.004847,0.119140,-0.156165,0.342345,-0.936869,0.071256
0.164170,0.158089,0.798363,-0.660281,0.426581,-0.618108
-0.715447,-0.502177,0.390718,-0.382030,-0.695421,-0.608639
0.352184,-0.445464,0.623326,0.332570,0.199474,-0.921742
0.316676,0.327451,0.332845,0.508038,-0.620381,-0.597516
-0.059204,-0.689730,0.195216,-0.437464,0.212606,0.873741
-0.068508,-0.242090,0.026282,0.916431,0.076905,-0.392733
-0.571028,0.280378,0.566034,0.711901,0.154273,0.685126
0.103822,0.462412,0.735226,0.152216,-0.814809,0.559389
0.123305,0.475550,0.740367,0.158950,-0.825208,0.542002
-0.245220,-0.342649,0.440823,-0.779466,0.037089,-0.625346
0.129442,0.178613,0.917550,0.526193,0.807017,-0.268036
0.566889,0.424707,0.173612,0.780879,-0.564261,0.268025
0.119311,0.106002,0.815653,0.944581,-0.245904,-0.217483
-0.044349,0.553681,0.284562,0.087911,-0.317879,0.944047
-0.826599,0.150509,0.170773,0.538873,0.256410,0.802415
-0.257543,-0.261331,0.016815,0.141865,-0.245758,-0.958894
0.401525,0.341211,0.393098,-0.013612,0.438575,0.898591
-0.475999,0.090687,0.597150,0.704425,-0.513315,0.490198
-0.579699,-0.304323,0.313800,0.855499,0.445551,-0.263829
0.111128,0.213014,0.856112,-0.065414,-0.942489,0.327775
-0.220477,0.387390,0.520445,0.393832,-0.148368,0.907129
-0.374930,0.349957,0.373059,0.256999,0.431426,-0.864768
0.519545,0.437534,0.196211,0.836915,-0.546269,0.034115
0.469278,0.604758,0.572986,0.825926,-0.496679,0.266751
-0.167043,0.126720,-0.989226,-0.139326,0.116265,0.983398
-0.434548,0.291806,0.666970,0.820850,0.064476,0.567494
-0.399576,-0.406048,0.416938,-0.046099,-0.993993,0.099265
-0.096369,0.403366,0.694610,0.360720,0.556859,0.748191
0.278829,-0.029931,0.428707,0.765666,0.458267,-0.451382
0.349358,-0.141336,0.163028,0.561755,0.675543,0.477569
-0.423539,0.085944,0.133812,-0.004169,-0.599756,0.800172
-0.232605,0.274509,0.408209,0.135318,0.745507,0.652617
-0.458513,-0.594379,0.023566,-0.546212,0.123257,-0.828529
-0.066998,0.016520,0.497566,-0.173265,0.329769,0.928026
0.281069,0.481731,0.819777,-0.301113,-0.911745,0.279377
-0.014636,0.052943,0.858079,0.421606,-0.783747,0.456059
0.334697,-0.168584,0.677253,0.887482,-0.044602,-0.458679
-0.134068,0.016598,-0.980027,-0.134362,0.168756,0.976457
0.249557,0.249165,0.532404,0.934976,-0.016216,-0.354339
0.080101,-0.831455,0.284652,-0.574300,0.524402,0.628635
0.159543,0.200964,0.082131,0.811435,-0.581422,-0.059344
-0.412434,-0.482041,0.024225,0.147301,-0.044945,0.988070
-0.470835,-0.353417,0.454615,-0.326582,-0.462020,-0.824549
0.061932,-0.352095,0.472609,-0.940160,0.233069,-0.248553
0.079419,0.501088,0.759446,-0.219535,0.873344,-0.434827
-0.358953,0.144679,0.260510,-0.231512,-0.195953,-0.952893
-0.117557,0.172511,0.562290,-0.164797,0.830089,0.532724
0.104406,0.178574,-0.074509,0.145577,-0.974694,-0.169646
0.000365,-0.750758,0.273341,0.142975,0.015564,0.989604
0.121844,-0.890344,0.214977,-0.262726,0.806219,0.530081
0.164318,0.542331,0.677230,-0.084721,-0.643302,0.760910
0.050778,0.167652,0.412624,0.275189,0.626935,0.728851
0.254280,0.123688,0.905211,-0.200680,-0.713653,0.671138
-0.245999,0.387740,0.475917,0.908868,0.143182,0.391736
0.338351,0.624776,0.611042,0.200318,-0.979710,-0.006399
-0.523002,0.138615,0.272480,0.326714,0.116770,0.937882
-0.022430,0.620889,0.293090,-0.171749,-0.034989,0.984519
-0.207569,-0.327917,-0.083417,0.750485,-0.304259,-0.586685
0.247657,-0.323525,0.597183,0.931791,0.362519,-0.018557
-0.234845,-0.038055,0.639610,-0.454459,0.321286,-0.830808
-0.421203,-0.056324,0.333605,-0.110484,0.393559,0.912636
0.062955,0.180168,-0.257325,0.942444,-0.334244,0.008907
0.347604,0.392755,0.339775,-0.302625,0.319404,0.897997
0.320426,0.617858,0.553829,-0.702048,0.239582,0.670618
-0.092131,-0.184755,0.490413,-0.759046,0.055691,-0.648651
0.484767,0.578442,0.277789,-0.495524,0.095555,0.863322
-0.160225,0.217290,0.530928,-0.333855,-0.370411,0.866797
0.176445,-0.135816,0.613244,0.973794,0.213300,-0.078924
0.536153,0.702130,0.327145,-0.784169,0.567756,0.250464
-0.083315,0.915494,0.313823,0.607758,-0.793896,-0.018976
0.249118,0.302495,0.601196,-0.811394,0.557385,0.175961
-0.428411,-0.322203,0.342569,0.181668,-0.086067,0.979586
0.897908,0.690236,0.471547,-0.476645,-0.067190,0.876524
0.204890,0.350929,0.528067,0.873980,-0.299431,-0.382753
0.102555,0.148566,0.544754,0.014923,0.997346,0.071258
-0.032853,0.993431,0.308212,0.922490,-0.186200,0.338146
0.209323,0.014382,0.768935,-0.516567,-0.574418,0.634982
-0.017413,0.290096,0.701584,0.478276,0.408609,0.777362
-0.077031,0.208427,0.734824,0.557149,0.460549,0.690999
0.195246,0.077082,0.767571,0.844665,-0.535294,-0.001011
-0.191301,0.459730,0.731627,0.750031,-0.172982,0.638381
0.366261,0.504781,0.253838,-0.305826,0.239652,0.921432
0.642776,0.644873,0.294509,-0.263330,0.776034,-0.573087
0.399869,-0.218922,0.178384,0.752511,0.324418,0.573132
0.185358,0.298609,0.626701,0.823660,0.124887,0.553161
0.166558,0.167341,0.345978,0.593551,-0.800150,-0.086359
0.092520,0.066703,0.886960,0.770508,-0.516792,-0.373153
0.243419,-0.063127,0.422493,0.219919,-0.060437,-0.973644
-0.128369,-0.344865,0.514287,-0.044169,0.435483,0.899113
0.520568,0.015432,0.709039,0.763978,-0.523497,0.377212
-0.545262,-0.427272,0.355333,-0.173908,-0.542492,-0.821863
-0.033535,0.326596,0.694129,-0.672562,0.009251,-0.739983
-0.268113,0.078287,0.568359,-0.490549,0.836726,-0.243416
0.263340,-0.135544,0.269038,0.689057,0.100254,-0.717739
-0.143372,-0.413823,0.060415,-0.659073,0.739996,0.134276
0.172501,0.002449,0.616731,0.711301,0.652643,-0.260976
-0.069482,0.222926,0.872676,-0.109390,0.970414,-0.215246
0.160176,0.384631,0.709542,0.815477,-0.064493,0.575186
0.186090,0.136905,0.716662,-0.324209,0.703200,0.632770
-0.331677,-0.314740,0.014803,-0.331537,0.077135,0.940284
-0.458757,-0.008085,0.492894,-0.465876,-0.033642,-0.884210
0.356664,0.069929,0.702423,0.496590,0.755616,-0.427134
0.205767,0.156651,-0.460628,0.621486,-0.781399,-0.056313
-0.095248,-0.021029,-0.979860,-0.134362,0.168756,0.976457
0.277368,0.326790,0.760764,-0.016682,-0.086224,0.996136
0.272302,0.112804,0.727156,-0.017795,-0.828524,0.559671
0.186528,0.029814,0.738311,0.133114,0.102149,0.985823
-0.200361,0.133212,0.579133,0.378805,-0.859560,0.343021
0.316092,0.284615,0.389153,0.485691,-0.502824,-0.715033
0.102896,0.278473,0.285389,-0.466511,-0.067255,0.881955
0.384623,0.312680,0.386962,0.111249,-0.039879,0.992992
-0.236745,0.157429,0.561955,0.278611,0.802639,0.527396
0.320426,0.382687,0.543949,0.433372,-0.889739,-0.143363
0.079906,-0.566159,0.492861,0.265734,-0.887623,-0.376179
-0.375757,0.284576,0.421018,0.024657,-0.881800,0.470978
0.476096,0.789707,0.563777,-0.337188,-0.206854,0.918431
0.042790,0.256977,0.829165,0.149558,0.774959,0.614061
0.412436,0.027171,0.722440,-0.379520,-0.159325,0.911361
0.077470,0.210799,0.912252,0.994802,-0.099465,-0.021816
-0.649447,-0.422763,-0.079248,-0.508916,0.731551,-0.453694
0.225203,0.230934,0.878566,-0.649328,0.683381,0.333713
0.272839,0.361346,0.317913,0.413873,-0.045627,-0.909191
0.077324,0.245122,-0.099790,-0.220375,-0.416414,0.882062
0.045226,-0.034712,0.733628,0.818478,-0.551851,-0.159858
-0.396800,-0.043147,0.672916,0.728318,0.285867,0.622762
0.372349,0.357382,0.379251,-0.109233,0.504732,0.856337
-0.270208,0.238358,0.639833,-0.110770,-0.929382,-0.352106
0.050389,0.125126,-0.082701,0.471058,-0.499756,-0.726876
0.302160,0.309609,0.362866,-0.239725,0.962963,0.123424
-0.610871,-0.490438,0.382402,-0.483820,-0.812191,-0.325981
0.218285,0.247493,0.856123,0.816889,-0.543044,0.194412
0.304985,0.305761,0.361882,-0.239725,0.962963,0.123424
0.249653,0.004276,0.470273,0.161407,0.429233,0.888654
0.214194,0.244306,0.755042,-0.723160,0.210114,0.657945
-0.522369,-0.429410,0.348794,0.488723,-0.833440,-0.257929
0.206351,0.570940,0.654732,-0.618381,-0.773193,0.140633
0.227394,-0.790523,0.174193,0.065789,-0.780442,0.621757
-0.020190,0.204579,0.868921,-0.422178,-0.857443,-0.294207
-0.061590,0.192996,0.679175,0.116536,-0.860870,0.495300
0.098609,0.146972,0.523418,-0.325176,0.944942,-0.036671
-0.359002,-0.293788,-0.109224,-0.038078,-0.307740,0.950708
-0.221158,-0.393026,0.550063,0.956362,0.267620,0.117266
0.017218,-0.276102,0.764017,-0.735720,-0.547777,-0.398317
-0.350040,-0.207805,0.551203,0.522786,0.469978,0.711207
0.291445,0.242440,0.819542,-0.601806,0.625750,-0.496253
0.217457,0.239330,0.227662,-0.702685,0.531905,-0.472558
-0.398358,-0.317383,0.347945,0.015767,0.291030,0.956584
-0.454275,-0.235054,0.007472,-0.683990,0.726339,0.067736
-0.167385,-0.488494,-0.041661,0.939226,-0.240910,-0.244576
0.826989,0.676009,0.450859,0.395367,0.357519,-0.846088
-0.433136,0.023595,-0.347531,0.253428,-0.651357,0.715198
0.469374,-0.030242,0.676102,-0.485962,0.866558,-0.113659
0.591925,0.394231,0.294878,-0.629745,-0.679948,-0.375621
-0.027057,0.094690,-0.092581,-0.436704,-0.034446,0.898945
0.773020,0.640053,0.441985,0.349137,-0.825757,0.442978
-0.774092,-0.829394,0.035011,0.594754,-0.380844,-0.707973
0.281801,0.412968,0.607589,-0.380920,0.237623,-0.893552
0.045665,0.132745,-0.155752,0.435029,-0.900276,-0.015878
0.168115,0.185804,-0.210059,-0.524305,0.851476,0.009605
0.552519,0.000778,0.700210,-0.533350,0.814907,-0.226858
0.378778,0.020407,0.579133,0.331498,0.812629,0.479315
0.398408,0.204113,0.635765,0.244440,0.721764,-0.647538
-0.226224,-0.315984,0.054939,-0.362940,0.078420,0.928507
0.063637,-0.349296,-0.051932,0.242277,-0.494792,0.834555
0.053409,0.098616,0.476454,0.964896,-0.171519,-0.198888
0.514430,-0.876934,0.220319,-0.394453,0.030410,0.918413
-0.155694,0.161549,0.800788,-0.608031,-0.332913,-0.720741
0.082243,0.066897,0.888223,0.997046,-0.065932,0.039400
-0.172353,-0.599238,0.301417,-0.046897,0.559544,0.827473
0.627481,-0.047151,0.728218,0.913595,0.091019,-0.396307
-0.103869,0.192024,-0.015116,0.200142,0.979736,-0.007775
0.738779,0.875807,0.334924,-0.247621,0.494307,0.833274
0.323592,0.396797,0.562950,-0.412698,-0.095074,-0.905892
-0.028908,-0.618324,-0.114119,-0.905457,0.082642,-0.416315
-0.284819,0.414211,0.261941,0.607544,0.793588,0.033307
-0.193590,0.202713,0.642684,0.624504,0.663649,0.411782
0.374491,0.379111,0.071178,-0.668896,0.439842,0.599263
0.443364,0.494014,0.228679,-0.534587,-0.838259,-0.107416
0.290178,0.545363,-0.994009,-0.015307,-0.017414,0.999731
-0.103918,0.700692,0.319020,-0.294385,0.687285,-0.664061
-0.075425,0.203180,0.708469,0.465405,0.878025,0.111674
-0.194418,-0.161898,0.517327,0.236780,-0.582396,0.777657
-0.384719,-0.411063,0.018168,-0.030044,0.322245,0.946179
0.233287,-0.619568,-0.011316,-0.238673,0.225380,0.944584
-0.702686,0.066742,0.568638,0.178729,0.841073,0.510540
0.426513,0.493625,0.555439,0.809458,-0.328883,0.486430
0.055405,-0.652530,0.068161,0.894959,0.443189,-0.051310
-0.662501,0.163570,0.149873,0.214741,0.026642,-0.976308
0.126082,0.283216,0.280025,-0.215728,-0.097175,0.971606
-0.440977,-0.117080,0.438028,-0.632114,0.709305,-0.311959
0.075912,-0.501633,0.471324,-0.474923,-0.540259,-0.694671
0.453447,-0.177175,0.766465,-0.226615,0.714639,0.661768
-0.012201,0.204968,0.793098,-0.234911,0.489861,0.839555
-0.231046,0.096906,-0.102059,-0.270488,0.166555,0.948207
0.405909,0.039027,0.631149,-0.635355,0.126717,0.761753
0.186674,0.356721,0.633038,0.975205,0.010777,0.221040
0.068703,-0.546490,-0.324776,0.996725,0.055566,0.058752
0.197097,-0.211848,0.584576,0.799427,0.258486,0.542312
0.251407,-0.020796,0.632792,0.731294,0.618453,-0.287620
0.284090,0.559823,0.523183,0.751988,0.077395,-0.654618
0.033293,-0.033313,0.716729,0.941013,-0.272042,0.201216
0.213805,0.550883,0.691548,0.523424,0.788987,-0.321756
-0.969996,-0.416699,-0.060225,0.453679,-0.426612,-0.782418
0.048294,-0.368460,0.183157,0.605896,-0.328660,-0.724481
0.087553,-0.314895,-0.247165,0.481440,-0.465705,-0.742519
-0.570833,-0.206483,0.355646,-0.066953,0.145314,0.987118
-0.026131,0.042370,-0.080131,0.825663,0.115289,-0.552259
0.497528,-0.965521,0.014021,-0.427643,0.166593,0.888464
0.123743,0.220050,-0.508341,0.266329,0.963602,0.023235
0.723485,0.850229,0.348593,0.128124,0.007781,0.991728
0.035338,0.068763,-0.044857,0.881076,-0.333150,-0.335733
0.400794,0.564526,0.514130,-0.070632,0.249053,0.965911
0.115755,0.179935,0.886636,-0.585179,0.604534,0.540467
-0.231826,0.433025,0.715007,0.766980,-0.239718,0.595212
0.262951,0.180907,0.690676,-0.509620,0.849984,0.133468
-0.301478,0.485618,0.285199,-0.606907,-0.486417,0.628539
-0.293392,-0.220438,0.539344,-0.714217,0.213208,-0.666661
0.391490,0.481575,0.580519,0.770885,-0.620551,0.143713
0.361877,0.099899,0.611680,0.091910,0.573312,-0.814166
-0.163049,-0.044780,0.013071,0.396020,-0.453957,-0.798180
0.029688,-0.060950,0.735271,0.936418,-0.209467,0.281506
-0.407516,0.109617,0.584118,0.374605,0.848443,0.373919
0.164463,0.331766,0.713342,0.887357,0.125858,0.443574
0.579992,0.666991,-0.993037,-0.085399,0.112870,0.989933
-0.072160,-0.495685,0.063768,0.719559,0.438656,-0.538345
0.649935,-0.040504,0.758898,0.812444,0.037117,-0.581856
-0.331044,-0.341172,0.015340,-0.329086,-0.002130,0.944298
0.142593,0.242323,-0.701618,0.899769,-0.436296,-0.007878
-0.603711,-0.717134,0.044466,0.232934,-0.103062,0.967016
0.097197,0.168934,-0.242605,0.926731,-0.318287,-0.199659
0.242980,0.282283,0.074766,-0.770523,0.556796,0.310278
0.041427,0.143629,0.952958,0.882959,-0.256400,0.393246
0.023551,0.007969,0.785420,0.597979,-0.777407,-0.195087
0.698595,0.749242,0.298902,0.161465,-0.345839,0.924297
0.458123,-0.043769,0.604437,0.377119,-0.654750,-0.655044
0.345510,0.010884,0.807092,0.682958,-0.155840,-0.713640
-0.893864,0.019203,0.150007,-0.373110,0.654601,-0.657485
0.119993,0.156418,0.979580,-0.706943,-0.655480,0.265664
-0.311901,0.144251,0.256353,0.420135,0.103060,0.901590
-0.582084,-0.489777,0.387030,-0.526523,-0.816972,-0.235225
-0.090524,0.250253,0.626086,-0.081240,0.558951,0.825212
0.079370,0.198010,-0.819956,0.877082,-0.433777,-0.206311
0.118288,-0.439516,0.249490,0.751745,-0.120232,-0.648401
0.056282,0.302535,0.892637,0.225763,-0.701244,0.676230
0.170308,-0.306072,0.260577,0.877156,-0.268632,-0.398038
-0.256861,-0.204229,0.530459,0.274576,-0.959315,0.065746
0.104064,0.215502,0.696946,0.439898,0.368773,-0.818838
0.017755,0.268367,0.610908,0.043145,0.673706,0.737739
0.407565,-0.255267,0.723490,-0.697509,-0.701858,0.144485
-0.845498,0.072029,0.171936,0.425842,-0.365122,0.827855
0.075035,0.113193,-0.041225,0.684861,-0.519410,-0.511057
-0.461191,-0.382143,0.369192,0.549802,-0.432833,-0.714405
0.857774,0.567791,0.162737,-0.359977,-0.590278,-0.722487
0.415991,0.539804,0.551851,0.768512,0.630346,0.109789
0.475999,0.578325,-0.989840,-0.031852,0.001520,0.999491
0.223498,0.236376,0.923653,0.834776,-0.409013,0.368589
0.246487,0.360491,0.770768,0.697786,-0.652664,0.295168
-0.096807,0.029153,0.634793,-0.443931,0.369060,-0.816529
0.652761,0.496074,0.185225,0.319547,-0.710216,0.627283
-0.047173,-0.172938,0.252731,-0.608920,0.465400,0.642355
-0.055356,-0.708311,0.145033,0.713086,0.399520,0.576101
0.031295,-0.297365,0.175646,-0.385949,0.291472,0.875264
0.096029,0.159916,0.085540,0.103834,-0.763468,-0.637444
0.403667,0.803506,0.561664,-0.748310,-0.096384,0.656310
0.524123,0.345798,0.160837,0.760161,-0.648880,0.033307
-0.704877,-0.682928,0.029680,0.504942,-0.526437,-0.684030
-0.137332,-0.059201,0.382771,0.857072,0.087368,0.507734
-0.557097,-0.212625,-0.076811,-0.077299,0.773415,0.629169
0.158082,0.421053,0.716662,0.816352,-0.139722,0.560399
0.041427,0.311630,-0.983649,-0.393679,0.447541,0.802947
0.238548,0.588432,0.229987,0.771288,-0.449775,-0.450352
0.103236,0.457009,0.729615,0.278265,-0.705691,0.651589
0.228027,0.534906,0.707553,-0.113190,0.980539,0.160408
-0.072111,0.161082,0.741652,-0.447034,0.474740,-0.758144
-0.002849,0.374913,0.428137,0.911282,0.370937,0.178805
-0.323689,-0.460546,0.021476,-0.416199,0.163586,-0.894437
0.077568,0.318666,-0.086256,-0.116775,-0.079308,0.989987
-0.354375,-0.001283,0.643846,-0.227451,0.965986,-0.123030
0.405276,0.375845,-0.989941,0.059335,0.060618,0.996396
-0.080538,-0.336469,0.153550,0.811204,-0.170027,-0.559499
-0.115950,0.023012,0.415619,-0.418043,0.569187,-0.708001
-0.807115,0.116730,0.169834,-0.605477,-0.095823,-0.790074
0.354084,0.628742,0.614932,-0.096213,0.687540,0.719744
0.112150,-0.085827,0.708648,0.674721,-0.203763,-0.709389
0.127932,0.159216,0.504753,-0.707779,0.699600,0.098018
-0.015562,-0.074982,0.485563,0.936443,-0.332211,0.112745
-0.145612,-0.039998,0.625349,0.812732,-0.374386,0.446433
-0.291883,-0.075410,0.623136,0.145046,-0.494634,0.856913
-0.472200,-0.808365,-0.071681,-0.429846,-0.492500,0.756754
-0.477461,0.421169,0.276236,-0.286468,0.091650,0.953696
-0.176688,0.056868,0.637375,0.011690,-0.019278,0.999746
0.160080,0.215852,0.292319,0.959421,0.280940,0.024166
-0.292320,-0.254684,0.011864,-0.346704,0.511635,0.786146
0.346582,0.113854,0.783218,0.013797,0.889351,0.457017
0.555880,0.492498,0.401570,0.347362,-0.216720,-0.912344
-0.281557,-0.261914,-0.209008,0.440142,-0.663914,0.604560
-0.079954,-0.174570,0.399145,-0.552481,0.076502,-0.830007
0.195635,0.096906,0.437939,0.579504,0.758690,-0.297598
0.161248,0.410752,-0.991785,-0.068122,0.278100,0.958133
0.189451,0.283410,0.486144,-0.836362,0.527225,0.150106
0.485400,0.145689,0.650027,0.655767,0.326021,-0.680940
0.192178,0.258999,0.611177,0.920134,-0.280630,0.273129
-0.333284,-0.305761,0.012848,0.571437,-0.308866,-0.760304
0.248825,0.127575,0.767683,0.519172,-0.566488,0.639963
-0.312243,-0.762225,0.320160,-0.230682,0.730174,0.643142
0.182192,0.096828,0.735539,0.712306,-0.695350,0.095436
-0.365237,0.683977,0.551806,-0.694069,0.116776,-0.710374
0.073865,0.118752,0.951337,0.021306,0.665402,0.746181
-0.546236,-0.500622,0.020246,0.647899,-0.441533,-0.620706
0.241177,-0.039065,0.423734,-0.243858,-0.372390,0.895466
-0.303378,-0.257677,0.549392,0.587765,-0.748305,-0.307526
-0.086432,0.034246,0.504038,-0.620397,-0.146414,0.770500
-0.308054,0.244850,0.635195,0.442173,0.891288,0.100445
0.160469,-0.159178,0.600492,0.935742,-0.317024,-0.154542
-0.207130,0.147361,-0.300098,-0.004947,-0.323887,0.946083
0.274007,0.441965,0.794082,0.945525,-0.310728,-0.097110
-0.156571,0.208583,-0.026494,-0.109558,0.993765,0.020700
0.118141,0.114553,0.793221,-0.578846,0.769725,-0.269183
0.508633,0.607868,-0.990790,-0.137294,-0.217311,-0.966399
-0.073573,0.161743,0.739249,-0.447034,0.474740,-0.758144
0.034217,-0.195172,0.164760,0.778887,-0.278244,-0.562063
0.712867,0.823680,0.349890,0.024316,-0.112915,0.993307
0.152383,-0.332970,0.285367,0.770029,-0.221825,-0.598205
0.432991,-0.048628,0.686306,0.117617,-0.814125,0.568654
0.323592,-0.107518,0.759535,0.584978,0.719949,0.373462
-0.325588,0.193423,0.579144,0.294257,0.838248,0.459079
-0.211417,0.149304,0.057655,0.124865,-0.991183,-0.044319
0.073769,-0.114592,0.079829,-0.094201,0.151859,0.983903
-0.227978,0.385602,0.254989,0.607347,0.194044,-0.770374
0.319062,-0.004353,0.471301,-0.054322,0.459758,0.886381
0.087163,-0.199487,-0.252083,0.565423,-0.195511,-0.801294
-0.311463,0.244889,-0.007237,0.917721,0.352766,-0.182603
-0.420715,0.022973,-0.348895,0.253428,-0.651357,0.715198
-0.017364,-0.509018,0.085797,0.806975,0.090168,-0.583662
-0.407272,0.339851,0.376546,-0.425797,0.690390,0.584858
-0.107669,0.536656,0.409025,0.286148,-0.465775,0.837360
0.698497,0.656496,0.414915,-0.523563,0.413300,0.745027
-0.302794,0.134417,-0.023700,-0.899281,-0.012518,0.437193
-0.170015,0.070746,0.472598,0.054704,-0.735266,0.675568
-0.048001,0.171344,0.555484,0.314607,0.842939,0.436436
0.262513,-0.137293,0.567845,0.998940,-0.023158,0.039776
0.713207,0.817034,0.349353,0.024316,-0.112915,0.993307
0.342686,0.181762,0.718640,0.352261,0.643314,0.679749
-0.465429,0.574205,0.577021,0.898252,0.439046,0.019528
0.347897,0.595351,0.540138,-0.530404,0.319591,0.785196
-0.230461,-0.301640,0.418425,-0.031741,0.401838,0.915161
0.667958,0.841911,0.356204,-0.059974,-0.099819,0.993196
-0.557585,-0.671228,0.037056,-0.519674,0.136735,-0.843352
-0.016001,0.771710,0.123999,0.130257,-0.937575,-0.322470
-0.163732,-0.528648,0.286328,-0.131241,0.327973,0.935526
0.305472,-0.431470,0.623471,-0.275197,0.394126,0.876887
-0.509754,-0.256122,-0.083026,0.307766,0.506291,0.805574
0.425051,0.590764,0.558825,0.825155,-0.355761,-0.438809
0.202406,0.459963,0.244293,0.815717,0.083725,-0.572360
-0.060811,0.143396,0.509805,-0.700263,0.258206,0.665554
-0.081366,0.602698,0.423387,-0.407956,0.414968,-0.813249
0.151897,0.465055,0.638738,0.954835,0.031596,-0.295451
0.211856,-0.419342,0.555148,0.115552,0.507271,0.854004
-0.189840,-0.813613,0.327961,0.149404,-0.727496,-0.669648
-0.022673,0.228018,-0.104160,-0.211561,0.181476,0.960369
0.350528,0.646739,0.529073,0.848632,-0.319553,-0.421556
-0.458562,0.077548,0.556288,0.022954,-0.558403,0.829252
-0.098951,0.920314,0.310850,-0.674046,0.701051,0.232787
0.212782,-0.213014,0.652843,-0.691369,0.364128,0.624034
0.447116,0.417088,0.392070,-0.680724,-0.123816,0.722001
-0.457734,0.030242,0.594076,0.550545,-0.701227,0.452969
0.049073,-0.426028,0.458627,0.974188,0.043963,-0.221418
0.516281,0.679002,0.331795,-0.692204,0.219728,0.687440
-0.193930,-0.611172,0.300120,-0.583241,0.587559,-0.560896
0.285210,0.515782,0.588298,0.735465,0.666428,-0.122332
-0.018485,0.178535,0.685322,0.289000,0.231883,-0.928822
0.268601,0.214958,0.680829,-0.196617,0.845461,0.496526
0.056575,0.447291,0.377697,-0.371192,-0.585711,0.720527
0.571905,0.542719,0.092034,-0.002801,0.045531,0.998959
-0.191057,-0.442276,0.053899,-0.205887,-0.649561,0.731903
-0.414383,-0.361696,0.411495,-0.359283,0.892395,-0.273032
-0.004310,0.076265,0.866071,-0.465618,0.819259,-0.334685
0.257592,-0.345915,0.679388,-0.197848,0.913502,0.355487
0.019606,0.149771,0.556635,-0.349683,-0.867467,-0.353867
-0.031490,0.808482,0.122289,-0.132978,0.843306,0.520723
0.007039,0.003188,0.269027,-0.148415,-0.439967,0.885664
-0.135968,-0.481731,0.287479,-0.218211,0.188785,0.957468
0.391345,0.066237,0.560055,-0.046431,0.953940,0.296382
0.131975,0.281971,0.368845,-0.157745,-0.459886,0.873854
-0.189157,0.184872,0.808690,0.837186,0.297160,0.459147
-0.044202,0.317577,-0.992053,0.326184,-0.315781,-0.891003
0.596503,0.515587,0.407829,-0.218101,0.006723,0.975903
-0.604004,0.021612,0.561318,-0.214854,-0.334579,-0.917548
0.535472,0.702947,0.542530,0.732793,0.252518,-0.631862
0.352086,0.303545,0.844008,0.250926,-0.892673,0.374395
0.449502,0.511856,0.323625,0.503651,-0.387087,-0.772334
-0.660894,-0.332349,-0.054201,-0.209141,-0.351677,-0.912460
0.171915,0.167652,0.584789,0.865052,-0.496729,-0.070323
-0.087260,-0.460468,0.283914,-0.294424,-0.240064,-0.925032
-0.351744,0.233421,0.657425,-0.007230,-0.802874,0.596105
-0.123645,0.646622,0.305843,0.338432,-0.508960,0.791469
0.086969,0.068996,0.697896,0.769726,-0.245517,-0.589273
-0.021163,0.311514,-0.987695,-0.337385,0.359395,0.870061
0.387887,0.502954,0.325636,0.710001,-0.415125,-0.568832
0.205962,0.181528,-0.605611,-0.482006,0.876004,0.016943
0.199435,0.159294,0.742524,-0.459114,0.592964,-0.661519
0.079370,0.186660,-0.755903,-0.719478,0.694507,-0.003505
0.378243,0.441305,0.208170,-0.720652,0.221133,-0.657085
0.473856,0.582291,0.578295,0.588585,-0.794964,0.146969
0.288522,-0.110550,0.642929,0.723401,-0.085641,-0.685096
0.249409,-0.515237,0.569231,0.389068,-0.519477,-0.760770
0.149169,0.199914,0.710805,0.975918,-0.030929,0.215935
-0.036019,0.739991,0.319255,0.016680,-0.372185,0.928009
-0.093154,0.361969,0.699673,-0.047607,0.571842,0.818981
-0.354619,0.241624,0.657303,0.128275,-0.802712,0.582407
-0.635858,-0.352911,0.356875,0.837658,-0.466563,-0.283986
-0.002410,-0.031136,0.801190,0.974540,-0.026322,0.222662
0.174058,0.590648,0.695459,0.243125,0.519949,-0.818867
-0.253061,0.105652,0.517360,0.416732,-0.218079,0.882483
-0.521103,0.193462,0.624242,0.859112,0.351275,0.372199
-0.319744,0.265840,0.550901,0.258371,0.653753,0.711232
0.335720,0.345642,0.250809,-0.597753,0.625321,-0.501662
-0.402499,0.324419,0.237766,0.250690,0.340895,-0.906060
-0.095881,0.925367,0.319847,-0.609106,0.685277,0.399231
0.145466,0.184910,-0.203532,-0.657865,0.747391,-0.092841
-0.590462,-0.300513,0.362564,0.463388,-0.740593,-0.486614
0.144347,0.505870,0.677666,-0.240265,-0.147790,0.959391
0.110446,0.142541,-0.222879,-0.600399,0.793999,0.095323
-0.601616,-0.504354,0.376836,-0.502970,-0.840897,-0.199782
-0.506782,-0.437651,0.470407,0.817246,0.456160,0.352174
0.172695,-0.049949,0.750091,0.133872,0.599171,0.789349
-0.023794,0.172744,0.262321,-0.656502,0.287376,0.697438
-0.495677,0.021690,-0.348235,-0.769036,-0.627200,0.123306
-0.952022,-0.495141,-0.051072,-0.361300,0.609264,0.705876
0.511703,0.497318,0.398195,0.337659,-0.354175,-0.872093
0.603760,0.070823,0.716941,0.257167,0.965510,-0.040684
-0.028469,0.616964,0.301171,0.056227,-0.051706,0.997078
0.549597,0.428477,0.183380,0.745781,-0.591852,0.305814
0.061543,0.259543,0.273028,0.696124,-0.033656,-0.717132
0.170259,-0.171189,0.425332,-0.028207,0.057602,0.997941
-0.217506,-0.398935,-0.083540,0.828184,-0.369756,-0.421179
0.273325,0.277385,0.838666,-0.540619,0.682048,-0.492486
0.109423,0.202013,-0.251547,-0.470914,0.878495,0.080537
-0.259297,0.230973,0.528872,-0.376371,0.917198,-0.130744
0.036799,0.507697,0.224041,0.546466,0.645146,-0.534005
0.916806,0.766540,0.468742,-0.476658,-0.012339,0.879002
-0.673217,0.007541,0.580329,-0.525638,0.234799,-0.817664
0.443998,0.456581,0.345520,0.083711,-0.203707,0.975447
-0.403813,-0.111210,0.444679,-0.679218,0.666947,-0.306339
0.181754,0.191169,0.938294,0.935827,-0.322503,-0.142198
-0.197437,-0.249281,0.498840,-0.685625,-0.080776,-0.723460
0.090817,0.154785,0.022091,-0.032209,0.586977,0.808963
0.280924,0.453277,0.801246,-0.851077,-0.392217,0.349048
0.129734,0.143279,-0.609154,-0.261399,0.962682,0.070097
0.289885,0.036189,0.800274,-0.680100,-0.001548,0.733118
0.384965,0.135933,0.640415,-0.215626,-0.341182,0.914932
-0.241567,-0.397225,0.527352,0.555748,0.664818,0.499160
0.092569,0.226503,0.470742,0.764394,0.482522,0.427638
0.243321,-0.061261,0.351935,0.903174,0.022478,0.428685
-0.117850,0.148333,-0.988041,0.183451,-0.080593,-0.979720
-0.064027,-0.446163,0.077124,-0.645724,-0.085014,0.758823
-0.031246,0.063127,0.501288,0.160939,-0.322705,0.932717
-0.505272,0.059978,0.588745,0.596926,-0.597125,0.535836
0.348336,0.412968,0.584621,0.822678,-0.498325,0.273629
0.261100,-0.157545,0.276616,0.767959,0.029208,-0.639833
0.096662,0.035761,0.871335,-0.510886,-0.713996,-0.478754
0.067680,0.163026,0.745385,0.649223,0.592588,0.476811
-0.182241,-0.354427,0.512420,-0.006362,0.638421,0.769661
0.070748,0.045635,0.905390,0.481448,0.105461,-0.870107
-0.144054,0.235404,0.753310,-0.496823,0.381046,-0.779725
-0.191106,0.319949,0.116499,0.096779,-0.986412,-0.132758
0.473368,0.651170,0.583548,-0.627942,0.277800,-0.726991
0.001631,-0.002099,0.008433,-0.412503,0.519541,0.748277
-0.619054,0.318549,0.444198,0.112848,-0.786456,0.607249
-0.001291,0.162559,0.763290,0.450005,0.871769,0.193683
-0.108400,0.187165,0.796071,0.417625,-0.810441,0.410822
-0.060617,-0.384125,0.270435,0.628373,0.202155,0.751186
0.272206,0.119335,0.874196,-0.629039,0.583630,0.513503
-0.268795,0.202013,-0.005516,-0.031956,0.832009,-0.553841
-0.027739,-0.256783,0.071860,0.742218,-0.053069,-0.668054
0.340835,0.359053,0.391344,-0.132027,0.524821,0.840911
0.198996,-0.024022,0.557853,0.835695,0.542411,0.086047
0.210638,0.312369,0.624577,0.963980,0.026219,0.264680
0.522613,0.259427,-0.982274,-0.066004,0.230785,0.970763
0.059498,0.100987,0.661416,0.180043,0.969293,-0.167501
0.588759,-0.019163,0.743139,0.981107,0.095702,-0.168135
0.007769,0.049911,0.272939,0.292447,0.426008,-0.856149
-0.093348,-0.524061,0.285233,-0.002980,0.181644,0.983360
0.039673,0.120190,0.884490,-0.624509,-0.571969,-0.531827
-0.067679,0.008824,0.505189,0.137687,0.183885,0.973257
-0.146196,-0.315634,0.062338,-0.302244,0.499885,0.811642
-0.100363,0.709788,0.314370,-0.326352,0.703417,-0.631426
-0.042351,0.110861,0.623896,-0.762680,0.117346,-0.636042
-0.429726,-0.763858,-0.059231,-0.143728,-0.525223,0.838739
-0.405128,-0.688875,-0.072341,-0.341230,0.098894,0.934763
0.316967,0.294449,0.385733,-0.388398,0.705933,0.592289
0.231047,0.184172,0.906083,0.604634,0.390658,0.694121
-0.476778,-0.016442,0.535254,0.882969,-0.377173,0.279474
0.314873,0.279367,0.903982,0.805953,-0.590094,-0.047212
0.223399,0.322981,0.775909,-0.589492,0.130131,-0.797224
-0.192373,0.186426,0.805002,0.830293,0.202691,0.519162
-0.188231,0.101026,0.164414,-0.101869,-0.878664,0.466447
0.191836,-0.170606,0.264489,0.701755,-0.076454,-0.708304
0.173376,0.400917,0.228377,0.867446,-0.190716,-0.459526
0.321254,0.296160,0.372925,-0.408952,0.795382,0.447354
-0.051655,0.640053,0.292799,-0.256061,0.393057,-0.883142
-0.234310,-0.846614,0.349018,0.003107,0.763470,0.645836
0.103433,0.198982,0.875336,0.893561,-0.308093,-0.326538
-0.588710,-0.515393,0.403414,0.338161,0.906851,0.251533
-0.226760,-0.478310,0.284540,-0.108069,-0.039230,0.993369
0.156670,-0.104291,-0.356450,0.990501,-0.124306,-0.058778
0.148341,-0.113271,0.617011,0.966773,0.188198,-0.173005
0.223643,0.027016,0.132370,0.531721,0.667132,0.521735
-0.154381,0.733694,0.325670,-0.507749,0.482891,-0.713448
0.088526,-0.299269,0.449999,0.202064,0.530392,0.823319
-0.031295,-0.116147,0.471704,0.892178,-0.160414,0.422238
0.499915,0.041670,0.728464,-0.174037,-0.230987,-0.957265
0.087602,0.160810,-0.635262,0.361317,-0.932365,-0.012040
0.303038,0.090764,0.457330,-0.243479,-0.747450,-0.618091
-0.097197,-0.316295,0.261516,0.595822,0.426033,0.680802
-0.211612,-0.752779,0.316371,-0.363497,0.791591,0.491176
-0.295974,-0.045285,0.637520,0.036610,-0.864561,0.501193
