0.121373,0.410713,0.015261,-0.523054,0.464421,0.714652
-0.137757,0.000243,0.661886,0.226013,0.024923,0.973806
-0.158429,0.049232,0.835815,-0.431420,0.816617,0.383424
-0.532573,-0.049281,0.852376,-0.358915,0.313776,0.879048
-0.265250,0.268369,0.908169,-0.001006,-0.869858,0.493302
-0.392792,0.187093,0.673649,0.444294,0.448585,0.775484
-0.063939,0.673288,0.571820,-0.148631,0.382148,0.912070
-0.234221,0.375846,0.716854,0.614881,0.116574,0.779956
-0.227331,-0.109130,0.634069,-0.569356,-0.112020,-0.814423
0.313673,0.251083,0.312316,0.886555,0.267149,0.377692
-0.192831,-0.111469,0.842082,-0.720703,0.541199,-0.433232
-0.889081,0.006963,0.763504,-0.109882,0.506459,0.855234
-0.118243,0.280544,0.519769,0.299770,0.776354,-0.554448
-0.158717,-0.145896,-0.091440,0.146968,0.079380,0.985951
-0.509204,0.231751,0.653188,0.476570,0.862419,-0.170628
-0.090104,-0.480836,0.719211,-0.604083,-0.738405,0.299736
-0.168354,0.159532,0.348588,0.907918,0.236373,-0.346139
-0.370339,0.469929,0.828142,-0.750146,-0.147634,-0.644582
0.950418,0.121401,0.530771,0.704460,0.404148,-0.583439
0.479956,-0.547700,0.641256,-0.143286,0.876877,-0.458863
-0.820903,-0.141515,0.606728,0.991576,0.111794,0.065413
0.059362,-0.788945,0.668883,0.632267,-0.631596,0.448692
-0.376939,-0.069881,0.198205,0.821051,-0.394117,-0.412974
-0.781826,-0.139176,0.327883,-0.499346,0.321949,0.804365
-0.603066,0.029754,0.717182,0.504509,-0.732107,-0.457701
-0.073674,0.192791,0.683615,0.093790,0.756244,-0.647533
-0.120122,0.263013,0.531553,0.580464,0.169893,0.796365
-0.078877,-0.721208,0.743709,0.475599,-0.289272,-0.830739
-0.352221,0.119454,0.957355,0.502195,0.493490,0.710118
-0.255276,-0.064915,0.870068,0.943284,0.125839,0.307212
0.541100,0.567568,0.378085,-0.103593,-0.776514,0.621526
-0.298112,-0.366690,0.815914,-0.247824,-0.478480,0.842402
-0.101234,-0.488531,0.731122,0.792944,0.590511,0.150121
0.178037,-0.576382,0.710629,-0.655616,0.332267,0.678061
0.164499,-0.128512,0.766569,0.243809,-0.170007,-0.954806
0.159439,-0.274265,0.738752,0.065529,-0.960196,-0.271534
0.351305,0.005210,0.540737,-0.414348,-0.029003,-0.909656
-0.240678,-0.357390,0.790222,-0.545140,-0.608273,-0.576910
0.507131,-0.060531,0.555184,0.080216,0.868675,0.488845
-0.345572,0.227611,0.867046,0.806766,0.291743,0.513824
0.348222,-0.306113,0.624061,0.612215,-0.761373,0.213317
-0.155199,-0.312539,0.605396,-0.347624,-0.375874,-0.858997
-0.169943,0.190844,0.821019,-0.058351,0.859186,0.508326
-0.187242,0.525686,0.696277,0.637239,0.572966,-0.515399
-0.044956,0.062188,0.602395,-0.188164,-0.427578,0.884178
-0.334779,0.551642,0.794692,-0.787124,-0.088832,0.610365
0.431675,-0.314976,0.636236,0.332120,0.806837,0.488579
0.194226,-0.184271,0.715818,-0.079283,-0.892296,0.444434
-0.058929,-0.552325,0.421955,0.084048,0.418601,0.904273
-0.293678,-0.308012,0.818292,-0.165425,0.504986,0.847127
-0.273876,-0.036571,0.911371,0.146498,-0.844664,0.514860
0.096993,0.264086,0.717837,0.311031,0.498552,0.809139
0.359978,-0.347944,0.499667,-0.419067,-0.214215,-0.882323
-0.308134,0.359240,0.850844,-0.344328,-0.767445,0.540801
0.545196,-0.033311,0.573268,0.076079,-0.359094,0.930195
-0.193746,0.202288,0.630455,0.852869,-0.252316,-0.457111
-0.550256,0.179110,0.679018,0.247570,0.562079,0.789161
-0.877856,-0.258438,0.499096,-0.370853,-0.419380,0.828606
0.773249,-0.192647,0.554984,0.148990,0.569988,0.808032
-0.546787,0.413002,0.652142,-0.460739,-0.623860,0.631283
-0.273779,0.613245,0.752682,0.919779,-0.104068,0.378386
0.205214,-0.063842,0.584513,0.836219,0.528875,-0.145015
-0.431677,0.274700,0.888659,0.907794,0.417884,-0.035831
0.251662,-0.076212,0.533265,0.275764,-0.129054,-0.952523
-0.528332,-0.010374,0.488327,0.207536,0.298587,0.931544
-0.042643,-0.086389,0.617677,-0.183861,0.931503,0.313841
0.195913,0.246309,0.681829,-0.285265,0.927959,-0.239825
-0.222127,0.155198,0.684905,0.931395,0.030949,-0.362691
-0.240966,-0.003359,0.678585,0.518861,0.781965,0.345417
-0.174906,-0.180571,0.750314,-0.319137,0.927725,0.193592
0.218223,-0.432091,0.786861,0.238843,0.910703,-0.337007
0.902621,-0.133529,0.482715,-0.704565,0.593673,-0.388767
-0.481401,0.168395,0.465023,0.086109,0.764470,0.638882
-0.747326,-0.203555,0.770765,0.654612,0.686341,0.316892
-0.396648,0.197808,0.885943,0.809677,0.022937,0.586427
0.289823,-0.765328,0.464812,0.276758,-0.165010,0.946666
0.292233,-0.364158,0.767119,0.403328,0.881605,-0.245152
-0.838826,-0.243877,0.771896,-0.111116,-0.114822,0.987152
-0.311555,-0.126223,0.752978,-0.577040,-0.274373,-0.769249
-0.198083,-0.262869,0.749437,0.873149,0.410411,0.263007
0.350196,-0.268371,-0.002780,0.827054,-0.088103,0.555176
-0.413464,0.333334,0.844851,0.190536,-0.014329,0.981576
-0.411151,-0.096810,0.853645,0.813224,-0.352853,-0.462777
0.056808,-0.279086,-0.058942,0.294262,-0.835974,-0.463204
-0.492001,0.319989,0.685169,0.225989,-0.579068,0.783332
0.478510,0.597905,0.368510,-0.224599,-0.528850,0.818458
0.080851,-0.435792,0.595821,0.854940,-0.067658,-0.514296
-0.231908,-0.412662,0.809161,-0.112426,-0.644185,0.756562
-0.093091,0.415243,0.712362,-0.472321,-0.069712,-0.878666
-0.341621,0.165131,0.879686,0.141302,0.611993,0.778138
0.663630,-0.089751,0.555163,0.526841,-0.480171,-0.701338
0.261058,-0.107231,0.540610,-0.655081,0.280809,0.701438
-0.339694,0.173362,0.887718,0.414548,0.522794,-0.744873
0.032620,0.619576,0.309430,-0.335291,-0.082509,0.938495
-0.475234,0.229023,0.600566,0.458600,0.749289,-0.477757
0.646188,-0.209155,0.459612,-0.933776,0.216145,-0.285209
-0.098053,0.016314,-0.390260,0.828878,0.551039,0.096524
0.111448,-0.269346,-0.134687,-0.534524,-0.845128,-0.006465
-0.101283,-0.363721,0.609835,0.450111,0.445052,0.774163
-0.232871,0.287071,-0.613217,0.946183,0.305873,-0.105731
0.211815,-0.177795,0.661178,0.252445,-0.532707,0.807772
-0.422039,-0.300706,-0.344423,0.916722,0.273024,-0.291681
-0.505446,0.400388,0.864562,0.848475,-0.377762,0.370656
0.476100,-0.313222,0.576639,0.885266,-0.109338,-0.452049
-0.029875,-0.020016,0.601444,0.197407,0.588687,0.783886
-0.306736,0.122911,0.957345,-0.183950,0.926984,0.326898
-0.034789,-0.573558,0.714064,-0.126725,0.256075,-0.958314
0.257781,0.392012,0.667477,0.004458,-0.990142,0.139995
-0.511276,0.061795,-0.984179,-0.212737,-0.023164,0.976835
0.532620,0.068515,0.507625,-0.005934,0.713973,0.700149
-0.252193,0.187875,0.497057,0.805290,-0.549181,0.223399
-0.120700,0.443242,0.775426,-0.626819,-0.710642,0.319509
-0.682037,0.205747,0.685190,0.966413,0.129103,-0.222212
0.251855,-0.542635,0.727190,0.392414,0.594098,0.702181
-0.207382,0.004238,0.991788,0.403247,-0.451908,-0.795720
0.181795,-0.076700,0.693560,0.301383,-0.827836,0.473133
0.386383,-0.681470,0.633668,0.815365,-0.249379,0.522484
-0.635106,0.434378,0.635538,-0.281976,-0.862315,0.420598
-0.272238,-0.272999,0.729145,-0.426201,-0.195750,-0.883196
0.089813,-0.280935,0.415202,-0.308640,-0.663056,-0.681981
-0.320758,0.217823,0.821304,0.797995,0.432262,0.419945
0.718656,0.081082,0.542988,-0.753481,0.386694,0.531728
0.266309,-0.388896,0.646794,-0.125127,0.940969,0.314515
0.316228,0.247382,0.373699,0.326133,0.870220,0.369262
-0.220825,-0.214416,0.717932,0.810604,0.550698,0.199128
-0.075119,0.201996,0.849998,0.341760,0.934429,0.100210
-0.426039,-0.618213,0.702290,-0.162375,0.118679,0.979566
-0.337092,0.058193,0.937888,0.926724,0.026010,0.374842
0.426086,-0.390943,0.647386,-0.401762,-0.296047,-0.866570
-0.354534,0.016801,0.325389,0.390714,-0.816380,-0.425284
0.109905,-0.034479,0.760756,-0.435878,-0.389526,-0.811344
0.033583,-0.197079,0.253416,0.605979,0.530371,-0.592871
-0.245543,0.566691,0.797113,-0.778776,-0.549614,0.302380
-0.600367,-0.204676,0.651296,-0.622046,-0.755922,0.204061
-0.070637,-0.589968,0.780689,0.672504,-0.710752,-0.206325
0.264624,0.060482,0.305636,0.094405,-0.767782,0.633719
-0.405561,0.227465,0.894873,0.190760,0.543060,0.817739
-0.494026,0.295447,0.837358,0.397235,0.824198,-0.403612
-0.084659,-0.713465,0.647639,-0.441305,0.726933,0.526135
0.427773,-0.566496,0.699373,-0.145553,0.906207,0.396993
-0.326540,0.342634,0.841945,-0.597936,-0.795661,0.096930
0.307458,0.247576,0.331762,-0.225757,-0.902685,0.366325
-0.121423,0.484731,0.752714,0.575212,0.661314,-0.481450
-0.101668,-0.328366,0.602585,-0.505863,-0.277767,-0.816669
-0.119496,-0.139955,0.806540,-0.101682,0.734897,0.670513
-0.309002,0.073580,0.558662,-0.412472,0.668839,-0.618483
0.344222,-0.665401,0.618618,-0.237884,-0.146405,0.960196
-0.007229,-0.229756,0.665258,0.848203,-0.497953,-0.180540
-0.149369,-0.586948,0.607711,0.297296,0.024818,0.954463
0.264478,0.315899,0.694522,-0.038061,-0.998099,0.048468
-0.419823,0.254394,0.780361,0.343029,-0.550325,0.761232
-0.217886,-0.149647,0.741394,0.987640,0.153059,-0.033764
0.484436,-0.673922,0.524123,0.759409,0.451362,0.468584
-0.280862,0.261700,0.528372,0.841792,0.387299,-0.376013
-0.529682,-0.521354,0.758336,0.740921,0.160490,0.652134
0.190036,0.230678,0.414018,-0.144704,-0.904666,-0.400800
0.230027,0.115899,0.731470,-0.586312,-0.215447,0.780910
-0.210081,-0.268517,0.440049,0.880253,0.154079,0.448792
0.293678,-0.272704,0.638804,-0.024315,0.017002,0.999560
-0.019660,-0.129876,0.787516,0.063560,0.992974,0.099815
-0.173702,0.582566,0.508598,0.005222,-0.443606,0.896207
0.656259,0.196833,0.512973,0.056970,0.030232,0.997918
0.197697,0.669638,0.317716,-0.405795,0.185418,-0.894958
-0.065289,-0.148818,0.412264,0.319239,0.329801,0.888436
-0.196831,-0.541806,0.732379,0.827341,0.170382,0.535235
-0.211575,0.125589,0.989019,0.617804,0.502633,-0.604713
0.602823,-0.012466,0.508640,0.174648,-0.010332,0.984577
-0.013057,-0.465984,0.598157,0.834531,0.311852,0.454209
-0.256192,0.250257,-0.414526,0.618059,0.760419,0.199413
0.083742,-0.096079,0.732506,-0.436744,0.896874,0.069803
-0.251277,0.491844,0.499149,0.235332,0.390396,0.890062
-0.529248,-0.316533,0.738002,0.080956,0.117449,0.989774
0.288377,-0.264864,0.207221,0.723326,-0.635988,0.268921
0.309578,-0.042560,0.267357,0.049096,-0.380846,0.923334
-0.112364,-0.614364,0.751456,0.976152,-0.042290,0.212927
0.254504,0.024057,0.428677,-0.188951,-0.182882,-0.964807
0.248096,-0.189773,0.696382,-0.647666,0.731163,0.214310
0.079888,-0.733722,0.664602,0.826265,-0.229164,0.514558
-0.370724,-0.565911,0.703104,-0.712455,0.700560,0.040287
0.589188,0.173849,0.458777,0.174861,0.970268,0.167341
0.376457,0.033066,0.534924,-0.132303,-0.846863,-0.515091
0.360845,0.144825,0.396252,-0.094586,-0.137609,0.985960
0.805916,-0.097930,0.517750,0.992964,0.118354,0.003895
-0.705358,-0.079767,0.558915,0.767882,-0.598188,-0.229190
-0.198083,0.809446,0.758611,0.982543,-0.184970,-0.019882
0.729449,-0.034235,0.472410,-0.327757,-0.236768,0.914613
0.475812,-0.079036,0.554941,0.185199,0.797348,0.574402
-0.139733,0.276989,0.854786,0.483726,0.689188,-0.539471
-0.153176,-0.273192,0.767119,0.106080,0.404865,0.908202
-0.090729,0.611637,0.605048,-0.636951,-0.370388,0.676096
-0.202564,-0.684830,0.730688,-0.625230,0.435660,0.647525
0.071264,-0.026103,0.758854,-0.326584,0.742100,0.585346
-0.237497,0.315120,0.433507,0.869626,-0.130157,0.476246
0.548906,-0.517118,0.706898,-0.297192,0.912012,0.282685
0.393610,0.239054,0.332238,0.064103,-0.936134,0.345752
-0.150093,0.583636,0.808263,-0.060084,-0.194906,0.978980
0.258745,-0.230436,0.818916,0.849002,-0.526754,0.041548
-0.011950,0.248747,0.390049,0.324405,-0.782663,-0.531225
-0.531127,-0.381349,0.814794,0.781142,-0.291564,-0.552093
-0.426665,-0.372584,0.712975,0.409514,0.801046,-0.436605
0.024862,0.474310,0.816432,0.202268,0.978835,0.031144
-0.180641,0.278160,0.722096,0.887829,0.438756,0.138752
0.019417,-0.068226,-0.007525,0.227910,0.313410,0.921863
0.187337,-0.028341,0.525486,-0.418004,0.470585,0.777060
0.169123,0.586462,0.311703,-0.451651,0.499184,-0.739477
0.400308,-0.362796,0.475507,0.240768,-0.098524,-0.965569
0.277102,-0.487851,0.662023,-0.093564,-0.777690,-0.621647
0.846824,-0.137961,0.472685,0.541966,-0.751532,0.376128
0.342343,0.249962,0.334848,-0.006337,-0.787030,0.616883
-0.406332,0.092817,0.808633,-0.114335,-0.526071,0.842720
-0.054496,-0.923008,0.687758,-0.678364,0.673173,-0.294382
-0.559460,0.295250,0.856784,-0.150941,0.959986,0.235889
-0.251230,-0.105382,0.536710,0.863254,-0.421573,-0.277612
0.186758,0.186948,0.410657,-0.062699,-0.920485,-0.385714
0.178134,0.216022,0.723407,0.102231,-0.894598,-0.435021
0.438517,-0.013733,0.547617,0.165117,0.683888,0.710657
-0.210659,0.220356,-0.197001,-0.613075,0.774909,-0.153803
0.150621,0.134452,0.283146,-0.402256,0.533829,0.743785
-0.504915,-0.377598,0.551052,0.040084,0.439672,0.897264
-0.070783,0.508497,0.808717,-0.100263,0.566168,-0.818169
-0.309868,0.276698,0.826356,0.759186,0.500607,-0.415968
0.243036,-0.172923,0.700250,-0.204234,0.622876,0.755191
-0.272141,0.239007,0.797990,0.738240,0.573297,0.355432
-0.030790,-0.616995,0.729135,0.929994,0.359089,0.078528
0.159824,-0.068906,0.616250,0.458420,0.565201,0.685856
-0.283416,0.024493,0.639480,0.873063,-0.121294,0.472279
0.420594,-0.247773,0.579207,-0.529641,0.010706,0.848154
0.218174,-0.873971,0.604709,0.909004,-0.353806,0.220301
-0.209840,0.342343,0.710883,0.641087,-0.508284,0.575026
0.088706,0.288824,-0.096080,-0.137275,0.475155,0.869128
-0.142961,0.234040,0.838489,-0.242461,-0.607512,0.756400
-0.573624,0.368540,0.830055,0.900476,0.074070,-0.428552
-0.164932,0.635403,0.546434,0.976759,-0.190273,-0.098682
0.093427,-0.377649,0.433158,0.013019,0.608201,0.793676
-0.145130,0.039590,0.733901,0.164247,0.482531,0.860341
0.319023,-0.554420,0.619189,0.764273,0.559310,0.321028
-0.178087,0.195032,-0.383633,0.993554,0.021392,0.111327
-0.057580,0.015095,0.537302,0.985268,-0.030363,-0.168301
0.064807,-0.143706,0.787379,-0.482638,-0.871006,-0.091699
0.150813,-0.140541,0.614094,0.414957,0.295705,0.860447
-0.215863,-0.008231,0.951490,0.994651,0.083668,-0.060576
0.475281,-0.460093,0.677412,-0.183223,0.825766,0.533423
-0.151923,0.510495,0.415424,-0.544939,-0.751670,-0.371529
-0.269394,-0.255611,0.856836,0.952550,-0.208796,-0.221479
-0.316422,-0.307622,0.879855,-0.102943,-0.949228,0.297269
-0.144165,0.033407,0.963348,0.187677,0.834639,-0.517837
-0.194566,0.010860,0.979793,-0.102714,0.989244,0.104144
-0.241785,-0.050547,0.857143,0.166500,0.675495,0.718321
0.029199,-0.434915,0.776800,0.957003,0.076454,-0.279820
-0.100077,0.529146,0.609180,0.948665,-0.094617,0.301800
-0.179918,0.644897,0.734535,-0.525005,0.786000,-0.326456
-0.043028,0.349110,0.873123,0.013391,-0.903610,0.428146
0.509203,0.345264,0.384859,-0.564016,0.245564,0.788406
-0.367640,0.246847,0.888965,0.932547,0.008822,-0.360942
-0.738846,0.333090,0.691986,0.842052,-0.415700,0.343717
0.173459,0.091648,0.822044,-0.589834,0.800209,0.108449
0.424689,-0.191577,0.747789,-0.247501,0.366594,0.896857
-0.235618,0.527879,0.804733,0.098955,-0.658181,0.746328
0.277874,0.359825,0.351504,0.805319,0.165452,0.569286
-0.224969,-0.059996,0.932741,0.984698,0.017856,0.173352
-0.217549,0.264571,-0.609011,0.971216,0.207475,-0.117021
-0.092609,0.608279,0.510120,0.121460,0.551496,-0.825288
-0.146961,0.346433,0.797081,-0.069656,0.656633,0.750987
-0.132890,0.590745,0.592915,0.773067,0.518744,-0.365064
0.634095,0.126563,0.393822,-0.461324,0.803115,0.377077
-0.458755,0.286485,0.844038,0.419966,-0.558292,0.715499
-0.146237,-0.133333,0.216743,0.995326,-0.065712,0.070761
-0.214946,0.263938,-0.601243,0.972296,0.190143,-0.135964
0.116749,0.204187,0.721134,-0.120838,0.115831,0.985891
0.026164,0.222838,-0.434532,-0.132261,-0.131696,-0.982427
-0.191627,0.420745,0.564918,-0.349031,0.370929,0.860575
0.134287,-0.332212,0.775595,-0.020981,0.988718,0.148309
-0.277201,0.128706,0.883639,-0.312469,0.948299,0.055603
-0.468248,-0.126274,0.874084,-0.202776,0.684079,-0.700655
-0.011034,-0.647089,0.716621,-0.588941,-0.776178,-0.225156
-0.222415,0.423375,0.492575,0.923177,-0.097203,0.371882
-0.098392,0.160994,0.652934,-0.101646,0.994820,0.001186
-0.364074,-0.876892,0.706655,0.843279,-0.444830,0.301674
0.681073,-0.186025,0.452562,0.995075,-0.047307,0.087109
0.149706,-0.790552,0.663313,-0.090112,0.682766,-0.725059
0.122048,-0.549647,0.587155,0.290523,-0.678395,0.674816
-0.933074,-0.409689,0.469113,0.214757,-0.896275,0.388035
0.008383,0.257803,0.845961,-0.718966,0.062099,-0.692266
-0.158380,-0.614754,0.704045,0.219575,0.899596,0.377509
-0.092803,0.124955,0.082880,0.732078,0.374634,-0.568956
-0.105763,0.148965,0.664095,0.394757,0.872505,0.287925
-0.030982,0.128998,0.511176,0.145983,0.632059,0.761046
-0.542836,-0.253031,0.823334,-0.407179,-0.420366,0.810862
-0.315603,0.324809,-0.995455,0.387169,0.416988,0.822327
0.176014,-0.670562,0.567793,-0.320583,0.751550,-0.576541
-0.189458,-0.220113,0.654086,0.961425,0.037003,-0.272567
-0.715188,0.076651,0.759414,-0.578614,0.587515,-0.565713
0.011853,0.306209,-0.076676,-0.148291,0.984867,-0.089704
-0.353861,-0.154469,0.874634,0.253924,0.801857,-0.540877
0.141852,-0.081226,0.746806,0.930483,0.206558,0.302548
0.351980,-0.025517,0.560796,0.335993,0.866431,-0.369332
-0.145225,-0.532993,0.767700,-0.335515,0.941088,0.042222
0.288136,-0.664378,0.658536,0.774616,-0.543958,0.322612
-0.717019,-0.017727,0.742240,-0.036108,-0.846117,0.531772
-0.296810,0.142438,0.437174,0.824569,0.201749,0.528568
0.172401,0.182032,0.420222,-0.000205,0.716183,0.697913
-0.519418,-0.405308,0.823302,0.564104,0.741480,0.363310
0.039173,-0.132554,0.711369,-0.534429,-0.825159,-0.183026
0.323359,-0.400829,0.397669,0.253522,0.808524,0.531050
-0.178182,0.358996,0.795548,-0.048707,0.857673,0.511883
0.899441,-0.023473,0.544489,0.716158,0.601813,-0.353466
-0.445938,0.347943,0.748423,-0.660768,-0.142157,-0.737005
0.585381,0.096568,0.405204,-0.262136,-0.912589,-0.313792
0.518792,-0.428828,0.673712,-0.133157,0.885347,0.445454
-0.617327,0.210372,0.768302,-0.466503,-0.673113,-0.573841
0.644262,0.129925,0.519219,0.864424,0.438680,-0.245625
-0.385902,-0.174338,0.906150,0.336180,0.676625,-0.655105
0.040233,-0.012321,0.523077,-0.083065,0.262008,0.961484
-0.482124,-0.343462,0.777952,0.901016,0.097110,0.422776
-0.064760,-0.006867,0.761792,0.065197,0.226857,0.971743
0.378480,0.394399,0.245722,0.998352,-0.021291,0.053298
-0.154139,0.068810,0.094495,0.299710,0.146358,0.942737
0.730268,0.120622,0.527621,-0.126966,0.660833,0.739716
0.172352,0.465010,0.352107,-0.236634,0.597202,0.766391
-0.317626,0.209008,0.766083,0.351037,0.936230,-0.015694
0.030210,-0.646604,0.714761,-0.381530,-0.695835,-0.608481
-0.236244,0.101680,0.933872,0.360652,0.341505,-0.867931
0.292618,-0.430825,0.570763,0.851802,0.342821,-0.396114
-0.199288,-0.379352,0.729008,0.446873,-0.507042,0.737030
-0.721019,0.253517,0.700208,-0.511854,-0.840737,0.176540
0.258841,-0.254297,0.761718,0.197898,0.358566,0.912287
-0.030115,0.135816,0.427176,0.364028,0.287425,0.885929
-0.623880,-0.138154,0.789345,-0.333422,0.708133,0.622397
0.383443,0.402531,0.200044,0.408725,-0.889005,0.206431
0.240579,-0.872023,0.634756,0.603009,0.023512,0.797388
-0.284284,0.206621,0.978355,0.667861,-0.697997,-0.258383
-0.195625,0.115168,0.993278,-0.333022,0.735968,-0.589447
-0.066879,0.895885,0.651360,-0.620213,-0.184789,0.762358
0.081911,-0.680399,0.690062,-0.248423,0.834785,-0.491345
-0.242123,0.692477,0.733922,-0.636140,0.709430,-0.303372
-0.165029,0.159044,0.795189,0.997166,-0.010342,0.074518
-0.229691,-0.149695,0.279373,0.747007,-0.637275,-0.189371
0.296184,-0.008912,0.692081,0.991358,-0.131149,-0.003163
0.104703,-0.120282,0.358786,0.179616,0.533657,0.826407
-0.195481,0.440272,0.435695,0.909800,0.320369,0.263872
0.207332,0.605063,0.299602,-0.600927,0.398732,-0.692748
0.542401,0.186998,0.463142,0.023143,0.994095,0.106012
0.574443,0.065255,0.518680,-0.257618,0.862783,0.435016
0.013202,0.466520,0.821717,-0.672787,-0.090755,0.734249
0.081911,-0.631166,0.656042,0.894746,0.400984,0.196574
-0.372603,-0.021136,0.858052,0.435142,-0.899755,-0.033036
0.518839,0.180617,0.470899,0.276654,-0.960446,-0.031713
-0.545342,-0.098272,0.847842,-0.608048,0.067167,-0.791054
0.140214,-0.031557,0.527273,0.916070,0.335844,0.219145
-0.194566,-0.034137,0.915292,0.898523,-0.233583,-0.371612
0.291076,-0.324520,0.625931,-0.351225,0.892127,-0.284165
-0.586538,0.329437,0.853539,-0.574606,0.812043,0.102053
-0.638962,-0.564790,0.798740,-0.529188,-0.533527,0.659780
-0.428014,0.269540,0.858707,-0.489976,0.689563,0.533317
-0.193024,-0.770149,0.737019,0.381099,0.276855,-0.882108
-0.031850,0.545362,0.826409,-0.712388,-0.612857,0.341920
-0.593621,0.252007,0.864795,0.295074,0.872404,-0.389671
-0.720007,0.191769,0.838626,0.733436,-0.679038,0.031281
-0.552906,0.246069,0.891237,0.336443,0.931567,-0.137800
-0.493495,-0.489797,0.726450,0.635997,0.263336,0.725370
-0.063892,0.614901,0.757448,0.978415,0.206644,-0.001358
0.026500,-0.957974,0.635295,-0.471477,0.667968,-0.575785
0.424207,-0.150230,0.293609,0.892274,-0.402335,-0.204873
-0.216971,0.443583,-0.179224,0.983799,0.174306,0.041917
0.578731,0.057367,0.516281,-0.156906,0.861080,0.483654
0.002216,-0.379158,0.767129,-0.216461,0.558135,0.801018
-0.706948,-0.234576,0.621905,-0.314643,0.348107,-0.883075
-0.064036,-0.080498,0.356260,0.407044,0.628496,0.662803
0.579889,0.026931,0.533730,-0.162723,0.816801,0.553495
-0.126242,0.054591,0.745252,0.318481,0.931196,0.177324
-0.470127,-0.321547,0.887422,-0.132326,-0.291883,0.947256
-0.465309,0.533770,0.802069,0.102796,0.992639,0.064031
0.040136,-0.282884,0.739524,0.737955,-0.591839,-0.324267
-0.147056,0.022838,0.671229,0.874971,-0.442304,-0.196961
-0.109232,-0.590358,0.726218,-0.820749,0.570311,-0.033415
-0.165607,0.009983,0.586035,0.725856,0.174977,-0.665219
-0.087887,0.032287,0.759182,0.201173,0.483834,0.851724
0.735086,-0.162892,0.504286,-0.398207,0.878271,-0.264710
-0.255373,0.419282,0.600440,0.287533,-0.805461,0.518224
0.136600,-0.063550,0.745125,0.925911,-0.361389,0.109936
0.705888,-0.057707,0.536732,0.649178,0.144570,0.746771
0.370144,0.182127,0.741299,0.881425,0.414704,-0.226076
0.337670,-0.350571,0.633393,0.782417,-0.179706,-0.596263
-0.049099,-0.112295,0.805050,0.455235,0.777553,0.433789
-0.158861,0.057658,0.849555,0.595801,0.498165,0.629963
-0.354775,0.283807,0.925554,0.303235,0.873308,0.381291
0.178085,-0.070904,0.573373,0.676322,0.730569,-0.094114
0.327069,0.420159,0.729304,0.059477,0.932277,0.356822
-0.464441,-0.504358,0.851298,0.222633,0.792970,-0.567126
0.271032,-0.119990,0.680720,0.983609,0.168981,-0.062912
-0.493110,0.161627,0.811106,0.350865,-0.743489,0.569313
0.289774,-0.596251,0.470593,0.827956,0.059907,0.557584
-0.243520,-0.432237,0.688498,-0.079875,0.552269,0.829831
0.020092,0.261747,0.833966,0.170399,-0.485275,0.857597
-0.375783,0.553152,0.819835,0.462634,-0.674891,0.574884
-0.254506,0.236231,0.968748,0.890767,0.405557,0.205080
0.148741,0.313028,0.376214,-0.418574,-0.189020,-0.888294
-0.538500,0.403895,0.828216,-0.380231,-0.879960,0.284770
-0.067168,-0.012030,0.600175,0.194363,0.528135,0.826617
0.317288,-0.447042,0.608990,0.869561,-0.490877,-0.053884
0.055025,-0.531043,0.650187,0.934560,0.233858,-0.268157
0.277489,-0.477525,0.698929,-0.569384,-0.353449,-0.742210
-0.673654,-0.170929,0.609814,-0.368861,0.178970,-0.912092
0.118000,-0.138689,0.762775,0.909528,0.317778,0.267909
0.326491,-0.206429,0.610226,0.743210,0.542469,0.391621
-0.283126,0.424885,0.518796,0.506486,-0.833572,0.220522
0.079647,-0.598635,0.711432,-0.124236,0.088337,0.988313
0.044954,-0.268273,0.813441,-0.482262,0.613218,0.625610
0.476872,0.586168,0.371352,-0.224599,-0.528850,0.818458
-0.204587,-0.375214,0.820163,-0.154860,0.836080,0.526297
-0.274839,0.146677,0.950380,0.149923,-0.264468,-0.952670
-0.180159,-0.109570,0.809298,0.791970,-0.520435,-0.319267
-0.114340,-0.310202,0.610332,0.459944,0.305463,0.833753
0.028669,0.168737,0.421078,0.168259,0.334922,0.927101
0.226220,-0.805844,0.618364,0.954600,0.205801,-0.215373
-0.092754,0.405550,0.423921,0.636202,-0.009159,0.771468
0.414377,-0.254443,0.742060,0.121616,-0.706698,-0.696984
-0.706755,0.247528,0.676154,-0.013692,0.691464,0.722282
-0.034838,0.217092,0.724442,-0.119763,-0.292259,-0.948811
-0.060278,0.085121,0.599922,0.465030,-0.106956,-0.878810
0.627831,0.192744,0.514685,-0.170560,0.555165,-0.814065
-0.135878,-0.036961,0.209736,0.775031,-0.172795,0.607839
-0.201504,0.282592,0.414166,0.234592,-0.366711,0.900272
-0.859305,0.398685,0.707279,0.255528,0.620999,0.740989
0.156499,-0.296227,0.684144,0.300849,0.259010,0.917825
-0.240244,0.153688,0.290671,0.816746,0.510191,0.269502
-0.219043,0.233454,-0.651677,0.943954,-0.321724,0.073784
-0.096415,0.931775,0.531754,0.850064,-0.127806,-0.510937
-0.200443,-0.453471,0.710872,0.441641,0.897140,0.009662
-0.145611,0.491502,0.477029,0.018454,0.538943,0.842140
-0.208009,-0.810860,0.712838,0.818766,0.502227,-0.278191
-0.114533,0.671293,0.628140,0.945247,0.127285,-0.300510
-0.178375,-0.807256,0.729790,-0.602567,0.492930,-0.627641
-0.047606,0.462526,0.789915,-0.445838,-0.433118,0.783350
-0.568854,-0.138689,0.857016,0.688940,0.589595,0.421592
-0.407392,0.461554,0.821896,0.767802,-0.199311,0.608896
0.143876,-0.095009,0.749913,0.949878,0.095701,0.297611
-0.188398,0.681325,0.799321,-0.783214,-0.616617,-0.079746
-0.279658,0.207450,0.562033,0.946759,-0.097515,0.306820
0.525103,-0.363524,0.628595,0.674710,-0.725105,-0.137799
-0.415728,0.266423,0.918093,-0.482815,0.761615,0.432240
0.570734,-0.283613,0.620911,-0.323542,0.772464,0.546461
-0.109666,0.074409,0.616641,-0.216328,-0.871404,0.440292
-0.447047,-0.190602,0.863326,0.562550,-0.360564,-0.743997
-0.169076,0.491600,0.429935,-0.683571,-0.504649,-0.527314
-0.221308,0.414949,0.493326,0.920822,-0.026303,0.389094
0.063554,-0.250644,0.757216,0.918495,-0.375512,0.123923
-0.249977,-0.066472,0.930521,-0.231979,-0.649870,0.723778
-0.046064,0.251083,0.398377,-0.343064,0.880165,0.328049
-0.124892,0.355783,-0.656517,0.883348,-0.468710,0.002660
0.551941,0.195909,0.421670,-0.572570,0.403460,-0.713711
-0.262504,0.173801,0.794016,0.893670,-0.286751,0.345149
-0.011612,0.178084,0.642228,-0.241434,-0.744134,0.622876
0.264864,0.081567,0.501495,-0.045234,0.994546,0.093983
0.713790,-0.039154,0.583836,0.916139,-0.395396,-0.065961
-0.132890,0.372000,0.647333,0.748364,0.002187,0.663285
0.380311,0.228877,0.728828,0.487308,-0.602491,-0.632088
0.131830,-0.063452,0.507499,-0.481455,0.715126,-0.506751
-0.235233,-0.008620,0.721620,-0.570257,0.758651,0.315048
-0.270359,-0.040028,0.910071,0.322666,-0.750800,0.576356
-0.332419,0.536645,0.758812,-0.361612,0.912970,-0.189006
-0.137613,0.459556,0.491149,0.467721,-0.545437,0.695511
0.253107,-0.322570,0.758759,-0.623631,-0.469266,-0.625199
-0.044715,0.590650,0.819022,0.832340,0.255102,-0.492071
-0.175389,0.319504,0.093417,0.995506,0.080232,0.050306
-0.224054,0.620159,0.465911,0.924744,0.345459,0.159705
0.361376,-0.410177,0.575825,-0.409194,0.325191,-0.852532
-0.086490,0.045775,0.024002,0.752118,0.656780,-0.054393
-0.133999,0.286241,0.771579,0.767571,0.614810,0.181227
-0.180062,0.095349,0.429047,-0.054650,0.307487,0.949982
-0.171823,0.116532,0.985109,0.356997,-0.896011,0.264041
-0.059363,0.203506,0.858316,-0.025440,0.996348,0.081510
0.466223,-0.564597,0.618893,0.088541,-0.025341,0.995750
-0.488774,-0.865255,0.735349,0.798041,0.371608,0.474381
-0.024959,0.575554,0.815058,0.799368,0.257762,-0.542742
-0.240678,0.232676,0.518754,0.821628,0.548798,-0.154104
-0.377953,0.054834,0.087530,0.313251,-0.942346,0.117719
-0.333526,0.352665,0.010135,0.962068,0.272810,-0.000328
0.481835,0.125006,0.503747,0.043418,0.405484,0.913070
-0.201263,-0.406429,0.822425,0.592024,0.739017,0.321500
-0.234606,-0.479133,0.805325,-0.106604,0.459746,0.881629
0.894719,-0.110592,0.480390,0.900198,-0.435000,-0.020474
-0.470801,-0.305818,0.657331,0.395331,0.710212,-0.582505
-0.174811,-0.529828,0.755282,-0.279147,0.549086,0.787770
0.295605,-0.581690,0.682463,-0.118688,0.723973,0.679542
-0.398959,0.203360,-0.812701,-0.435075,0.899739,-0.034334
-0.629036,0.116045,0.476892,-0.310053,-0.058201,0.948936
0.339164,-0.643290,0.556992,-0.147787,-0.984840,0.090821
0.493013,0.082494,0.423456,0.931759,0.298308,0.206970
0.036716,0.384222,-0.340566,-0.542912,0.819682,0.182669
-0.135541,0.286194,0.537757,0.828135,-0.161109,0.536877
-0.403875,0.032287,-0.980871,0.232296,-0.927283,0.293573
-0.472248,0.041733,0.475602,-0.189788,-0.303142,-0.933855
-0.157898,0.626733,0.785434,0.813913,0.164634,-0.557172
-0.010842,0.016801,0.314525,0.057347,0.831782,0.552132
0.846631,-0.098953,0.536636,-0.508644,0.626746,0.590314
-0.314109,0.697003,0.765174,-0.683035,0.671653,-0.286958
0.115689,0.100414,0.695843,-0.485287,-0.086364,0.870079
0.006023,0.203164,0.457826,0.872469,0.411004,0.264337
-0.117616,0.517215,0.579281,0.980156,-0.102493,-0.169672
-0.040378,-0.082249,0.549245,0.290228,0.822327,0.489435
-0.421751,-0.080349,0.846225,-0.208656,0.143485,0.967406
0.564228,-0.566009,0.520033,-0.178997,0.712679,0.678269
-0.117809,-0.491260,0.454285,0.800149,0.449716,0.396885
-0.549437,0.243973,0.603674,-0.482525,-0.745339,0.460043
-0.161127,-0.524421,0.692155,0.019351,0.161168,0.986737
0.187145,0.245385,0.704415,0.628088,-0.097625,-0.771994
-0.116797,0.036085,0.845634,0.868136,0.104144,-0.485277
0.522453,0.221087,0.409791,-0.730677,0.669587,-0.133281
-0.377229,0.198052,0.880859,0.668515,0.099479,0.737015
-0.277634,-0.404431,0.809774,-0.115579,-0.565414,0.816669
-0.103932,0.283418,0.775605,0.302304,0.830057,0.468634
-0.197167,0.287948,-0.172714,0.980968,0.110226,-0.159850
0.630239,-0.195132,0.534586,-0.694008,-0.718359,-0.048093
-0.291945,0.074944,0.651370,0.635989,0.763578,-0.111654
-0.724921,-0.490966,0.810514,-0.235215,-0.837048,0.493988
0.302785,0.096080,0.313140,-0.246208,-0.230884,0.941315
-0.595018,0.301632,0.805515,0.832214,-0.258173,0.490680
-0.209984,0.147845,-0.594077,0.989051,0.134859,-0.059923
0.364170,-0.418796,0.630613,-0.757564,-0.641978,0.118161
0.070637,-0.673289,0.709984,0.463057,0.820838,0.334370
0.612845,0.026782,0.528340,-0.091194,0.780769,0.618129
0.362195,0.350035,0.720764,0.893506,0.345927,-0.286323
-0.324372,0.335135,0.529904,0.993481,0.016278,0.112828
-0.001445,-0.726564,0.646868,0.898667,0.025669,-0.437881
0.027705,-0.784563,0.650239,0.666563,0.742306,-0.068377
0.196539,-0.421281,0.773597,-0.159609,0.594127,0.788377
0.160450,-0.205942,0.709276,-0.542916,-0.839034,0.035551
0.053532,0.446261,0.827857,0.279228,-0.749407,0.600351
0.256576,0.425078,0.354432,0.700659,0.124205,0.702602
-0.649514,-0.097006,0.487957,-0.283365,0.152175,-0.946862
-0.469742,0.270902,0.861465,-0.724962,-0.145770,-0.673187
0.433506,-0.318382,0.578457,-0.099640,-0.101523,0.989831
0.220584,0.407741,0.364145,-0.535884,-0.202188,-0.819724
0.066541,-0.658779,0.708674,-0.287953,-0.956474,0.047334
0.232436,-0.901874,0.646614,-0.566347,-0.412494,-0.713512
-0.415487,0.185390,0.863706,-0.229647,0.896657,-0.378509
-0.342007,0.438228,0.596043,-0.574275,0.742274,-0.345307
-0.266841,0.010129,0.698348,0.066276,0.926971,0.369232
-0.199914,0.430191,-0.291643,0.939095,-0.267573,0.215653
0.092609,0.027855,0.822847,-0.829796,-0.034115,0.557023
-0.188639,-0.109570,0.883269,-0.797941,0.351411,0.489694
0.286354,-0.335865,0.384405,0.172454,0.690074,0.702893
0.444203,-0.482200,0.673438,-0.025154,0.785244,0.618675
0.042256,-0.639495,0.640474,-0.679247,0.731237,0.062581
-0.086297,0.023813,0.738752,-0.306019,-0.942719,-0.132788
0.190565,-0.404042,0.680508,0.863324,0.139795,0.484900
-0.088177,0.420064,0.779759,0.684906,0.511446,-0.518967
-0.216586,0.102655,0.546043,-0.710940,-0.660677,-0.240977
0.371494,-0.262236,0.751075,0.020829,0.597120,0.801881
-0.258939,0.533625,0.827138,-0.231667,0.790377,-0.567128
-0.070059,-0.058486,-0.196504,0.550089,0.326630,0.768580
-0.334924,0.245192,0.913115,0.794003,0.531272,-0.295482
0.801436,-0.002679,0.525222,0.090712,0.351596,-0.931746
-0.398622,-0.632480,0.709540,-0.176789,0.333598,0.925990
0.067408,-0.175456,0.365593,0.134624,0.428505,0.893454
0.403103,-0.490772,0.647935,0.692732,0.645613,0.321412
0.063794,0.509032,0.828407,-0.266898,-0.697097,0.665448
-0.779898,-0.278694,0.491910,-0.396456,0.415748,-0.818521
0.432013,0.401217,0.696551,0.126029,0.829064,0.544765
-0.124169,-0.171416,0.760545,0.511579,-0.712108,0.480820
-0.059315,0.195472,0.840835,0.161815,0.969328,-0.184984
0.288522,0.143850,0.740094,0.668812,-0.373163,-0.642993
0.206225,0.208716,0.729505,-0.073180,0.837807,0.541040
-0.153320,-0.470415,0.759974,0.900530,0.257098,-0.350638
-0.341862,-0.080691,0.807618,0.094361,0.121492,0.988097
-0.283319,0.439931,0.803655,-0.445047,0.241804,-0.862244
0.461163,0.106355,0.411619,-0.293442,0.086421,0.952063
-0.265347,0.130995,0.483814,0.565681,0.574133,-0.591925
0.333960,-0.263306,0.745632,0.163138,-0.932862,-0.321177
-0.115062,0.167616,0.866739,-0.383639,0.841511,0.380369
-0.016672,-0.087899,0.762965,-0.458538,0.888243,-0.027697
-0.216007,0.199464,-0.516080,0.457592,0.813209,0.359585
0.130336,0.277283,0.709466,-0.520038,0.844655,-0.126961
-0.353764,0.449281,0.547332,0.440674,0.606049,-0.662202
-0.170618,-0.121500,0.671049,0.280264,-0.260827,0.923808
-0.001350,-0.510398,0.613851,0.952751,0.303665,0.007271
0.273151,-0.387971,0.793445,0.501223,-0.783368,-0.367574
-0.080563,-0.569370,0.735730,0.192790,0.629273,0.752893
-0.091309,-0.579547,0.765470,0.829403,0.537759,0.151348
-0.093427,-0.523107,0.736015,0.648061,0.722610,0.240522
0.780523,-0.006670,0.516588,0.794592,0.472737,0.380978
-0.338442,0.008473,0.956436,0.806790,0.530190,-0.260747
-0.279561,0.460920,0.411429,0.832211,-0.495575,-0.248657
0.016044,0.164549,0.724093,0.239961,-0.220876,0.945321
-0.073913,-0.714000,0.753548,0.219017,0.081469,0.972314
-0.873857,-0.098222,0.774400,0.635203,-0.495286,-0.592629
-0.177990,0.165182,-0.394107,-0.553578,0.832428,0.024776
-0.273345,0.239738,-0.343462,-0.322328,0.936877,-0.135519
-0.105234,-0.711857,0.747757,0.994186,0.074080,0.078147
0.213163,-0.908205,0.611315,0.098337,-0.961439,-0.256838
-0.600945,0.225712,0.749966,0.636784,0.766720,-0.081527
-0.303894,0.178477,0.898604,0.842500,0.526550,0.113752
-0.428544,0.050206,0.881292,-0.399672,-0.004912,-0.916645
-0.025586,-0.021377,0.605111,0.165532,0.753566,0.636190
0.738557,-0.002093,0.525835,-0.098244,0.335715,-0.936826
-0.627976,0.246360,0.768862,-0.141194,0.964202,0.224452
-0.190808,0.689650,0.457202,0.576907,-0.635679,0.512924
-0.613520,0.312151,0.626565,0.942048,0.177729,0.284532
0.232677,0.215874,0.402889,-0.422344,-0.809414,-0.408012
0.256961,0.279034,0.672550,-0.540501,0.106034,0.834635
0.201358,0.321305,0.085543,-0.254499,0.761450,0.596174
-0.400502,-0.392159,0.744237,0.387309,-0.705558,-0.593448
-0.303991,0.189724,-0.836227,-0.369468,0.914960,-0.162302
0.380745,0.339177,0.691193,0.958945,-0.225683,-0.171731
-0.293245,-0.643923,0.687008,0.056814,-0.782217,0.620410
-0.862196,-0.026151,0.765755,0.470876,0.581204,0.663685
-0.796377,-0.325396,0.762902,-0.669910,-0.214943,0.710647
0.362966,0.366935,0.694258,-0.019959,-0.893109,0.449397
-0.086441,0.218017,0.306873,-0.262090,-0.495608,0.828059
-0.497254,-0.243047,0.807628,-0.451093,0.735561,0.505435
-0.259371,-0.104163,0.813177,-0.046393,0.644818,0.762927
-0.106004,0.915948,0.517475,0.918538,-0.024449,-0.394575
0.184398,0.211005,0.718006,0.006509,-0.992318,0.123542
0.495614,-0.349356,0.620615,0.724620,-0.576636,-0.377381
0.515611,0.083564,0.503578,0.009865,0.435534,0.900118
-0.011999,-0.419091,0.618258,0.158336,0.889017,0.429626
-0.123205,0.047820,0.671662,0.980003,-0.197977,0.019971
0.222125,0.501679,0.351092,0.195173,-0.557203,-0.807113
0.028235,-0.011153,0.699870,-0.013242,0.998796,-0.047226
0.400259,-0.064282,0.574789,0.421649,0.835452,0.352465
0.262262,0.015681,0.435631,-0.188951,-0.182882,-0.964807
0.309915,-0.098516,0.554106,-0.578750,0.413647,0.702812
0.324227,-0.341369,0.371141,0.042084,0.702884,0.710059
0.346920,0.278549,0.329997,0.242329,0.904868,-0.349987
0.251228,-0.309522,0.393018,0.507931,0.637776,0.579006
-0.184351,0.626686,0.810789,0.830270,0.501434,-0.243343
0.858677,-0.013441,0.530876,0.678021,0.392422,-0.621524
-0.228535,-0.225615,0.814667,0.866616,-0.243985,0.435257
0.066252,0.024737,0.556939,0.413897,-0.875778,0.248400
-0.572179,-0.298614,0.654192,0.546113,0.682811,-0.485314
0.445264,0.178233,0.465234,0.032452,0.981302,0.189721
0.357135,0.185245,0.753073,-0.532784,0.249342,0.808684
-0.416016,0.219137,-0.885647,-0.583107,0.805667,0.104341
-0.223572,0.270563,-0.523383,0.027778,0.996031,-0.084564
0.221499,-0.081764,0.598315,0.273380,0.469583,0.839497
-0.090490,0.413733,0.767436,0.539951,0.518277,-0.663206
0.178375,-0.298174,0.256946,-0.465060,0.858941,-0.214334
-0.137467,-0.519698,0.719105,0.089305,0.322609,0.942310
-0.343212,-0.434965,0.745548,-0.243477,0.603413,0.759350
-0.109522,-0.653568,0.748190,0.994261,-0.002573,-0.106952
-0.686760,-0.426783,0.803348,0.467486,-0.858293,0.211635
0.530933,-0.437447,0.429766,0.037407,-0.729424,0.683038
-0.583888,0.247480,0.842051,-0.535263,0.239114,-0.810134
0.349330,0.322521,0.684630,-0.492827,0.747158,0.445957
0.161221,0.376967,0.364282,0.110542,0.600934,0.791618
-0.136938,-0.325833,0.799691,0.917462,-0.025178,0.397027
0.150766,-0.052253,0.744924,0.934972,0.238933,0.262179
0.604558,0.151691,0.506230,0.420978,0.813426,-0.401392
0.125422,-0.285806,0.384172,-0.603056,-0.790871,-0.104148
-0.903923,0.079034,0.749353,-0.529682,-0.117413,-0.840030
-0.382384,0.470173,0.520910,-0.268110,-0.959610,0.085237
-0.720200,0.199806,0.801615,0.907556,-0.145078,-0.394073
-0.748097,-0.089896,0.324332,-0.360891,-0.044055,0.931567
0.076660,-0.234282,-0.077775,-0.146300,-0.397524,0.905854
0.166425,0.615632,0.315698,-0.453833,0.384150,-0.804030
-0.001060,-0.451328,0.618301,0.224577,0.946712,0.230869
-0.099403,0.017286,0.194897,-0.547187,-0.790361,0.275527
-0.025778,0.375893,0.866940,-0.608800,0.748857,-0.261869
0.276524,-0.892671,0.574737,0.945455,0.229144,0.231532
0.384552,0.301436,0.662689,0.884876,0.285076,-0.368411
-0.302400,-0.615779,0.676725,0.624099,0.518209,0.584774
-0.167969,0.317019,0.855526,-0.279163,-0.549452,0.787509
0.727764,0.062381,0.544003,0.760774,-0.510877,-0.400283
-0.884408,-0.013878,0.759203,0.965489,0.021395,-0.259562
0.299556,-0.737959,0.645040,0.365388,-0.853753,-0.370941
-0.214754,0.640319,0.640770,-0.351368,0.068389,-0.933736
0.824082,-0.053373,0.518606,-0.676711,0.018268,0.736022
0.410957,0.311369,0.699733,0.603889,0.710255,-0.361740
0.013058,-0.831459,0.672666,-0.537216,0.640808,-0.548420
-0.252627,-0.151838,0.737125,0.951992,-0.004372,0.306093
-0.179147,0.124664,0.680498,0.598359,0.454874,0.659587
-0.170860,-0.453420,0.724453,-0.754758,-0.648795,0.096984
-0.246701,0.200974,0.717541,-0.613512,0.667252,0.422348
0.031415,-0.349793,0.755768,0.497082,-0.732760,-0.464729
0.106388,0.380813,0.365635,0.078944,0.693485,0.716133
0.230846,-0.387971,0.659075,-0.598980,0.495139,-0.629334
0.364701,-0.734988,0.628056,0.682975,0.279628,0.674799
-0.133950,0.052641,0.592270,0.884598,0.314463,-0.344382
-0.571939,-0.146191,0.711147,0.948856,0.145353,0.280260
-0.292956,-0.479424,0.850474,-0.118032,0.364304,0.923770
-0.391444,0.524470,0.840867,0.069997,0.682741,0.727300
0.053627,-0.075481,0.516418,-0.294729,0.949975,-0.103352
-0.156742,0.554855,0.582103,0.994682,0.085054,0.058079
-0.324468,0.205940,0.909595,0.807112,0.508987,0.299168
0.388793,-0.741563,0.635982,-0.493526,-0.743956,-0.450513
-0.284765,0.220210,0.731227,0.484433,-0.002649,-0.874824
0.810445,0.084685,0.528002,0.414832,0.363961,-0.833935
-0.347066,-0.813634,0.698264,0.815219,-0.426552,0.391755
-0.657994,0.160944,0.485389,0.143840,0.866041,-0.478836
0.122916,-0.274167,0.691204,0.868293,0.151697,-0.472287
0.280572,0.284538,0.357613,0.969466,0.084980,-0.230031
-0.190181,0.294959,0.739482,0.930734,0.361634,-0.054368
0.289486,-0.218699,0.732052,-0.559746,0.382593,0.735056
-0.027031,-0.634136,0.720458,0.674325,0.635432,0.376180
0.003083,0.067398,0.614063,-0.235642,-0.672241,0.701830
-0.876217,-0.085025,0.308204,-0.717504,0.130616,0.684198
0.091114,0.142489,0.843034,0.399781,0.844309,-0.356816
-0.029344,0.909715,0.649669,0.336479,0.528563,-0.779361
-0.052039,0.424641,0.281878,-0.679887,0.543464,0.492341
0.370724,0.043195,0.523954,-0.020490,0.888127,0.459142
0.359690,0.213927,0.749839,0.771227,-0.082693,-0.631166
-0.314494,0.667884,0.758495,0.833569,-0.537851,0.126009
-0.015468,-0.965473,0.639713,0.591368,-0.593717,0.545696
-0.726849,0.276308,0.751318,0.607106,0.793876,-0.034413
-0.264962,0.475918,0.760788,0.813517,0.580421,-0.036087
-0.154814,-0.894521,0.670457,-0.490452,-0.845322,-0.211868
0.306158,0.356416,0.342722,0.257672,-0.327466,0.909050
-0.051027,0.805160,0.632537,0.162805,0.238383,-0.957428
0.319070,-0.269637,0.478868,0.903848,0.123649,0.409597
-0.574589,-0.696421,0.696393,0.324468,0.759398,0.563946
0.087597,-0.687655,0.745907,-0.194529,0.043806,-0.979918
-0.245254,0.418016,0.670753,0.817822,0.481383,-0.315338
0.038643,0.635014,0.309293,-0.306022,-0.050714,0.950673
-0.334779,0.169370,0.879908,0.266792,0.624596,0.733963
-0.698758,0.324762,0.536372,-0.506163,-0.771072,0.386325
-0.211044,0.436182,0.613598,-0.357033,0.560567,-0.747189
0.138528,-0.192989,0.706729,0.754960,0.609183,0.242757
-0.111160,0.221182,0.734028,0.190512,0.705676,0.682441
0.349811,-0.641733,0.642503,0.278916,0.453591,0.846440
-0.502892,-0.412370,0.826652,0.395219,0.665418,0.633262
0.092511,-0.243047,0.576491,-0.538283,0.323086,0.778374
-0.331647,-0.537570,0.757057,0.253233,0.630279,0.733908
0.426183,0.057756,0.508439,0.851732,-0.095918,-0.515124
-0.478510,0.413828,0.852049,-0.028987,-0.554883,0.831423
-0.028766,0.213974,0.741785,0.446387,-0.782192,0.434643
-0.194518,0.147699,0.129044,0.444803,-0.876317,0.184982
0.167004,0.201752,0.401420,0.054460,0.946418,0.318318
0.431241,-0.258925,0.602691,0.897448,0.372741,0.235906
-0.111930,0.230289,0.715332,0.185793,0.706529,0.682860
-0.069723,0.153495,0.103182,0.167140,-0.932116,0.321285
0.101811,0.280154,0.393748,0.525395,0.628822,0.573186
0.120266,0.051764,0.785868,-0.753259,0.578812,-0.312373
-0.592080,0.126076,0.477399,0.153595,0.300050,0.941477
0.480582,-0.368687,0.587208,0.912319,-0.407549,-0.039729
-0.335358,-0.208522,0.894863,0.131696,-0.633495,0.762457
0.029681,0.436132,0.322589,-0.643733,0.690449,0.329982
0.205406,0.032822,0.539501,-0.186898,0.681616,0.707439
-0.681990,0.223471,0.859373,0.714706,-0.667782,0.207996
-0.476584,0.152470,-0.979349,-0.376536,0.061694,0.924345
0.876650,0.202484,0.544056,-0.767062,0.395587,-0.505101
-0.307701,-0.826247,0.701804,0.740253,-0.464430,0.486138
0.410715,0.131191,0.766770,0.860524,-0.508282,-0.033889
0.098873,-0.564306,0.598062,0.720652,0.473598,-0.506325
-0.314301,-0.841539,0.715850,0.298752,-0.636906,0.710702
0.831695,0.067981,0.544415,-0.691784,0.588567,0.418358
0.442180,-0.195132,0.583340,0.096527,0.361037,0.927542
-0.172593,-0.524617,0.737896,0.700003,0.421921,0.576176
-0.317529,0.311907,0.848054,0.446321,0.697442,0.560689
0.318733,0.287849,0.695981,0.142287,0.989438,0.027708
-0.889468,-0.110545,0.752428,0.436358,-0.065723,0.897370
0.059024,-0.128075,0.361756,0.086720,0.433323,0.897057
-0.282982,0.631700,0.779114,0.849138,-0.217692,-0.481222
-0.146334,0.594009,0.811243,0.021875,-0.253022,0.967213
-0.486798,0.230289,0.915831,0.640697,-0.189386,-0.744070
0.011949,0.098027,0.431953,0.634360,-0.697519,-0.333247
0.002842,-0.069492,0.018379,0.372079,0.720768,0.584851
0.060518,0.399998,0.368562,-0.112975,0.866043,0.487039
0.411101,-0.022643,0.541170,0.355620,-0.674727,-0.646743
0.212489,-0.097006,0.591467,0.759266,0.541746,-0.360591
0.058735,-0.712588,0.684218,0.558627,-0.523502,0.643337
0.640455,0.302604,0.380928,0.073619,-0.978601,0.192148
0.479956,-0.405406,0.646160,-0.016657,0.581358,0.813477
-0.482558,0.268711,0.664803,-0.612339,-0.724376,0.316734
-0.121278,-0.316533,0.779146,0.019621,0.990379,0.136981
-0.764961,0.258145,0.538549,0.520920,0.760782,-0.387109
-0.288379,0.204918,-0.873144,-0.389915,0.913782,0.113881
-0.526213,0.304601,0.645779,-0.390674,-0.747299,0.537511
0.054833,0.072070,0.428529,-0.020965,0.538196,0.842559
-0.148599,0.108058,0.084095,0.542314,0.774372,-0.325951
0.332802,0.477526,0.361820,0.070092,-0.570168,0.818532
-0.139154,0.264913,0.309917,-0.600886,0.569426,0.560973
-0.093622,0.155442,0.674104,-0.325239,0.945294,0.025260
-0.086875,0.917407,0.517718,0.738775,0.107062,-0.665394
0.007468,0.438325,0.808654,-0.729726,0.599395,-0.328977
-0.531851,0.283272,0.831387,-0.318773,-0.884465,0.340743
-0.374338,0.332017,0.813431,-0.480051,-0.851545,0.210765
0.228389,-0.707523,0.669126,0.041773,-0.560091,0.827377
0.396790,0.115168,0.739904,-0.267383,0.504589,0.820912
-0.352703,0.426832,0.795950,-0.129840,-0.717971,0.683856
-0.317916,0.080544,0.952800,0.610117,0.509912,-0.606422
-0.048810,0.347502,0.631152,0.698670,0.592943,0.400349
-0.383830,0.181883,0.903106,-0.704423,-0.005759,0.709757
-0.271178,-0.113612,0.895845,0.951900,-0.305624,0.021903
-0.190325,0.268224,0.285640,0.770302,-0.409706,-0.488647
0.342488,-0.579645,0.608821,-0.053451,-0.354632,-0.933477
0.116988,-0.132845,0.701265,0.617345,0.433047,0.656776
0.035029,0.135085,0.772382,0.505392,0.465430,-0.726604
-0.853860,0.243144,0.690992,-0.403873,-0.677136,-0.615121
0.180881,0.111420,0.832623,-0.565398,-0.798263,0.207609
-0.542017,-0.413051,0.814223,-0.781550,0.233060,0.578674
-0.433556,0.253324,0.814086,-0.462695,0.170333,-0.870000
0.311699,0.241637,-0.071635,0.020316,0.602992,0.797488
0.590681,-0.121111,0.477959,0.967469,0.203040,0.150924
-0.067024,-0.936644,0.661411,0.119394,-0.888732,0.442606
-0.225354,-0.493887,0.738647,0.897848,-0.049851,0.437475
-0.167197,-0.052984,0.798888,0.327274,-0.000234,0.944929
-0.378916,0.445581,0.742916,0.547183,-0.337935,0.765762
-0.630529,-0.101925,0.566366,0.793183,-0.589717,-0.151968
0.412739,0.207792,0.752470,0.506155,0.406731,-0.760511
-0.471187,0.063403,0.229478,0.211451,-0.868379,0.448561
0.586923,0.193475,0.517264,-0.178167,-0.871968,0.455991
-0.755711,-0.138594,0.754679,0.236826,0.232406,0.943346
0.042931,0.216168,-0.027500,-0.107677,-0.856073,-0.505514
-0.460490,0.321694,0.891798,0.223818,0.911130,-0.346045
-0.129084,0.709130,0.813801,-0.140965,0.421241,0.895927
-0.106438,0.666567,0.545081,0.924129,-0.155778,-0.348882
-0.144648,0.100949,-0.297615,0.955819,0.172895,0.237736
-0.079744,0.021474,0.685000,0.332154,0.913760,0.233914
0.435000,0.145069,0.410689,0.560486,0.227006,-0.796444
0.037583,-0.231800,0.365814,-0.267279,0.478734,0.836287
-0.241497,-0.029851,0.988322,0.902543,0.153624,-0.402264
-0.606437,0.030679,0.833226,-0.441889,0.079456,0.893544
0.831358,-0.107037,0.532916,-0.116889,0.897722,0.424773
0.206369,0.023813,0.505163,0.171515,0.847236,0.502766
-0.213261,0.136107,0.577738,-0.217616,-0.926742,0.306255
-0.240822,0.086388,0.978852,0.955770,-0.008056,0.294005
0.027224,0.295982,0.768672,0.712607,-0.157274,-0.683708
0.408500,0.229463,0.763007,-0.817373,-0.192142,0.543123
0.330923,0.303142,0.705133,0.042017,-0.911310,0.409571
0.270453,0.334989,0.072850,0.010166,0.775002,0.631877
-0.479716,0.344970,0.682210,0.695632,-0.360019,0.621677
-0.435628,-0.088190,0.899375,0.852618,0.506765,-0.127404
-0.532814,-0.514437,0.556558,0.165473,0.142468,0.975870
-0.356654,-0.133431,0.810545,-0.173732,0.120459,0.977398
0.414330,0.138934,-0.025449,-0.513808,-0.847009,0.136295
-0.035752,0.197419,0.428550,-0.066996,0.795166,0.602680
0.789775,0.073336,0.523024,-0.378721,-0.022680,0.925233
-0.209262,0.157050,0.112282,-0.473590,0.840874,0.261999
0.487183,0.566302,0.375485,0.303713,0.620325,-0.723156
0.230751,-0.678354,0.573172,0.764589,-0.450469,0.460957
-0.131878,-0.933236,0.699014,-0.356269,-0.897130,0.261210
0.292955,-0.303286,0.771272,0.346583,0.777242,0.525143
-0.172498,0.063501,0.311005,0.890610,0.356740,0.282046
0.369518,0.210809,0.332121,0.198801,-0.555842,0.807166
-0.631060,0.450595,0.667720,0.001644,0.796625,0.604472
0.880841,-0.100270,0.532768,-0.545956,0.413666,0.728569
-0.402140,0.517361,0.764233,-0.437200,0.898594,-0.037208
-0.170907,0.520476,0.086209,0.949466,-0.018487,0.313324
-0.292811,-0.248989,0.740633,0.808890,-0.565009,0.162673
-0.612847,0.038909,0.783828,-0.596617,-0.736601,0.318539
-0.278115,-0.101973,0.885065,0.905575,-0.003114,-0.424175
0.514263,-0.736499,0.524313,-0.766547,-0.398309,-0.503742
-0.200155,0.365425,0.846828,-0.094662,-0.543894,0.833797
0.177507,-0.588898,0.610163,0.106734,0.759064,0.642207
0.515418,0.239298,0.398017,0.417128,-0.608544,-0.675040
-0.478607,0.288239,0.878122,0.141722,-0.979977,-0.139860
0.072805,-0.172097,0.751234,-0.607373,-0.037113,0.793550
-0.647635,-0.133675,0.606834,0.381219,-0.081233,0.920909
0.265972,-0.680107,0.666050,-0.461483,0.609718,-0.644420
-0.435869,0.434771,0.787643,0.697618,0.255185,0.669485
-0.116605,0.148136,0.768049,0.908168,-0.385027,0.164273
-0.188012,-0.493450,0.808580,-0.243256,0.600564,0.761676
