0.539511,0.450001,0.499760,-0.418700,-0.761255,0.495157
0.062806,0.108255,0.821220,0.484993,-0.791083,0.372786
0.005470,-0.296715,0.664247,0.869079,-0.488508,0.077857
0.127384,-0.095440,0.869538,0.098515,0.593730,0.798611
-0.640224,-0.728383,0.486907,-0.787015,0.608449,-0.101968
0.614952,-0.258981,-0.154586,0.473876,0.759396,0.445824
-0.591791,-0.475989,0.486865,0.670348,0.247188,-0.699665
-0.054278,-0.187213,0.849694,-0.228744,0.389623,0.892116
-0.032177,-0.120644,0.873210,0.036158,0.199614,0.979207
0.111236,0.164145,0.781051,-0.321467,-0.692091,0.646273
0.322169,-0.567549,0.638103,-0.625161,-0.088704,0.775438
-0.110633,0.197465,-0.961611,0.282772,-0.032732,-0.958628
-0.222737,-0.126554,0.852095,0.834801,-0.489213,0.252544
-0.181395,0.510021,0.676760,0.306516,0.540837,-0.783290
-0.168420,0.544836,0.557753,-0.159201,-0.084136,0.983655
0.538231,0.338507,0.472190,-0.094000,-0.484943,0.869479
0.869490,0.673632,0.510748,0.215780,0.108549,-0.970390
-0.331673,0.270940,0.773679,0.867305,0.311614,0.388175
0.352043,0.039834,0.796997,-0.168509,-0.433395,0.885310
0.244693,-0.128690,0.816601,0.838858,-0.517903,0.167612
0.503679,0.095155,0.830202,-0.023093,-0.898292,0.438791
-0.061144,-0.346481,0.054716,0.946135,-0.323702,-0.006737
-0.318170,0.337510,0.728228,0.862218,-0.494913,-0.107896
-0.144884,0.410630,0.640603,0.174083,-0.740033,0.649650
0.083549,-0.099925,-0.285401,0.977433,-0.202568,0.059918
-0.022972,-0.723826,0.568261,-0.158527,-0.759386,0.631033
-0.495380,0.008223,0.683201,-0.839963,0.332908,0.428525
0.173402,0.074009,0.763057,0.933414,-0.324556,-0.152978
0.243257,-0.081842,0.756349,0.033793,0.827118,0.561012
0.459849,-0.854616,0.130900,-0.744885,-0.027053,-0.666644
-0.441741,0.062831,0.687396,0.896512,-0.439119,-0.058659
0.501717,-0.158308,0.746589,0.501759,0.850242,-0.159144
0.078419,-0.076644,-0.207875,0.953586,-0.298953,0.036070
0.248538,0.589761,0.725855,0.139491,-0.788579,0.598903
-0.416166,-0.236553,0.776814,0.867636,-0.236726,0.437228
0.626343,0.090028,0.736575,0.129025,0.948815,0.288275
-0.369393,0.579865,0.693935,-0.135899,-0.952668,0.271948
0.094715,-0.298210,0.812887,-0.795505,0.600911,-0.077967
0.022820,0.289666,0.752055,-0.409116,0.731194,-0.545875
0.443327,0.512797,0.681605,0.770493,0.597192,0.222940
-0.390742,0.577658,0.497486,0.371751,-0.281765,0.884539
0.012488,-0.034139,0.326205,0.294792,-0.912266,0.284372
0.252765,-0.133388,0.536468,0.772704,-0.608801,-0.179694
-0.297650,-0.122709,0.689317,0.281146,0.788132,0.547544
0.777754,0.230786,0.475255,-0.360735,-0.651424,0.667471
-0.392176,-0.112528,0.605844,-0.410328,0.874281,-0.259353
-0.620912,0.360578,-0.983263,0.285029,0.114412,-0.951666
-0.426576,0.314513,0.651790,0.301201,0.244049,-0.921802
0.425826,0.425154,0.771249,-0.712733,-0.642265,0.281971
0.157106,0.754227,0.649035,-0.337505,0.554087,0.760971
-0.606652,-0.071660,0.398252,0.070020,-0.049369,0.996323
0.311003,0.098928,0.851106,0.095380,-0.267019,-0.958960
0.156425,-0.066036,0.500494,-0.008245,-0.564366,0.825484
0.415263,-0.122994,0.686153,0.972686,0.125230,-0.195446
-0.229075,0.184436,0.666591,-0.227097,0.487938,0.842819
0.070200,-0.184223,-0.145490,0.987348,-0.156023,-0.028283
0.044019,0.432131,0.698314,0.281262,-0.632526,0.721666
-0.351815,0.873838,0.501850,0.466233,-0.841299,-0.273573
-0.686244,0.106902,0.592271,-0.323909,0.831196,0.451881
-0.136206,0.662810,0.669953,0.690996,0.034382,0.722040
0.470559,0.431775,0.655490,-0.294959,0.158058,0.942347
-0.577759,0.354383,0.639784,-0.480190,0.768663,-0.422581
0.120744,-0.175110,0.773891,-0.260083,0.010355,0.965531
0.127232,0.369050,0.751434,-0.463918,0.485976,-0.740681
-0.048168,-0.667367,0.665221,-0.551919,0.817036,-0.166845
-0.073065,0.309458,0.718666,0.969219,0.225650,-0.098475
-0.135225,-0.669645,0.734541,0.834189,0.295674,-0.465517
-0.745766,-0.169486,0.514844,0.508040,0.572887,-0.643193
-0.699670,-0.292514,0.414226,-0.484368,-0.601613,-0.635177
-0.464449,0.613755,-0.908378,0.957712,0.287729,-0.000684
0.090493,-0.462390,0.465806,-0.197182,-0.610302,0.767236
-0.671307,-0.366987,0.619191,-0.577341,0.774867,0.257406
0.075933,-0.253213,-0.492048,0.809280,-0.487672,0.327478
0.117498,-0.698979,0.803099,0.441663,0.539017,0.717213
-0.445664,-0.722759,0.512726,0.362778,0.884307,0.293926
0.022217,-0.550105,0.779710,0.658086,-0.751324,-0.049356
0.700200,0.643515,0.559518,0.170857,-0.431220,0.885922
-0.561615,0.019188,-0.973066,-0.271006,0.033590,-0.961991
0.579571,0.070306,0.745120,-0.359388,0.878898,0.313653
-0.435327,0.804278,0.528742,-0.091023,-0.684626,0.723189
0.209008,-0.122851,0.869071,-0.495352,-0.520298,-0.695641
-0.375957,-0.207647,0.764187,-0.139385,-0.730861,0.668143
-0.363584,-0.748532,0.507260,0.341776,0.939304,0.029957
0.228246,0.769249,-0.946287,-0.212651,0.165422,0.963024
0.038590,-0.236908,0.276037,0.972358,-0.218618,0.082011
0.113428,0.739917,0.504972,0.203350,-0.007213,-0.979080
-0.171514,0.548894,-0.920751,-0.014367,0.825637,0.564018
0.098035,-0.010716,0.890159,0.998574,-0.049210,-0.020712
-0.119308,-0.656260,0.730262,-0.263791,0.943762,0.199319
0.418735,0.531878,0.675306,0.214742,0.976561,0.014611
0.487006,0.374106,0.765586,-0.464715,0.880198,-0.096393
0.475389,0.066249,0.814003,-0.050009,0.998499,0.022327
0.148657,-0.061123,-0.928293,0.849593,-0.065350,-0.523375
0.131606,-0.041473,-0.290062,0.761314,-0.648218,0.014628
0.161858,-0.022819,-0.178215,-0.324295,0.945509,-0.029079
-0.165026,0.037556,0.634940,-0.597934,0.051432,-0.799893
0.114482,0.297924,0.756236,-0.112264,-0.437584,0.892142
-0.835916,0.066747,0.599376,0.877256,-0.135817,-0.460408
0.667462,0.001317,0.796658,0.661910,-0.721863,0.201963
0.185244,0.795735,0.645066,-0.227272,0.932159,0.281827
-0.636301,0.246734,0.492966,-0.792999,0.565848,-0.225764
0.033231,0.137304,0.872602,-0.119957,-0.945896,0.301482
0.302402,0.712577,0.668343,0.842627,0.503597,0.190707
-0.022820,0.001886,0.898322,-0.287161,0.337824,0.896333
0.746521,0.252358,0.473348,-0.334749,-0.659889,0.672673
0.231188,0.663237,0.649558,-0.455581,0.197412,-0.868029
0.403568,0.599587,0.692297,0.910449,0.413138,0.020003
0.596322,0.133102,0.628471,-0.508505,-0.849380,0.141339
0.563202,0.507244,0.664346,0.722113,0.661387,0.202781
0.508960,0.676479,0.542866,0.494973,0.074253,-0.865730
-0.557467,0.535794,-0.980693,-0.299704,-0.081776,0.950521
-0.259930,0.477484,0.673710,0.728876,-0.211921,0.651022
-0.534684,-0.141789,0.482825,0.847602,-0.101872,0.520762
-0.131303,-0.477840,0.155490,0.769755,-0.488563,0.410833
0.363812,0.384999,0.753877,-0.386126,-0.918739,0.082619
0.731055,-0.292870,0.408054,0.260277,0.937325,-0.231683
-0.008560,-0.633050,0.443759,0.249824,-0.868647,-0.427833
0.562446,-0.007227,0.564137,0.178818,0.888760,0.422053
0.303235,0.439607,0.752662,0.264039,0.892649,0.365323
0.132058,0.084974,0.789709,-0.705872,-0.399049,-0.585238
0.110030,-0.058418,-0.190390,0.877934,-0.464861,-0.114612
-0.256458,-0.737923,0.558374,0.380775,0.908279,0.173321
0.352646,-0.716992,0.528474,0.914887,0.193875,-0.354111
0.552036,0.370901,0.676153,0.926600,-0.343490,-0.153057
0.311380,-0.133887,0.865823,0.519135,-0.569635,0.637194
0.006676,0.218967,0.806333,-0.338385,-0.681786,0.648586
0.084608,-0.064042,0.434776,-0.718612,-0.695290,-0.013030
0.763871,0.580933,0.540437,-0.767368,0.074505,-0.636863
0.350459,0.371613,0.670574,0.199209,0.316896,0.927304
-0.289274,-0.664590,0.709867,-0.676798,-0.658425,0.329274
0.390293,-0.082838,0.863450,-0.718020,-0.539864,0.439311
-0.111690,-0.231214,0.904480,0.444491,-0.866203,-0.228297
0.103620,-0.013635,0.954902,-0.767284,0.632140,0.108045
0.116140,-0.415187,0.753990,-0.695203,0.697733,-0.172806
0.142395,-0.885943,0.724118,-0.052119,0.988757,0.140156
-0.983251,-0.243317,0.439663,0.452328,-0.142199,0.880442
0.589153,0.201025,0.634347,0.206925,0.911547,0.355337
-0.446040,-0.209640,0.752422,-0.664993,-0.744633,0.057499
0.135230,0.168132,0.803000,0.885146,-0.002815,-0.465305
-0.436686,0.250649,0.740869,0.928404,-0.282240,0.241675
-0.148127,0.083549,0.775359,0.563383,-0.486657,-0.667656
0.125270,-0.247944,-0.004986,0.382603,-0.287692,0.877980
-0.672211,-0.408921,0.568586,0.966474,0.171988,0.190653
0.186073,0.178740,0.701167,-0.344880,-0.317130,-0.883451
-0.319452,0.554163,0.694528,0.987357,-0.149098,0.053823
-0.352269,0.311452,0.750403,0.746798,0.640014,0.180762
0.640152,-0.386139,0.674840,-0.080782,0.049878,0.995483
-0.251480,-0.385355,0.791418,0.031245,0.970772,0.237960
0.129419,-0.073226,0.336064,0.998162,0.051167,-0.032478
-0.737241,-0.295149,0.628880,0.116624,0.989249,0.088232
0.340803,0.633975,-0.927770,0.202293,-0.135946,-0.969843
-0.577080,-0.443452,0.564024,0.664161,-0.465258,0.585171
0.048771,-0.818875,0.689769,0.020863,-0.994223,0.105283
0.606880,0.163646,0.553501,-0.427828,0.187007,0.884303
-0.349930,-0.213200,0.765868,-0.310657,-0.605351,0.732832
0.516806,-0.215408,0.633005,0.913504,-0.026086,0.405992
0.286788,0.628564,0.653315,-0.582601,0.645730,0.493567
-0.136736,0.181089,-0.160928,0.758944,0.619598,0.200254
-0.075173,-0.492151,0.011031,0.757491,-0.315998,0.571274
0.140963,-0.034851,0.270684,-0.255541,0.959926,-0.115071
0.410285,-0.460539,0.588246,-0.704755,0.232129,0.670400
-0.273055,-0.137091,0.814073,0.817243,-0.229210,0.528750
0.603109,-0.053292,0.762337,0.725249,-0.412972,0.550879
0.398516,0.148125,0.719895,0.825131,0.297139,0.480487
0.066277,-0.173543,-0.431132,0.745659,-0.657997,0.105037
-0.320357,-0.298708,0.802025,0.944417,0.297660,0.139552
-0.822188,0.265245,-0.988616,0.661976,-0.100238,-0.742792
0.724944,0.517923,0.537188,-0.225509,0.923411,-0.310576
-0.436838,0.787120,0.488828,0.898688,-0.382549,-0.214514
-0.110782,-0.365348,0.065916,0.957740,-0.276473,0.079358
0.182302,0.674130,0.670405,0.905310,-0.051598,-0.421605
0.035496,0.068313,0.845527,-0.425800,-0.897586,-0.114160
0.304515,0.629418,0.716279,0.860687,-0.132189,-0.491676
-0.660366,0.082908,0.626084,-0.057809,0.952649,0.298526
0.072687,-0.066036,0.231858,0.857107,-0.514915,-0.015164
-0.364715,0.156527,0.639685,0.542546,0.839732,-0.022210
0.114860,0.197181,-0.952925,-0.216676,0.144043,0.965558
-0.377541,0.882809,0.474478,-0.591616,0.794499,0.136973
-0.047717,0.851055,0.481300,0.145468,-0.786769,-0.599861
0.101958,-0.256417,0.617228,0.723089,0.576266,0.380867
-0.220851,0.422092,0.730205,0.216033,-0.898517,0.382095
-0.212250,-0.062903,-0.969648,-0.237468,-0.018102,0.971227
-0.008560,0.079776,0.863394,0.144932,0.688871,0.710248
-0.935196,-0.297070,0.435906,-0.418476,0.202944,-0.885264
0.238431,0.004947,-0.194882,0.286258,-0.928577,-0.236224
-0.081210,0.131323,0.758679,-0.031965,-0.543303,0.838928
-0.823695,0.033996,0.583430,-0.827845,0.429884,0.360379
-0.589302,-0.420242,0.643852,-0.482309,0.716671,-0.503746
-0.080832,0.208571,0.707325,-0.390576,0.103820,-0.914698
0.368265,0.535081,0.727084,0.947539,0.133659,0.290352
0.135603,-0.654410,0.799073,-0.669862,-0.510702,-0.538951
-0.132359,0.751806,-0.961089,-0.178894,-0.648810,0.739623
0.022143,0.633049,0.510367,0.151831,0.518549,0.841460
-0.301799,0.524901,0.650476,0.917988,0.334673,-0.212819
0.440611,-0.473426,0.040521,-0.881672,0.120197,0.456297
-0.712496,-0.546688,0.406217,0.134932,-0.539921,0.830830
0.112069,-0.043751,-0.320457,0.980917,-0.190857,0.037096
0.287465,0.525114,0.708243,-0.188634,0.733028,0.653520
0.150844,-0.072515,0.959832,-0.719645,-0.603298,-0.343718
0.157258,-0.489304,0.633570,-0.246984,0.019244,0.968829
0.697258,0.405004,0.520677,0.694731,0.694198,0.188250
0.300293,-0.041829,-0.586438,-0.509124,0.856905,0.080660
-0.338011,0.520629,0.650165,0.909551,0.345023,-0.231681
0.244615,0.633619,0.735516,-0.335208,0.930242,-0.149281
0.231718,-0.806984,0.731477,0.392908,-0.815845,0.424288
-0.654859,-0.352391,0.585718,0.888732,-0.040934,0.456595
0.189167,-0.720266,0.697622,-0.889749,0.116489,0.441336
-0.358455,-0.281693,0.783396,0.155261,0.982397,-0.103879
0.273587,0.619095,0.705531,0.882238,-0.466620,-0.062620
-0.549319,-0.193835,0.587766,0.935707,-0.345980,-0.068924
0.032402,0.013562,0.732818,0.658873,0.697560,-0.281595
-0.437365,-0.655833,0.545211,-0.168232,-0.486783,0.857170
0.400855,-0.315226,0.072795,0.661880,0.734412,-0.150181
0.304137,0.658965,0.716336,0.835393,-0.139100,-0.531762
0.489571,0.113381,0.709062,-0.410951,0.767289,0.492328
-0.223717,-0.176747,0.845244,0.902803,-0.146303,0.404404
0.461584,-0.023104,0.671351,0.894860,0.440726,-0.070612
0.081965,-0.830764,0.610745,0.052943,0.998199,-0.028210
-0.692807,-0.168061,0.550211,0.314075,0.767690,0.558578
0.042739,0.024598,0.865470,-0.357153,-0.369894,-0.857683
0.513639,0.313018,0.711039,-0.739592,-0.672570,-0.025560
-0.300592,0.313588,0.756222,0.855425,0.469227,-0.219258
-0.133492,-0.477129,0.865032,0.926832,0.124027,-0.354399
0.659841,-0.200670,0.677340,-0.256915,0.846834,0.465690
-0.815094,-0.103912,-0.996102,0.309234,0.144349,-0.939967
-0.011124,0.031433,0.815387,-0.186936,0.877942,-0.440763
-0.390366,-0.286391,0.736264,0.899125,-0.186222,0.396101
-0.252008,0.239970,0.729584,-0.104354,-0.894884,0.433927
-0.144957,0.045103,0.890144,0.943249,-0.317145,0.098492
0.254501,-0.555445,0.479845,0.679807,0.212038,-0.702070
-0.622269,0.380513,0.665998,0.669033,0.478685,0.568556
-0.846780,0.208643,0.673102,-0.778104,-0.181948,0.601207
0.564712,0.596383,0.537160,0.618076,0.531224,-0.579468
-0.335973,0.062973,0.852730,0.818227,-0.532335,0.217080
-0.469730,0.801929,0.474266,0.617483,-0.666158,-0.418268
-0.405831,0.197892,0.610011,0.294419,0.924027,0.243910
-0.123910,-0.444805,0.063981,0.946726,-0.318337,0.048697
-0.278336,-0.551245,0.719104,-0.297785,-0.254335,0.920129
0.615104,0.735217,0.456936,-0.507779,0.796526,0.328186
-0.040474,-0.868713,0.670772,-0.039753,-0.995260,0.088758
0.758364,0.716208,0.492288,0.608936,0.412687,-0.677412
0.183964,0.781923,0.659303,-0.262571,0.763433,0.590108
0.252687,0.058559,0.891458,0.905738,-0.420510,0.052998
-0.270039,0.708305,0.498079,-0.125552,-0.932527,0.338572
-0.620005,0.276352,0.589870,-0.286312,-0.088541,0.954037
0.093886,-0.026593,0.163569,0.616708,-0.787192,-0.000201
0.344349,0.462816,0.671944,-0.559172,0.037276,0.828213
0.055867,0.424086,0.675249,-0.446144,0.894806,0.016639
-0.591489,-0.481827,0.417799,0.613950,0.298530,0.730716
0.602580,0.119077,0.726406,-0.546123,0.674098,0.497335
-0.317942,-0.332100,0.770670,0.470118,-0.877766,-0.092281
-0.457809,0.066676,0.707678,0.600866,-0.345743,0.720709
-0.120968,0.619949,0.563473,-0.322998,0.840026,-0.435922
0.083779,-0.656474,0.809313,-0.112567,0.748083,0.653988
-0.009996,0.021466,0.896076,-0.493487,0.606660,0.623244
0.509034,-0.923249,0.728256,0.089384,-0.557779,0.825162
-0.610200,0.332312,0.664374,0.756360,-0.521255,0.395238
0.113653,-0.038411,-0.210686,0.987784,-0.155657,0.007387
-0.705405,0.427432,0.620307,-0.262272,0.638472,0.723579
0.447854,0.462105,0.489365,0.439311,0.728856,-0.525143
0.615408,0.682532,-0.918180,-0.228805,0.209615,0.950636
0.164575,0.465380,-0.948066,-0.157229,0.190117,0.969090
0.428690,0.376099,0.764300,0.212768,-0.967619,0.135807
-0.977217,-0.168275,0.501794,0.055508,-0.431842,0.900239
0.165556,-0.410702,0.885046,0.967454,0.007834,-0.252924
-0.602580,-0.698908,0.403124,0.240080,-0.783985,0.572477
-0.467768,-0.316366,0.801489,0.586857,0.712243,-0.385108
-0.568706,-0.194119,0.574221,0.896325,-0.443281,-0.010165
-0.496887,0.271225,0.400003,0.602963,0.487121,0.631781
0.061899,-0.048379,0.880823,0.074248,0.960593,0.267860
-0.016558,-0.194760,0.047004,-0.756976,0.555689,0.343798
-0.058956,-0.456623,0.867956,0.070966,0.933754,0.350811
0.101281,-0.295006,0.625420,0.609497,0.544239,0.576470
0.585230,-0.202236,0.617765,0.616536,-0.458902,-0.639760
-0.754365,0.183937,0.500763,-0.874589,0.475946,-0.092569
0.028253,-0.079279,0.927855,0.929322,0.270014,-0.251900
0.517787,-0.301698,0.622765,0.960220,-0.177831,0.215299
-0.205083,0.105193,0.708794,0.346946,-0.857989,0.378791
0.247410,-0.480332,0.457586,0.143544,-0.981235,-0.128739
-0.168949,-0.138016,0.695093,0.089626,-0.884094,-0.458635
0.315529,0.228436,-0.942699,0.196317,-0.001473,-0.980539
0.044019,-0.251007,0.876571,0.573538,0.717948,-0.394468
0.020182,0.047097,0.833479,0.247946,-0.957287,-0.148741
0.545396,0.112242,0.831233,-0.114437,-0.965599,0.233503
0.586892,-0.091311,0.507825,-0.611677,-0.485866,0.624328
0.636754,0.324338,0.474379,-0.288378,-0.447514,0.846504
-0.093433,-0.152113,0.819468,0.115801,-0.014994,0.993159
-0.240089,0.526965,0.669035,-0.514523,-0.600360,0.612237
-0.436234,-0.236411,0.762267,0.867672,0.405244,-0.287964
0.334993,-0.267951,-0.189133,-0.178427,0.408257,0.895260
0.146318,-0.839165,0.676478,0.417771,-0.851808,0.316054
-0.096677,0.647288,0.524364,0.865505,0.099854,-0.490847
-0.247405,0.046242,0.752931,-0.656587,0.108752,-0.746369
-0.143525,0.161440,0.784370,0.461487,0.855685,-0.234164
-0.820979,0.551884,-0.979252,-0.009361,-0.164630,0.986311
-0.616310,-0.268022,0.565704,-0.345202,0.777375,0.525855
-0.106182,0.477626,0.680574,-0.220146,0.089494,0.971353
-0.346460,0.237264,0.712367,-0.666976,0.554965,-0.497149
0.465508,0.762557,0.535875,0.624485,0.116238,-0.772339
0.594733,0.078851,0.722691,-0.506298,0.716582,0.479763
0.281055,0.519846,0.581184,-0.620739,0.530928,-0.576887
0.665726,-0.012922,0.757775,0.516057,0.816302,-0.259490
0.077591,-0.067176,0.177537,0.931111,0.227802,-0.284847
-0.413978,-0.049731,0.698483,0.851380,0.502542,-0.150343
-0.812983,0.612117,0.574786,-0.287059,-0.722833,-0.628578
-0.015955,0.227083,0.749654,-0.627666,0.098573,-0.772216
-0.240768,0.546118,0.675278,0.190259,0.980251,0.053938
0.424919,-0.213628,0.699924,-0.020501,0.170892,0.985076
-0.183960,-0.562494,0.068176,0.850391,-0.525623,-0.023592
-0.074874,0.036204,0.916132,0.510477,0.626105,-0.589412
-0.231713,0.264248,0.381077,0.220022,-0.463221,0.858496
0.208253,-0.094301,0.929550,0.782752,0.057017,0.619717
-0.017161,-0.208430,0.864269,-0.007432,-0.603229,0.797534
0.124064,-0.058987,0.097045,0.317778,0.948133,0.007777
-0.743653,-0.351892,0.594249,0.802236,0.144925,0.579149
0.465508,0.540564,0.501144,0.424459,0.680029,-0.597826
-0.075477,0.041828,0.923519,0.255962,0.966440,0.021846
-0.242352,0.107686,0.771857,0.670331,0.729596,0.135444
-0.155898,-0.559361,0.677707,0.955365,0.126158,-0.267136
0.746070,0.561780,0.532880,-0.636123,0.510774,0.578324
0.067783,-0.477912,0.771334,0.423715,0.350337,0.835302
0.091395,-0.050942,0.391769,-0.325173,-0.031091,0.945143
0.092753,-0.131609,-0.225417,0.991019,-0.131651,0.023436
0.135152,-0.480901,0.744824,-0.203874,0.714690,0.669069
0.087776,-0.166566,0.362292,0.955819,-0.281759,-0.083803
0.023653,0.463671,0.600025,0.494487,-0.704933,0.508481
0.233375,-0.649924,0.786941,0.809324,-0.581946,-0.079587
-0.300364,0.582072,0.472331,-0.628663,0.339486,-0.699666
0.420241,0.471004,0.480128,0.424115,0.757178,-0.496797
-0.397683,-0.292799,0.776419,0.520980,0.781017,-0.344373
0.357476,0.568616,0.537344,-0.423329,0.824358,-0.375800
-0.284976,0.598092,0.479704,0.752766,-0.243407,0.611634
-0.008334,0.789398,0.602031,0.088856,0.374619,0.922911
0.041910,-0.002741,0.505904,0.228358,0.415439,0.880490
0.714911,0.363639,0.541058,0.950219,0.252865,0.182051
-0.248310,0.310170,0.714867,0.403421,0.905250,-0.133321
-0.124513,0.595385,0.555535,-0.350329,0.553785,-0.755375
0.270944,0.174896,0.720742,-0.599142,-0.126983,0.790509
-0.120968,-0.191272,0.798240,0.148532,0.156175,0.976498
0.107842,-0.312521,0.839242,-0.063829,-0.558941,0.826747
-0.297574,0.487024,-0.893011,0.755027,-0.632127,-0.174210
0.025085,-0.068670,0.075775,0.736271,-0.668142,0.107197
0.008564,-0.336087,0.782393,0.925006,-0.102004,0.366005
0.435481,-0.561924,0.605647,0.262479,0.173184,-0.949269
0.352494,-0.134813,0.605816,-0.524710,-0.850258,0.041730
0.215874,-0.821438,0.697763,0.898215,0.123706,-0.421789
0.331525,0.396105,0.727451,0.798812,-0.285697,-0.529411
0.508279,0.187925,0.626635,-0.136644,0.958134,0.251610
-0.132963,-0.016767,0.895285,0.058204,-0.451026,0.890611
-0.050733,0.741838,0.597370,0.029543,0.874367,0.484366
-0.024556,0.039550,0.773566,0.849563,0.048632,0.525240
0.465885,0.423587,0.791729,0.864476,0.501985,-0.026304
0.079400,-0.640598,0.774314,-0.648723,-0.624519,0.434896
0.035271,-0.382578,0.825782,0.577971,-0.304483,0.757126
0.329260,-0.382152,0.784526,-0.022023,0.374419,0.926998
-0.435403,0.134811,0.690673,0.981289,0.187141,-0.045284
-0.449511,0.551031,-0.970961,-0.319487,-0.107874,0.941430
-0.745766,-0.368838,0.604051,0.947584,0.315355,-0.051334
-0.219115,0.443594,0.681337,0.226904,0.687272,0.690052
-0.511069,-0.747322,0.518446,0.468207,0.881328,0.063584
-0.361020,-0.384856,0.588190,0.158724,-0.095747,0.982669
-0.756780,0.316933,-0.978842,0.410620,-0.047867,-0.910549
-0.546678,-0.279058,0.780402,0.834112,0.429102,-0.346594
0.217458,0.115232,0.859750,-0.622128,-0.683071,-0.382584
0.044622,-0.151615,0.398379,0.798148,0.576324,0.175532
0.231414,-0.874978,0.765868,-0.611073,0.534224,-0.584118
0.046059,0.054288,0.945778,0.654735,0.645692,-0.392943
0.401380,0.096508,0.811263,0.828700,-0.421291,0.368470
0.013390,-0.029155,0.921810,0.996451,0.053051,-0.065353
0.126854,-0.085259,0.639304,-0.791004,0.596729,0.135008
0.342838,-0.627995,0.501808,0.952998,0.039490,-0.300392
0.558298,0.066035,0.745403,-0.231162,0.914468,0.332134
-0.198144,0.131678,0.858535,-0.610154,0.286113,-0.738818
-0.313038,0.566693,0.701534,0.161419,0.872306,-0.461548
0.103620,0.448719,0.681916,0.628080,-0.297667,0.718964
0.035648,0.003025,0.919211,-0.323919,-0.519768,0.790517
-0.404171,0.385639,0.666577,-0.607502,0.105216,0.787319
-0.390818,0.119931,0.706054,-0.389893,0.806891,-0.443745
0.144283,0.280624,0.840923,0.445515,0.820839,-0.357408
0.119837,0.150190,0.477501,0.851580,-0.417406,0.317150
-0.815322,-0.138230,-0.996031,-0.307787,-0.105351,0.945605
-0.390516,-0.438681,0.709457,0.840144,0.494668,0.222400
-0.112293,-0.838881,0.644360,0.365816,0.926282,-0.090451
0.137040,0.021536,0.948024,0.779205,-0.517808,0.353149
-0.328353,-0.189207,0.774710,0.248281,-0.922032,0.297008
0.499530,-0.901036,0.797223,0.907597,0.180729,0.378952
0.108597,-0.069169,0.257606,-0.061228,-0.907681,0.415171
-0.074948,0.245096,0.818183,-0.808387,0.396934,0.434689
-0.439174,0.298280,0.758919,0.913098,-0.407525,0.013219
0.051110,-0.066463,-0.045818,0.046805,0.981709,0.184547
-0.464147,-0.506390,0.177170,0.759696,-0.644016,0.090032
-0.633586,0.503115,0.570676,0.652302,0.327017,-0.683785
0.191433,-0.417821,0.885582,0.960314,-0.190302,-0.203917
-0.266116,-0.196540,0.812025,0.841820,0.491407,-0.223289
0.076458,-0.072870,0.168597,0.848561,-0.481038,-0.220333
-0.445589,-0.265530,0.796898,0.705818,0.422601,0.568533
0.357021,0.395748,0.732183,0.975776,-0.018701,-0.217971
0.633964,-0.059130,0.524759,-0.136588,-0.917863,0.372654
0.248087,-0.093376,0.917361,0.372031,0.896845,0.239296
-0.465052,0.073796,-0.980820,0.221675,-0.043804,0.974136
-0.113274,-0.492365,-0.118146,0.963832,-0.214191,-0.158586
0.486628,-0.440747,0.609672,-0.239241,0.089200,0.966854
-0.005318,0.532661,0.622186,-0.752379,0.608247,-0.252906
-0.216627,0.379445,0.737197,-0.434317,-0.893413,-0.114815
0.169175,0.003524,0.769343,0.828807,0.550511,-0.100087
0.011203,-0.230002,-0.059292,-0.452428,0.344335,-0.822644
-0.157783,0.200170,0.771758,0.867960,0.469761,-0.161149
0.443480,0.110178,0.831940,-0.601749,-0.557496,0.571923
0.276225,0.642376,0.717720,0.804615,-0.524862,-0.277695
-0.690542,-0.251504,0.391896,0.390653,-0.526616,-0.755027
0.863154,0.157950,0.611904,-0.497943,0.721634,-0.480934
-0.506997,0.445730,0.674275,-0.156657,0.646346,-0.746790
-0.274036,0.018048,0.743115,0.832840,-0.231844,0.502618
0.292447,-0.456054,0.737211,0.937949,0.213823,0.273004
-0.374071,-0.133815,0.397150,0.304130,-0.328758,0.894105
0.089360,-0.162081,-0.310613,0.984608,-0.154205,0.082270
0.184342,-0.314086,0.862843,-0.034686,-0.999103,0.024307
-0.326166,0.260901,0.734527,0.876438,0.478935,0.049775
-0.074271,0.776938,0.605308,-0.620295,0.783771,0.030631
0.036399,0.424727,0.685150,-0.002320,-0.932605,0.360892
0.145866,-0.138942,0.055224,0.121377,-0.860569,0.494660
0.025463,-0.091382,0.802929,0.448392,0.893768,0.011103
0.038061,0.277063,0.636409,0.205893,0.435422,-0.876365
0.265589,-0.792176,0.754371,-0.072949,-0.997327,0.004176
0.063031,-0.570040,0.808593,0.652725,0.520186,0.550778
0.244919,0.386564,0.765402,0.062983,0.640238,0.765590
0.090718,-0.434624,0.838423,-0.414627,0.905807,0.087168
-0.451924,-0.355453,0.593980,-0.678816,0.222512,-0.699783
-0.032324,-0.148054,0.891684,-0.684625,0.726933,-0.053460
-0.079626,-0.101777,0.775077,-0.417730,0.908531,0.008509
0.242128,0.374176,0.738129,0.221129,-0.144495,0.964481
-0.701257,-0.499911,0.620915,-0.566076,-0.578747,-0.587034
-0.007353,0.150547,-0.952713,0.381172,0.116195,-0.917173
0.139526,-0.000178,0.157750,0.587348,-0.808595,0.034591
-0.483836,0.258908,-0.980396,-0.172832,0.069654,0.982485
0.617516,-0.121996,0.599277,-0.448412,0.791996,0.414330
0.380863,0.774019,-0.934423,0.277134,-0.149600,-0.949114
-0.321789,-0.233634,0.669755,-0.650005,0.644802,0.402149
-0.129341,0.068384,0.843394,-0.477314,0.299961,-0.825950
0.469882,-0.121854,0.508517,-0.078673,-0.970609,0.227440
0.028180,-0.284682,-0.260459,0.895219,-0.385748,-0.223116
0.442195,-0.630344,0.597356,0.312062,0.425152,-0.849625
0.158538,-0.034781,-0.454338,-0.512541,0.856609,0.059350
0.515899,-0.493646,0.075436,0.966046,0.143011,0.215180
-0.439854,-0.655762,0.237959,0.864337,-0.424736,-0.269297
0.186299,-0.156314,0.494831,0.977038,-0.206733,-0.051562
0.023653,0.858530,0.595986,0.410667,0.679977,0.607440
0.049678,-0.479122,0.687777,0.856565,0.235159,-0.459344
-0.001998,-0.533161,0.846727,0.865038,-0.436485,-0.247367
0.152958,0.570395,0.549349,-0.169154,0.970492,-0.171852
0.085211,-0.297284,0.382277,0.969628,-0.171330,-0.174549
0.125344,-0.042114,0.149925,0.633393,-0.735616,0.240171
-0.241597,0.482182,0.555083,-0.496635,0.108193,0.861190
0.264682,0.678117,0.641578,-0.717944,0.354615,-0.599003
0.059638,-0.047311,-0.621776,-0.789927,0.553539,0.263837
0.045907,0.812466,0.604672,0.107082,-0.213276,-0.971106
0.440685,0.230928,0.449761,-0.303130,-0.553250,0.775904
-0.226282,0.108397,0.722847,0.404997,0.886260,0.224768
0.315455,0.099996,0.821530,0.408906,0.262840,0.873906
0.129493,-0.515077,0.432615,-0.690855,0.615411,0.379459
-0.612765,-0.184081,-0.988433,-0.237788,-0.052628,0.969890
0.096451,-0.298138,-0.082667,0.971093,-0.088817,0.221561
0.855832,0.649069,0.504492,0.217240,-0.060889,-0.974217
-0.228244,-0.025098,0.835993,-0.137207,-0.747420,0.650028
-0.430048,0.425652,0.510932,0.653250,0.489291,0.577805
-0.334465,-0.276423,0.780613,-0.039072,-0.986419,0.159536
-0.089282,-0.163433,0.456315,-0.263382,-0.069782,0.962165
-0.526762,0.193763,0.698511,0.341014,-0.939844,-0.020046
-0.146468,0.195969,0.647355,0.966388,-0.225527,0.123416
0.237450,-0.005091,0.857518,0.965906,0.161778,-0.202124
-0.030215,-0.634688,0.695828,0.547931,-0.746853,0.376805
-0.319980,0.527464,-0.942431,-0.176615,0.802513,0.569895
0.124138,-0.311453,-0.066015,0.585480,-0.248055,0.771804
0.506396,-0.241252,0.628866,0.905234,0.109787,0.410486
-0.724717,0.053362,0.442149,-0.545758,0.708131,-0.447994
0.465885,0.433412,0.488051,0.443181,0.782716,-0.436973
0.146695,0.414118,0.775388,-0.184095,0.914492,0.360297
-0.030966,0.228578,0.786701,0.131741,0.747973,0.650524
-0.020481,0.151757,0.787873,-0.818766,-0.027080,0.573488
0.051943,-0.512797,0.864029,0.582227,-0.788896,-0.196608
-0.763494,0.201167,0.615971,0.440884,0.345853,-0.828255
0.204183,0.337937,0.684514,0.956596,0.236202,-0.170682
-0.593451,0.414331,0.657453,0.335486,0.711235,-0.617733
-0.195881,0.787191,-0.948518,-0.230047,-0.695651,0.680550
0.097432,-0.059841,-0.238454,0.948904,-0.280845,0.143903
0.065444,0.775586,0.586184,0.953641,-0.077098,-0.290902
-0.069215,0.085258,0.693074,-0.428178,0.265424,0.863837
0.684208,0.667011,0.562597,0.023650,-0.292921,0.955844
-0.195351,0.497062,0.699472,-0.199332,0.522312,-0.829130
0.442195,-0.512655,0.605393,-0.529429,0.166945,0.831766
0.309571,-0.499769,0.610887,0.699796,0.333431,0.631751
-0.370675,-0.186858,0.810330,0.774030,-0.603037,0.192935
0.343064,0.527962,0.705616,0.178286,-0.579163,-0.795478
0.083927,-0.093732,0.930383,0.490554,-0.775133,-0.398153
0.040699,-0.719128,0.841177,-0.716920,-0.607224,-0.342498
-0.416921,-0.370048,0.594333,0.806761,-0.267157,0.527033
-0.140129,0.375813,0.651380,0.210670,-0.951728,0.223233
0.151751,0.547186,-0.938194,-0.032577,0.204143,0.978399
0.203501,-0.098573,0.911556,-0.645920,0.754787,0.114383
-0.009163,0.175607,-0.935821,0.074445,-0.126116,0.989218
-0.536569,0.279484,-0.976470,-0.357035,-0.109457,0.927656
-0.072913,0.394468,0.696802,0.903675,-0.360537,-0.231049
0.584323,0.091950,0.732027,0.915876,-0.353178,0.190882
-0.090488,-0.143356,0.769201,-0.810818,0.353956,0.466144
-0.265285,0.484033,0.635180,0.887029,0.461711,-0.001335
-0.618196,0.458118,0.459267,0.817763,0.239260,-0.523468
-0.583494,-0.090813,0.403124,-0.094809,0.028760,-0.995080
0.519670,-0.695703,0.786433,0.991614,-0.067939,0.109937
0.223945,-0.822506,0.708186,0.951069,-0.060665,-0.302964
0.086040,-0.645011,0.807237,0.384363,-0.777426,-0.497870
-0.255102,-0.825353,0.715983,0.731860,0.604598,-0.314392
0.513786,-0.281763,0.633259,0.925858,-0.053814,0.374021
-0.009918,-0.598235,0.778481,0.894895,0.193953,0.401926
0.140811,0.436403,0.673611,-0.638811,0.593229,-0.489897
0.118180,-0.050515,-0.309158,0.933282,-0.355293,0.052451
0.094264,-0.064185,0.968447,0.396888,0.910081,-0.119299
-0.237674,-0.411343,0.555465,-0.141913,-0.434339,0.889500
-0.269284,0.072229,0.660984,-0.500667,0.854520,0.138306
-0.653577,-0.403866,0.638880,-0.482774,0.864455,0.140167
-0.024782,-0.261401,0.003135,0.486619,-0.359720,0.796117
0.085888,-0.081770,-0.024124,-0.477029,0.873995,0.092604
0.148127,-0.486527,0.780896,0.288410,0.864083,-0.412528
0.040322,-0.249368,-0.015847,-0.452042,0.038403,-0.891170
-0.297120,0.835321,0.377390,-0.323370,-0.273108,-0.906004
0.660444,-0.024030,0.558049,0.276076,0.947553,-0.161014
0.060393,0.726674,0.601904,-0.032828,-0.025790,0.999128
0.280751,-0.040689,0.506243,-0.022148,-0.976166,0.215892
-0.001998,0.060837,0.929493,0.263302,0.952229,-0.154698
-0.274867,0.625929,0.711717,-0.095818,0.981344,-0.166680
-0.327975,0.034210,0.669600,0.929574,0.332008,0.160197
0.006902,-0.325336,0.423590,-0.279462,0.585681,-0.760841
-0.434423,-0.002172,0.636550,-0.497734,0.683619,-0.533784
-0.685489,0.150261,0.469747,0.846852,-0.446144,0.289478
-0.649352,-0.288028,-0.988941,0.324891,0.072499,-0.942969
0.217006,0.656260,0.674049,-0.011461,-0.009918,0.999885
0.177624,-0.231854,0.407926,0.832329,-0.198028,-0.517700
0.262269,0.615819,0.701336,0.823328,-0.561397,0.083457
0.024933,0.798227,0.500763,0.607160,-0.262912,-0.749822
-0.484213,-0.342993,0.782407,0.035301,-0.998869,0.031849
0.171739,-0.790467,0.374029,0.846747,0.177452,-0.501528
0.105430,-0.638532,0.802237,0.168848,0.873497,0.456611
-0.164271,-0.293654,0.695658,-0.389903,0.382170,-0.837808
0.112295,-0.053434,0.040070,0.701451,0.709857,0.063800
-0.734752,-0.359225,0.605760,0.942535,0.284763,-0.174752
-0.032853,-0.125342,0.631691,0.165393,0.902212,0.398320
0.112972,-0.049518,-0.282647,0.962760,-0.270204,0.009096
0.235337,0.647503,0.657693,-0.129762,-0.948576,0.288730
-0.536343,-0.314300,0.517401,0.949084,0.255793,0.183874
-0.341328,-0.251860,0.731406,0.352428,-0.284156,0.891656
-0.695522,0.067174,0.626663,-0.183872,0.941532,0.282327
-0.362756,0.383575,0.773721,-0.623983,-0.644013,-0.442598
0.189922,0.276066,0.474111,0.883331,-0.449290,0.133662
0.059412,-0.780855,0.689981,0.482303,-0.875471,0.030566
0.031196,0.701754,0.605604,0.517760,0.849333,-0.102748
-0.562371,0.455697,0.558049,0.480636,0.867648,-0.127181
0.121195,-0.052366,0.287139,0.704042,-0.708374,0.050311
-0.289578,0.909152,0.372249,0.115758,0.746387,0.655368
0.125800,-0.139440,0.986978,0.850633,0.524289,0.039307
0.240996,0.381154,0.578741,-0.591160,0.610262,-0.527363
0.145641,-0.083266,0.968560,-0.649157,-0.756946,0.075023
0.179134,-0.200670,0.519420,0.128785,0.331970,0.934457
0.029538,-0.440747,0.810641,0.897204,0.006605,-0.441567
-0.575194,-0.624435,0.527824,-0.148978,-0.956367,0.251333
0.065370,-0.066320,0.095661,0.778058,-0.618212,0.111538
0.171214,-0.008723,0.938236,-0.220288,-0.003707,0.975428
-0.673192,-0.407498,0.623937,-0.175067,-0.012879,-0.984472
-0.543435,-0.494998,0.406472,0.719094,0.078689,0.690443
-0.221454,0.394041,0.748058,0.732123,-0.473713,0.489482
-0.345327,-0.303834,0.794610,0.736506,0.537438,-0.410755
0.368642,-0.701044,0.125632,0.432974,-0.050479,-0.899992
0.059559,0.045316,0.945227,0.576305,0.768258,-0.278661
0.209082,-0.418462,0.847645,-0.081665,0.916090,0.392568
-0.210063,-0.281693,0.759498,0.488897,-0.245669,-0.837034
0.208479,0.534085,0.444649,0.747639,-0.663295,0.032800
0.094416,-0.062690,-0.290924,0.962812,-0.251823,0.097867
-0.032402,-0.000178,0.897037,-0.010323,0.733519,0.679590
0.113276,-0.111744,0.275105,0.840740,-0.518464,-0.156048
-0.060089,-0.094444,0.740177,-0.602300,0.759254,-0.246511
-0.206517,0.283756,0.641959,0.706674,0.673599,-0.216508
0.226211,-0.310029,-0.181534,-0.348264,0.170566,0.921748
0.490551,-0.205938,0.702932,-0.250123,-0.228720,-0.940811
0.123535,-0.387776,0.867701,-0.530579,-0.847614,0.006056
0.200029,-0.820939,0.756801,-0.525547,0.824959,-0.207950
0.283090,0.018760,0.640956,0.172734,0.291251,0.940923
0.727132,-0.016056,0.776023,0.399713,-0.505556,0.764620
-0.340649,-0.337866,0.775712,-0.626498,0.761422,0.166546
-0.246199,0.144210,0.713610,0.117197,-0.477342,0.870867
-0.435327,-0.225161,0.400653,0.117275,0.052813,0.991694
-0.711817,0.322415,-0.988616,-0.104773,-0.158119,0.981846
0.128061,-0.044534,-0.251066,0.905215,-0.422764,0.043087
-0.333107,0.311879,0.777054,0.842598,0.285593,0.456580
-0.312209,-0.452922,0.718144,0.542273,0.405058,-0.736117
0.562824,0.311950,0.713836,-0.556547,-0.819618,-0.135951
-0.652069,0.249511,0.513361,0.059869,-0.950442,0.305084
-0.562822,0.383147,-0.977953,0.339334,-0.026484,-0.940293
-0.575496,-0.050942,0.397362,-0.167158,-0.264142,0.949888
0.556184,0.197181,0.636281,0.000076,0.953281,0.302086
0.150167,-0.228650,0.843352,-0.362856,0.925321,-0.110074
-0.820829,-0.461251,0.411810,-0.351960,-0.091264,0.931555
-0.285881,0.794952,0.377009,-0.432946,-0.197972,-0.879412
-0.002754,-0.093162,0.947177,0.524902,-0.612166,0.591380
0.123005,-0.099498,0.408025,0.999864,0.014884,-0.007135
-0.338312,-0.308035,0.789060,0.220635,0.714630,0.663795
0.103468,0.276707,0.636846,0.816699,0.344011,0.463313
0.183131,-0.441814,0.217409,-0.290863,0.408367,0.865237
0.388783,0.086540,0.649784,-0.227811,0.462561,0.856820
0.292447,-0.028087,0.685870,0.277321,0.729932,-0.624734
0.212402,-0.260831,0.877179,-0.057078,-0.359936,0.931229
-0.600542,0.602862,0.384763,-0.232402,0.399515,0.886779
0.310625,-0.909580,0.726109,-0.150212,-0.973879,0.170280
0.049227,-0.097433,0.935835,0.449383,0.869235,0.206118
-0.513408,0.300416,0.456244,0.455438,0.499168,-0.737162
0.134019,-0.056994,-0.171619,0.555627,-0.796282,0.239192
0.506396,-0.875761,0.797011,0.976855,0.190298,0.097674
-0.711741,-0.460183,0.607836,0.865219,0.442894,0.235037
-0.514389,0.411698,0.578133,-0.663585,-0.622255,-0.415276
0.022295,-0.057705,0.942798,0.854093,-0.502092,-0.135754
0.448153,0.787903,0.524915,-0.578990,-0.227724,0.782887
0.171891,-0.370190,0.207325,0.935416,0.343930,-0.081915
-0.356417,0.779502,0.520621,0.699222,0.515780,-0.495035
-0.437365,-0.288313,0.591071,-0.576541,0.450271,-0.681804
-0.566218,0.400021,0.468970,-0.559862,-0.464083,0.686426
-0.054430,-0.505963,0.795034,0.200436,0.867731,-0.454829
-0.678775,-0.164074,0.548205,0.314075,0.767690,0.558578
-0.015126,-0.612260,0.792393,0.672382,-0.421215,-0.608671
0.159519,-0.138443,0.924677,0.294524,0.954783,-0.040568
0.344349,-0.101563,-0.048276,0.537838,0.776788,0.327613
0.435781,-0.320139,0.506370,-0.506958,0.666351,0.546781
0.147828,0.402655,0.715856,0.464897,0.845528,-0.262591
-0.262343,-0.343776,0.728920,0.817441,0.485468,-0.310019
-0.460148,-0.261187,0.388111,0.138788,0.121603,0.982828
0.435178,0.626997,0.521412,0.917573,0.148807,0.368667
0.363812,0.611548,0.599051,-0.763049,-0.645062,-0.040625
-0.429595,-0.436688,0.600364,0.218824,0.757508,-0.615059
0.045304,-0.015842,0.886726,0.431806,0.901747,0.019910
-0.048394,0.002456,0.899749,-0.189690,-0.745514,-0.638926
0.250500,-0.101207,0.796686,-0.520081,0.838514,0.162510
-0.638792,0.563917,0.461908,0.723752,0.300205,-0.621338
-0.017764,-0.168061,0.950877,-0.531798,0.488105,-0.692058
-0.336802,-0.277706,0.802463,0.535831,0.038862,-0.843431
-0.086339,-0.014133,0.901599,0.362818,0.319311,0.875445
0.171739,0.757288,0.658428,0.791548,-0.217320,-0.571160
0.011281,0.286177,0.662637,0.084842,-0.771876,0.630087
0.351062,0.414118,0.755176,-0.084304,0.661539,0.745157
0.020108,-0.265246,0.855371,0.393438,0.807525,-0.439442
-0.334088,-0.449718,0.590534,0.514982,-0.067292,0.854555
0.123535,-0.058489,0.555860,0.965279,0.251323,-0.071233
0.710763,0.067103,0.759428,0.977552,0.006885,-0.210581
-0.615101,0.339005,-0.983560,0.209164,0.163879,-0.964051
0.653353,-0.008295,0.776080,0.437959,-0.891792,0.113573
-0.662480,-0.424869,0.622200,-0.543197,0.500685,-0.673982
-0.700578,-0.342424,0.627002,0.459848,-0.074367,0.884878
0.054734,-0.267951,0.848592,-0.379343,-0.840492,0.386875
-0.007128,-0.546332,0.713384,-0.654839,0.753096,-0.063494
-0.444230,0.846000,0.498122,-0.704347,0.686909,0.179031
-0.621893,-0.550818,0.420878,0.572431,0.239096,-0.784318
-0.461656,-0.391264,0.458377,0.910117,0.056155,-0.410529
-0.194221,0.436331,0.554787,0.010711,-0.454453,0.890706
-0.589754,-0.002741,-0.972021,0.578274,0.143644,-0.803098
0.515826,0.075647,0.838945,-0.166418,-0.808025,0.565155
0.370677,-0.032004,0.711929,0.962446,0.238350,0.129947
0.115463,0.504966,0.547287,0.764875,0.404162,-0.501617
0.236166,0.242817,0.688300,-0.524451,-0.168230,0.834656
-0.060540,0.376170,0.726900,0.052743,-0.804977,0.590957
-0.659386,0.014275,0.532909,-0.182586,0.087984,0.979245
0.003582,0.676836,0.591932,-0.342090,-0.695784,0.631553
-0.655916,0.028727,0.425115,0.092818,-0.818320,0.567218
0.170685,-0.080347,-0.459479,-0.512541,0.856609,0.059350
-0.002754,0.043964,0.888534,-0.184735,0.926819,0.326926
-0.112518,-0.244812,0.865625,0.344137,0.938252,0.035392
-0.769378,0.039906,0.520536,-0.452407,0.167177,0.876002
-0.416769,-0.166709,0.596946,-0.357429,0.311281,0.880539
0.493116,-0.462675,0.609870,0.338731,-0.078208,-0.937627
-0.593829,0.339147,0.655391,0.806076,-0.189834,0.560540
0.141340,-0.059983,0.654148,-0.589054,0.761120,0.271500
-0.422428,-0.028728,0.662114,-0.545636,0.317975,-0.775354
-0.064915,-0.271297,0.867447,0.401405,-0.812354,0.423031
-0.468144,-0.360578,0.741095,0.331852,-0.132909,-0.933921
0.085211,-0.054786,-0.058134,-0.410799,0.909378,0.065385
-0.054430,-0.515788,0.830725,0.935133,0.273473,-0.225251
-0.229075,0.536435,0.677919,-0.038355,0.996397,0.075640
-0.478103,0.141718,0.699500,0.448506,0.272178,0.851329
-0.078719,-0.148909,0.904918,-0.229823,0.947491,0.222355
0.281732,0.436688,0.737762,-0.232043,0.863376,0.448038
0.325337,-0.029297,0.475735,-0.365126,0.204349,0.908253
-0.186524,0.555942,0.687071,0.108584,0.863938,-0.491753
-0.326921,0.618383,0.719655,0.154150,0.930905,0.331140
-0.201538,0.136164,0.739231,-0.353233,-0.930904,0.092972
0.203653,-0.165000,0.031525,0.341257,0.880016,0.330327
0.006377,-0.488164,-0.238341,0.961957,-0.225237,-0.154619
0.616766,-0.135596,0.745502,0.170292,-0.223616,0.959686
-0.799931,0.581502,-0.975537,-0.088655,-0.163348,0.982577
0.142547,-0.457264,0.816319,0.301539,-0.949537,0.086335
-0.364715,-0.333452,0.732649,0.028281,0.897327,0.440458
-0.679302,-0.143997,0.523319,-0.647615,-0.035874,0.761123
-0.565840,-0.251647,0.765289,0.841116,0.343192,-0.418023
-0.015278,0.156669,-0.183950,0.807866,0.558150,0.189266
-0.241822,-0.020612,0.619757,-0.172554,-0.637959,0.750489
0.052091,-0.208715,0.284060,0.952970,-0.290353,0.086847
-0.410960,-0.304974,0.746250,0.964270,-0.031171,0.263081
0.114031,-0.104625,0.912672,0.514722,0.552113,0.655921
0.427787,0.609910,0.515734,0.767637,0.626660,-0.134275
0.341559,0.107258,0.492571,0.742586,0.460591,0.486233
-0.500207,-0.336301,0.744471,0.313559,0.522699,-0.792759
0.434800,0.529243,0.687834,0.860146,0.487300,0.150625
-0.373014,-0.213485,0.710531,-0.199899,0.968155,0.150719
-0.515899,0.045744,0.670758,0.717565,-0.277378,0.638875
0.220851,-0.359724,-0.318056,-0.391691,-0.849781,0.352774
0.057750,0.655192,-0.956626,0.211052,-0.066898,0.975183
-0.051488,-0.484462,0.780063,0.692248,0.277109,0.666336
-0.395420,0.103769,0.676040,-0.526455,-0.651891,-0.545787
-0.064763,0.294009,0.789384,-0.254286,0.871318,-0.419695
-0.382746,0.123633,0.664077,0.768623,0.317480,0.555361
0.473501,0.047738,0.689175,0.957422,-0.288598,0.007367
-0.274715,0.497703,0.692466,0.800393,-0.561954,-0.208753
0.162162,-0.056637,0.880823,0.122407,0.886043,0.447152
-0.014974,-0.792603,0.669515,0.725484,0.685112,0.065524
-0.698464,-0.371685,0.622468,-0.718410,-0.448106,0.532060
-0.115385,0.220889,0.805782,0.502784,-0.849752,0.158527
0.690319,0.383290,0.543544,0.968152,0.246322,0.044798
-0.034138,-0.125058,0.872560,-0.737704,-0.161387,-0.655551
0.331751,-0.303407,-0.100068,-0.062734,0.813502,-0.578169
-0.442796,0.358940,-0.963885,-0.208677,0.691879,0.691200
-0.064689,-0.408779,0.843338,-0.837094,-0.475705,-0.270143
-0.252535,-0.392119,0.704486,0.376640,0.827976,0.415450
0.314475,0.539068,0.666549,0.983577,-0.129693,-0.125522
0.046810,-0.191485,0.670362,0.454440,0.404152,0.793817
-0.464524,-0.337938,0.477388,0.958080,0.264639,-0.109766
-0.372863,-0.186501,0.757111,0.493150,0.867679,0.062739
0.433294,-0.480831,0.609630,0.526767,-0.059246,-0.847942
0.303686,0.108042,0.844228,0.158395,0.884492,0.438845
-0.653427,0.212630,0.537725,-0.035987,0.645976,0.762509
-0.136961,-0.130255,0.773877,-0.494664,0.857590,-0.140876
0.141791,0.665515,-0.952713,-0.344847,-0.032643,0.938091
-0.585983,-0.436974,0.421217,0.536590,0.403094,0.741341
0.429067,-0.395109,0.602949,0.731347,0.176237,-0.658841
0.848364,0.634829,0.508517,0.268884,0.070494,-0.960589
-0.089963,0.072798,0.559532,0.546558,0.824771,0.145004
0.758516,0.275070,0.492359,-0.560305,-0.649789,0.513647
0.059638,0.346908,0.424790,0.448850,0.619073,-0.644424
-0.413299,-0.299278,0.755953,0.965094,0.236095,-0.113370
0.218438,0.166209,-0.947007,0.149217,-0.095196,-0.984211
0.225456,-0.504468,0.636719,-0.023265,-0.203530,0.978792
0.352043,0.424299,0.746052,0.050134,0.668681,-0.741858
-0.317339,0.334662,0.774554,0.842598,0.285593,0.456580
-0.208780,0.094372,0.874989,0.180131,0.966591,-0.182359
-0.182150,-0.183013,0.588628,0.006118,-0.729227,0.684245
0.133342,0.303051,0.565394,0.970823,0.056069,0.233152
0.178080,-0.232282,0.881119,0.952158,-0.294303,0.082341
-0.167740,0.989818,0.556764,-0.700436,-0.338029,0.628591
-0.295387,0.910149,0.371783,0.115758,0.746387,0.655368
-0.223793,-0.727814,0.042626,0.866728,-0.498730,-0.007164
-0.256308,0.578583,-0.951979,0.296413,0.021528,0.954817
-0.100298,-0.091097,0.900003,0.953372,0.024885,-0.300769
0.181169,0.439393,0.576114,-0.438741,0.562414,-0.700854
-0.002450,-0.803496,0.619799,0.234909,0.960999,0.145942
-0.249970,0.444732,0.550097,-0.139399,-0.013187,0.990148
0.183964,0.115944,0.785981,0.231987,-0.347359,0.908583
-0.413827,0.708874,0.383125,0.529595,0.092347,-0.843209
-0.571423,-0.653911,0.191548,0.892202,-0.446472,-0.068107
0.520955,0.275212,0.473574,-0.240750,-0.535738,0.809336
0.195581,-0.342067,0.834539,-0.092300,0.822149,0.561739
-0.725624,0.519988,-0.986653,-0.101869,-0.161584,0.981587
-0.331145,-0.183226,0.779159,-0.761177,0.647428,0.038033
0.087624,-0.713432,0.810019,0.431989,0.855294,0.286106
-0.468749,0.694564,0.511327,0.416425,0.472173,-0.776944
0.058054,0.133032,0.880766,0.806401,-0.375650,0.456731
-0.657652,-0.656546,0.515550,0.525524,-0.732311,0.433065
0.088683,-0.068101,0.914664,-0.196482,-0.803159,-0.562433
0.073594,-0.154748,0.248185,0.836191,-0.150339,-0.527430
0.549020,0.415969,0.682382,0.115749,0.895870,0.428974
-0.048320,-0.142999,0.908943,0.958433,-0.210614,-0.192480
0.658105,0.619949,0.553812,0.129943,0.891189,-0.434622
0.138624,0.002812,0.872080,-0.106188,-0.559556,-0.821962
0.080984,-0.698694,0.815189,0.118737,0.966771,0.226396
-0.041754,-0.387705,0.585944,-0.424743,0.201787,0.882539
0.590585,0.151329,0.661874,0.226827,0.781306,0.581473
0.085138,-0.080702,-0.063247,-0.723285,0.690529,-0.005338
-0.544866,0.333024,0.544279,0.858274,0.381071,0.343729
-0.249367,-0.614539,0.446230,-0.201232,0.718872,0.665379
-0.285050,-0.012069,0.847151,0.705189,-0.146930,0.693628
0.720874,0.619095,0.554222,0.261651,-0.869597,0.418735
-0.015199,-0.169414,0.935115,0.848228,-0.527982,-0.041775
0.017769,0.177957,0.898407,0.402894,0.902089,-0.154634
-0.025081,0.571962,0.696110,-0.656814,0.749597,-0.081847
0.035570,-0.141434,0.231745,-0.299220,0.856302,0.420969
-0.154539,0.364992,0.387023,0.044030,-0.350353,0.935582
-0.267776,0.564771,0.410892,0.894156,0.201240,-0.399984
-0.556410,0.373962,0.670970,0.708301,-0.532653,0.463239
0.100526,-0.065893,0.969902,0.396888,0.910081,-0.119299
0.344123,0.468584,-0.931767,-0.264997,-0.253777,0.930255
0.092905,-0.313873,0.867334,-0.460876,0.382348,0.800876
-0.312058,0.537431,0.721336,0.773713,-0.633062,0.024504
0.303083,-0.257058,0.771504,-0.477771,0.875290,-0.074849
-0.289426,0.382507,0.739852,-0.453564,0.741491,-0.494439
-0.107313,0.803922,0.493658,-0.000403,0.932726,0.360586
0.113801,-0.020113,-0.612695,-0.504549,0.768949,0.392617
-0.624760,0.746679,0.505480,-0.125946,-0.702680,0.700270
-0.507524,0.416966,-0.973461,0.413752,-0.172619,-0.893875
0.323831,0.414545,0.738327,0.963506,0.172097,0.205033
-0.254423,0.131251,-0.930496,0.301056,0.396223,-0.867394
0.265893,0.468869,0.673766,0.232431,-0.726760,0.646371
0.124442,-0.505038,0.765275,-0.289877,0.896864,0.334076
-0.234052,-0.540494,0.437897,0.231445,0.516635,0.824331
0.272905,-0.726746,0.662806,0.942436,-0.169110,0.288472
-0.472067,-0.387349,0.741420,-0.476714,0.126649,0.869887
0.167968,-0.084404,0.407983,0.961389,-0.202289,0.186573
0.506092,-0.183226,0.702494,-0.100506,0.487838,0.867129
-0.381464,-0.732441,0.512316,0.341776,0.939304,0.029957
-0.191127,0.202947,0.815090,0.446667,-0.684292,0.576397
0.127306,-0.091881,0.258383,-0.802924,-0.112217,0.585424
-0.511824,-0.421310,0.559801,-0.586824,0.642577,-0.492679
0.499530,0.591826,-0.929155,0.449269,-0.140065,-0.882349
0.249744,0.195614,-0.944987,-0.203358,0.032282,0.978572
-0.419260,-0.374747,0.486582,0.990269,0.071368,-0.119476
-0.091469,-0.476986,0.295006,0.961128,-0.265052,0.077329
-0.402133,0.315439,0.387969,0.394394,0.247942,0.884860
0.319756,-0.438824,0.744019,0.948961,0.175546,0.262023
0.094568,0.613471,0.633527,0.916587,-0.305621,-0.257805
0.164423,0.270442,0.807166,-0.136377,0.900971,-0.411889
-0.744786,-0.489943,0.420779,-0.245691,-0.171303,0.954092
0.140129,-0.109039,0.354255,0.973879,-0.210960,0.083997
0.785296,0.605923,0.540140,0.672200,-0.010386,0.740297
0.034516,-0.774092,0.553304,0.302044,0.931043,-0.204764
-0.580552,0.736998,0.502486,-0.347907,-0.578732,0.737583
0.529027,0.124986,0.542951,0.867640,-0.322073,-0.378774
-0.431858,0.232565,0.751674,0.686879,-0.674268,0.271221
-0.286258,-0.629206,0.119149,0.809233,-0.534390,0.244068
-0.111537,-0.461251,0.857518,0.303971,0.873969,0.379183
0.105503,0.691288,0.667057,0.720105,-0.078171,-0.689448
-0.104145,-0.691218,0.315161,0.806751,0.346211,0.478842
0.093283,0.312947,0.761532,-0.099610,-0.657154,0.747145
0.001699,0.775301,0.579291,0.868565,-0.458425,0.188261
-0.222889,0.653411,0.679444,0.416767,-0.876610,-0.240541
0.383202,-0.850914,0.822180,0.891913,0.123321,0.435067
-0.214212,-0.145919,0.871910,0.573815,0.818908,-0.011192
-0.217382,0.077070,0.475156,0.968953,-0.247211,-0.004024
0.220851,-0.367200,0.872122,0.648680,-0.628210,-0.429612
0.554752,0.578726,0.529702,0.569745,0.517003,-0.638826
0.076536,-0.064114,-0.150137,0.878559,-0.475525,0.044840
-0.437139,-0.240113,0.667170,0.401119,0.505175,-0.764134
0.414209,0.471289,0.793678,0.742816,0.586557,-0.322762
-0.052846,-0.026023,0.881006,0.826696,-0.562386,0.017206
0.214138,0.306183,0.425468,0.773213,0.419756,-0.475339
-0.523670,-0.374035,0.629234,0.246207,0.105673,0.963439
-0.480141,-0.303550,0.764865,0.228878,0.962079,-0.148388
-0.358982,0.421237,0.753044,0.244358,-0.965827,-0.086410
-0.596092,-0.116443,0.404198,-0.187381,0.114561,-0.975584
-0.416997,-0.372825,0.764879,-0.668715,-0.719316,0.188161
-0.710459,-0.422947,0.601353,0.882059,0.463407,-0.085004
0.104748,-0.099855,0.081523,0.167454,0.985877,0.002545
