-0.074888,0.233073,0.272625,-0.625247,0.771281,0.119126
-0.266509,-0.366196,0.651898,0.874684,-0.484391,0.017130
0.209463,0.302451,0.558135,0.474248,-0.650771,-0.592947
-0.000879,0.599950,0.511093,0.918946,0.334568,0.208810
0.028321,-0.140735,0.785944,-0.504120,-0.686335,0.524221
-0.848870,0.097166,0.554193,0.417855,0.908492,-0.006341
-0.055895,0.122354,-0.000971,-0.415327,0.906099,-0.080551
0.033119,-0.314457,0.587963,0.634778,0.477935,-0.607153
-0.240622,0.033606,-0.878204,-0.246474,-0.968793,0.026262
-0.288002,0.063003,0.880876,0.894922,0.023589,0.445598
0.627984,-0.358274,0.456502,0.577439,0.815746,0.033508
0.577155,0.232208,0.510552,-0.695562,0.627147,-0.350541
0.394120,-0.051677,0.634685,0.449332,0.820114,0.354280
-0.156538,0.109234,0.840856,0.578250,0.608753,-0.543182
0.482597,-0.543446,0.599469,0.691042,0.558906,0.458351
-0.105239,0.066468,-0.086529,0.633938,0.685039,0.358948
-0.173031,0.092462,-0.335582,0.845894,0.523841,-0.100267
-0.243662,0.107934,-0.122037,-0.734215,0.678822,0.011385
-0.587497,-0.048521,0.564632,0.168932,-0.053059,-0.984199
-0.562621,0.578413,0.420877,-0.162249,-0.167918,-0.972357
0.129368,0.238519,0.775374,0.180798,-0.670832,0.719234
-0.934707,0.219953,-0.996817,0.047218,0.087445,0.995050
-0.724028,-0.336119,0.165444,0.949751,-0.282167,-0.135482
-0.412911,0.614680,0.432470,-0.207499,0.557619,-0.803745
-0.079822,-0.032368,0.853033,0.899131,-0.391307,0.196065
-0.075969,0.258262,0.695699,0.692838,0.369724,-0.619096
0.486380,-0.032553,0.377485,0.293260,0.133905,0.946609
-0.707064,-0.336737,0.569114,-0.545197,0.556711,-0.626764
-0.166340,-0.516648,0.797230,-0.090533,0.876256,0.473264
-0.863940,0.063746,-0.991400,0.063347,0.220140,0.973409
-0.427713,0.171371,0.850580,-0.478965,0.740613,-0.471259
0.336938,0.100879,0.596636,-0.407733,0.782246,-0.471004
0.363773,-0.027850,0.646394,0.158251,-0.763138,-0.626560
-0.912946,0.107873,-0.992714,-0.040130,0.194516,0.980078
-0.559853,0.194950,0.349219,0.377136,0.522838,-0.764467
-0.367960,-0.007241,-0.977457,-0.429505,-0.223416,0.874992
0.519231,-0.096671,0.799099,-0.135813,0.694416,0.706641
-0.729976,-0.077918,0.745122,-0.162836,-0.981853,-0.097211
0.133696,-0.083426,0.895257,-0.320485,0.839370,0.439031
-0.225280,-0.421896,0.704109,-0.633508,0.649223,0.420924
0.065156,0.105396,0.739734,0.787802,-0.573554,-0.224508
0.312470,0.544498,0.571786,0.671231,0.475817,-0.568373
-0.716730,-0.141663,0.342999,0.656218,-0.731656,-0.184543
-0.916663,0.156269,0.658673,-0.825840,-0.197924,-0.528029
0.060561,0.420349,0.290657,0.856326,-0.078443,-0.510444
-0.664279,0.589120,0.414716,-0.121178,0.922736,-0.365888
-0.071035,-0.272744,0.770556,-0.629846,-0.164552,0.759089
-0.848734,0.132443,0.554894,0.223125,0.767614,0.600819
-0.431293,-0.031069,0.699393,0.359093,0.905572,0.225813
-0.398241,-0.441267,0.818415,-0.012849,0.904409,0.426472
-0.714836,-0.053905,0.555624,-0.022139,0.018256,0.999588
0.641367,0.239139,0.650336,0.901740,-0.321696,-0.288750
-0.539371,-0.246689,0.415694,0.405954,-0.759657,0.508057
0.049208,0.018690,0.883898,0.413901,0.871602,0.262672
-0.484082,-0.898812,-0.953863,-0.077165,0.306311,0.948799
-0.151468,0.368858,0.851368,-0.413828,0.861958,0.292873
-0.024872,-0.076061,0.922443,-0.929257,0.294015,0.223689
-0.268807,-0.192474,0.589555,-0.661763,0.715372,0.224305
-0.155659,0.035895,0.930824,0.817080,0.554593,0.157503
-0.204665,0.055638,0.837075,0.760423,-0.280044,-0.585946
0.043733,0.422639,0.712694,0.450074,-0.290371,-0.844464
0.369516,-0.265317,0.676558,0.520447,-0.740358,-0.425447
-0.012706,-0.326278,0.180497,-0.136997,-0.051023,-0.989256
-0.216831,-0.704419,-0.963149,0.043769,0.133393,0.990096
-0.665360,-0.580146,0.400072,0.244392,0.376024,0.893800
0.684015,-0.145749,0.696605,0.739535,0.382138,-0.554128
0.194459,-0.359946,0.725732,-0.587716,-0.466622,-0.660949
0.044946,0.361740,0.532424,0.713603,-0.041960,-0.699292
0.156204,-0.757519,0.521006,0.067569,0.600140,0.797036
0.175399,0.227194,0.780090,0.821915,-0.458117,0.338502
-0.499222,-0.389467,0.766803,-0.705416,0.102860,-0.701291
0.022236,0.187895,0.475979,0.752860,-0.180988,0.632807
-0.730451,-0.321018,0.525051,0.007276,0.771487,0.636203
-0.085907,-0.377832,-0.049721,-0.082685,-0.977880,0.192128
-0.747348,0.138198,-0.993722,0.199466,0.063343,-0.977855
-0.939777,0.203552,-0.996102,0.048045,0.115872,0.992102
-0.418521,0.437121,-0.983487,0.106979,0.064619,0.992159
-0.177289,0.091904,-0.382142,0.430939,0.881528,0.192872
-0.338427,0.352457,0.664674,-0.039464,0.942152,0.332855
0.184929,0.178983,0.711147,-0.389109,-0.807576,0.443188
-0.346603,0.269650,0.536278,0.950637,0.111845,-0.289449
0.402907,0.038742,0.673594,-0.242724,-0.119567,0.962699
-0.504697,-0.436192,0.587598,0.127372,0.100097,0.986791
0.589659,-0.130895,0.671740,0.858545,0.462326,-0.221709
-0.184050,0.252074,0.530511,0.068734,-0.111426,0.991393
0.404936,-0.088811,0.793332,-0.419910,-0.427764,0.800433
-0.062252,0.361431,0.878073,0.797061,0.603894,-0.002258
0.170870,-0.371952,0.623209,0.788960,0.392962,0.472360
-0.824605,-0.122664,-0.981224,0.170865,0.338977,0.925149
-0.474280,0.466024,0.518159,0.913999,-0.061699,-0.400997
-0.305374,0.042950,-0.514655,0.923612,-0.373248,-0.087328
-0.441298,0.582189,0.538658,0.755996,0.545196,0.362259
-0.066848,-0.246132,0.774206,-0.470707,0.304321,0.828144
0.115717,-0.054028,0.764146,-0.599216,0.732863,0.322262
-0.628322,0.766679,0.550192,0.228470,0.079972,0.970261
0.157351,-0.632566,0.700007,-0.191877,0.018892,0.981237
0.109360,0.439225,0.600885,-0.338041,0.669655,-0.661280
-0.281513,0.204605,0.172116,0.759621,0.644450,-0.087518
-0.457923,-0.460268,0.153077,0.772649,0.487650,-0.406462
-0.729708,-0.524198,0.330457,-0.736346,0.202097,0.645718
0.128894,-0.580084,0.486754,0.783652,0.299025,0.544495
0.171344,-0.194950,0.144960,0.445908,-0.666863,-0.597043
-0.125449,-0.144573,0.917055,-0.654361,0.692381,0.304007
0.284421,-0.844350,0.473322,0.228882,0.956854,-0.179006
-0.302128,-0.263213,0.371148,-0.679402,0.359002,-0.639946
-0.063803,0.316747,0.817904,-0.392025,0.524304,-0.755924
0.314430,0.508355,0.440544,0.942515,0.333675,-0.018074
-0.751808,-0.210051,0.457159,-0.086177,-0.802659,0.590180
-0.010342,-0.980134,0.392728,-0.724848,0.597900,0.342216
0.618995,0.322936,0.338108,-0.137521,0.979910,0.144447
0.899155,0.100198,0.402349,0.935810,-0.265049,0.232397
-0.664820,0.885383,0.565990,0.186514,-0.608793,0.771093
0.204665,-0.601188,0.485352,-0.564261,-0.418810,-0.711483
-0.113890,0.050068,0.948096,0.208937,0.902786,0.375929
-0.153093,-0.140487,0.925246,0.733635,-0.628334,0.258798
0.111930,0.246936,0.579831,0.702319,-0.437903,-0.561238
-0.018655,0.009283,0.967222,-0.180817,0.820833,0.541792
-0.282594,0.589058,0.398305,0.004440,0.379701,0.925099
-0.315985,-0.809568,0.556690,-0.866648,0.448072,-0.219436
-0.404326,0.360688,0.685450,-0.687943,-0.014290,-0.725624
0.465089,-0.499257,0.600403,-0.700272,-0.593438,-0.396800
0.067590,-0.337666,0.812707,-0.315912,-0.783688,0.534821
-0.718079,-0.278438,-0.976464,0.140804,0.287126,0.947488
0.023115,-0.088872,0.859413,0.976118,0.180574,0.120775
-0.070833,0.002228,0.935087,0.542421,0.580500,-0.607289
-0.373233,-0.085345,0.571815,-0.585110,0.372933,-0.720116
-0.569181,-0.265627,0.547433,-0.610652,0.748903,-0.257387
-0.726057,-0.156456,0.594023,0.375759,-0.923630,-0.075585
-0.504767,-0.082003,0.711526,-0.563844,0.813335,0.143409
0.266170,-0.412303,0.723060,0.680845,0.160403,0.714647
0.072050,0.089429,0.825044,-0.667365,0.079804,0.740442
-0.385196,-0.495111,-0.961061,0.047233,0.224644,0.973295
-0.821766,-0.159859,0.455699,0.392102,0.898527,0.197244
0.070767,0.006189,0.251163,0.066762,0.980961,0.182370
0.135791,-0.653979,0.696780,-0.103344,0.130088,0.986102
-0.010272,0.016525,0.964886,-0.272067,-0.429166,-0.861276
-0.161270,0.201015,0.836009,0.800377,0.188935,0.568946
-0.548430,0.649461,0.546878,-0.311808,0.085031,0.946333
-0.182223,-0.017577,0.650672,0.988093,-0.149409,0.036735
-0.738021,0.073710,0.633575,-0.068392,-0.453831,0.888459
0.161745,-0.890705,-0.959542,-0.181049,0.148707,0.972166
-0.086245,0.078042,0.319682,0.645307,0.727237,-0.233891
-0.225548,-0.151628,0.731631,-0.008270,-0.868576,0.495488
-0.055288,0.259067,0.942372,-0.059006,0.610359,-0.789924
-0.327746,0.122911,-0.685611,0.392849,-0.875401,-0.281679
-0.727340,0.051120,0.542951,0.087703,0.043723,0.995187
0.319029,-0.569130,0.629618,0.746734,0.537035,0.392405
-0.240556,-0.200953,0.927758,-0.520970,0.717411,0.462507
-0.555390,0.512378,0.545593,-0.452758,-0.459291,0.764239
-0.252449,-0.579218,-0.969120,0.073523,0.124949,0.989435
0.049410,-0.393489,0.792675,0.121533,0.753116,0.646565
0.582023,-0.079156,0.668368,-0.569183,-0.814035,-0.115663
0.280230,-0.174217,0.440033,0.164470,0.486760,0.857913
-0.004798,0.042642,0.959820,-0.325182,0.945639,-0.004945
0.288477,0.063065,0.595906,-0.253336,0.966791,0.033716
0.177359,0.551616,0.479205,-0.023097,-0.592692,0.805098
0.097467,-0.143087,0.749546,0.649339,0.758605,-0.053635
0.461846,-0.267607,0.391501,0.651639,0.744223,0.146626
0.076312,0.412675,0.592913,0.683121,0.184481,0.706620
-0.268538,0.203862,0.707205,-0.658722,0.741982,0.124693
0.052652,-0.688204,0.703482,0.404927,-0.870687,0.279174
-0.353361,-0.274539,0.382113,0.625842,-0.442776,0.642084
-0.242784,-0.069377,-0.972289,0.406210,-0.138930,0.903157
-0.420819,-0.439225,-0.969135,-0.156259,0.320677,0.934211
-0.328220,0.089367,0.846930,0.445101,0.846472,-0.292180
-0.027240,0.234311,0.713103,0.806730,0.146900,-0.572370
-0.500035,-0.218035,0.524758,0.644601,-0.743598,-0.177629
0.191889,-0.670876,0.483951,0.013690,-0.408226,0.912778
0.254954,0.328878,0.758423,-0.692491,0.106604,0.713506
0.745657,-0.263523,0.562968,0.567228,0.800254,0.194542
-0.043799,-0.004889,0.512596,-0.615895,0.169269,0.769429
-0.864142,0.552482,-0.989663,-0.218771,0.107287,0.969860
0.278134,-0.033358,0.648526,-0.075399,0.696070,0.714004
-0.179112,-0.272806,-0.034026,-0.578531,-0.807046,0.118233
-0.505105,-0.358831,-0.974800,-0.060681,0.127604,0.989967
-0.038997,-0.181148,0.884526,-0.679106,0.057024,0.731822
-0.223114,0.050996,-0.104809,0.261971,-0.959181,0.106505
0.733561,0.191174,0.628538,0.352865,-0.493450,-0.794980
-0.003919,-0.060837,0.944387,0.995727,0.091496,-0.012519
0.049138,-0.569006,0.501456,-0.228495,-0.084782,-0.969846
-0.129096,-0.958225,-0.953469,0.062809,0.236052,0.969708
0.103684,-0.425238,0.663126,0.799272,0.581518,0.151660
0.207029,0.258819,0.361439,0.738770,-0.585004,0.334648
-0.497535,-0.630895,0.066220,0.583522,-0.720193,0.375266
0.179455,0.539485,0.451859,0.061643,0.283359,0.957031
-0.503954,0.556319,0.696648,0.792304,0.538535,0.286765
-0.467321,0.554772,0.657067,-0.202959,-0.584945,0.785269
0.591821,0.134051,0.615368,0.048632,-0.450582,0.891410
-0.178167,0.289764,0.835688,-0.627065,-0.686247,0.368585
-0.378575,0.088625,-0.898250,0.889723,-0.430419,-0.152092
0.650084,0.332652,0.321142,-0.090070,0.982072,0.165594
-0.084690,-0.179911,0.518349,-0.607011,0.061244,-0.792330
-0.761746,0.010026,0.636904,0.053687,-0.385076,0.921322
0.437040,-0.498701,0.601498,0.268539,0.444258,0.854706
-0.520109,-0.032368,0.381295,-0.263852,0.859543,0.437686
-0.236026,0.172546,-0.341729,-0.114419,-0.975172,0.189600
0.160123,-0.232950,0.316149,0.692787,0.181913,-0.697821
-0.269483,0.729670,0.675989,0.809758,-0.014701,-0.586580
0.141332,0.534968,0.721965,0.950519,-0.075256,-0.301414
0.007504,0.034162,0.753298,-0.096261,-0.853389,0.512310
-0.150659,0.054586,0.933685,-0.730310,-0.671226,-0.126898
-0.142479,0.902154,0.298993,0.322855,0.271805,0.906579
0.258600,-0.322008,0.452764,-0.561645,-0.663042,-0.494905
-0.522069,0.709309,0.539169,0.227276,0.640811,0.733285
-0.069414,0.216178,0.763752,0.495833,0.860102,-0.119894
0.094154,0.379750,0.742099,0.573159,-0.110811,-0.811918
-0.815954,0.110163,-0.993079,0.144478,0.136461,0.980053
-0.216088,-0.648286,0.534599,-0.682979,0.401934,-0.609909
0.109971,-0.270268,0.872232,-0.641456,0.752163,0.150950
-0.464280,-0.271259,0.510640,-0.496652,0.808768,0.315010
-0.549915,-0.115609,0.370754,-0.352576,0.158098,-0.922331
0.139100,-0.678302,0.517123,0.105850,0.234083,0.966437
0.168572,-0.432603,0.730667,-0.481821,0.042245,-0.875251
-0.624131,0.797500,0.563581,-0.571263,-0.083774,-0.816481
0.286179,0.478154,0.575057,0.992602,0.113280,-0.043689
0.050289,-0.469737,0.693013,0.887644,0.222941,0.402972
-0.488476,0.174279,0.513473,0.561589,0.827074,-0.023810
0.028659,0.058423,0.729280,-0.768269,0.501511,-0.397806
-0.499358,0.536886,0.422892,-0.163829,0.594094,0.787536
-0.237309,0.104344,-0.677537,-0.433824,0.790529,0.432274
-0.278134,0.580827,0.397385,-0.012189,0.405160,0.914165
-0.135923,0.053720,-0.169255,0.039204,-0.981850,0.185562
0.038255,-0.658002,-0.969660,-0.102750,0.245215,0.964008
0.269079,-0.579651,-0.952388,0.198444,0.159489,0.967049
-0.461846,-0.448756,-0.974814,-0.085769,0.167062,0.982209
0.932748,0.189008,0.413387,0.839799,0.043308,0.541168
-0.168502,0.371333,0.200675,-0.629099,0.722842,0.285892
-0.281447,0.110534,-0.436237,0.620452,-0.781495,-0.065608
0.145589,-0.167162,0.644379,-0.329066,-0.171443,0.928613
0.474214,-0.317984,0.437083,0.471320,0.878757,0.075120
0.181955,-0.490531,0.725309,0.846238,-0.532744,-0.008063
-0.504899,-0.366939,0.281356,0.713580,-0.691502,-0.112378
-0.191484,0.130029,0.640758,0.950723,0.310003,-0.005007
-0.134302,-0.024384,0.956170,0.589231,0.059967,-0.805736
-0.322408,0.062260,0.817393,0.096798,-0.716226,0.691123
-0.231901,-0.365763,-0.099406,0.568153,-0.822340,0.030980
0.260292,-0.816500,0.461568,0.719720,0.566319,-0.401605
-0.679894,-0.516091,-0.962740,0.012747,0.163187,0.986513
-0.707670,-0.009531,0.691319,0.040345,0.746646,0.663997
0.050763,-0.854252,0.431448,-0.732991,0.274358,0.622456
0.010611,-0.008479,0.964915,-0.736126,0.317988,0.597497
-0.686788,-0.211165,0.436675,-0.528470,0.114863,-0.841146
0.110309,0.199344,0.379835,-0.669624,0.508521,-0.541304
-0.244879,0.047097,-0.124928,0.964081,-0.232779,-0.127914
0.080973,-0.844659,0.521400,0.761110,-0.023943,0.648180
-0.511796,0.041651,0.692137,-0.480678,0.296869,-0.825117
-0.757823,0.411004,-0.981136,0.030331,-0.089171,0.995554
-0.419062,0.670813,0.656162,-0.375385,-0.855083,0.357658
0.837649,0.150885,0.633312,-0.002236,-0.903003,0.429628
-0.740587,-0.328692,0.433025,-0.634480,0.585825,-0.504226
0.201084,-0.768474,0.496302,0.890169,-0.321137,0.323219
-0.318146,0.116537,0.841061,0.205535,-0.821660,0.531630
-0.059071,0.159612,0.833118,0.959580,0.073402,-0.271697
-0.243324,0.172608,0.551185,0.497381,0.406137,-0.766593
-0.074620,-0.828073,-0.962506,-0.117151,0.030763,0.992637
-0.320444,0.058671,0.346255,-0.628093,0.284255,0.724361
-0.166138,-0.489974,0.817174,-0.707670,-0.575333,-0.410116
0.149104,0.466642,0.550689,0.645799,-0.344522,-0.681358
-0.153564,0.294034,0.867429,-0.619083,-0.433689,0.654714
-0.453125,-0.430870,0.142200,0.732274,0.327778,-0.596940
-0.519094,0.714816,0.540045,0.227276,0.640811,0.733285
-0.031427,0.400916,0.845061,0.919949,0.094300,0.380529
0.136262,0.434151,0.740026,0.769221,-0.471262,-0.431522
-0.407164,0.180530,0.877269,0.335615,0.940150,-0.059002
-0.498409,0.548335,0.707599,0.901066,0.433647,-0.005571
-0.551607,0.080146,0.349686,-0.240281,0.269445,0.932558
0.351199,0.058299,0.552587,0.964791,0.261834,-0.024934
0.676309,0.108615,0.605513,-0.354517,0.791711,-0.497506
0.119228,-0.678364,0.701875,0.251332,-0.059870,0.966047
0.209665,-0.259067,0.367469,0.465907,0.661013,-0.588211
-0.290234,-0.426043,0.349613,-0.795166,0.319058,-0.515667
0.016155,0.250031,0.110371,-0.818009,0.484007,0.310802
0.010004,0.016339,0.928268,0.133869,0.686828,0.714386
-0.081786,-0.350600,0.765533,-0.415386,0.188231,0.889957
-0.173910,-0.150761,0.898966,-0.678928,0.664465,0.312318
0.036163,-0.684615,0.771475,0.917781,-0.349155,-0.189127
-0.181208,0.272497,0.743238,0.927536,0.333232,0.169212
-0.037108,0.153546,0.901564,0.972835,0.077140,-0.218271
0.420143,-0.722924,-0.960170,0.172384,-0.039985,0.984218
-0.183914,0.796262,0.374287,-0.491079,0.696620,0.523032
0.111052,0.234806,0.793303,0.378840,-0.918152,0.116087
0.014125,-0.324174,0.706416,-0.014442,0.388003,0.921545
-0.509767,-0.505323,0.102005,0.484802,-0.782226,0.391268
0.193308,0.337603,0.394407,0.757778,-0.552412,0.347294
0.016898,0.051182,0.375791,-0.560879,0.789286,-0.249885
0.127273,-0.629719,0.700196,0.055802,0.152408,0.986741
-0.070025,-0.446590,0.501515,-0.445964,-0.145805,-0.883095
-0.064212,0.170009,0.628888,0.400953,0.334634,-0.852794
0.241162,-0.243471,0.595074,0.850543,0.516659,0.098190
-0.715108,-0.185914,-0.983691,-0.227587,-0.129855,-0.965061
0.122273,-0.078351,0.876539,0.682574,-0.723477,0.103318
-0.783103,-0.121921,0.393618,-0.388727,0.905225,-0.171634
-0.631024,0.512749,-0.985064,-0.065419,-0.164859,0.984145
-0.370803,-0.898193,-0.952593,-0.123896,-0.353133,-0.927333
0.262251,0.055082,0.684092,-0.246309,0.378476,-0.892238
0.052112,-0.409395,0.855573,0.866472,0.071602,-0.494065
-0.580332,-0.078908,0.715410,-0.387643,-0.799529,0.458788
0.314636,0.422887,0.700167,0.410288,-0.911882,0.011602
0.447383,0.242419,0.396407,0.776732,0.001995,0.629828
0.210342,-0.721067,0.481848,-0.571264,-0.028201,-0.820282
-0.343831,0.551863,0.401765,0.364857,0.447389,0.816531
0.495641,-0.250341,0.536366,-0.396038,-0.199906,0.896210
-0.929975,0.082127,0.638393,-0.353452,-0.935452,0.000797
-0.455155,0.700953,0.660615,0.376874,0.859487,-0.345322
0.046572,0.387548,0.723498,-0.716897,0.389455,0.578258
-0.149983,0.304308,0.857135,0.784118,0.599015,0.162295
-0.186076,0.021971,0.002008,-0.287453,0.789667,0.542030
-0.763367,-0.014111,-0.984655,0.026779,0.180190,0.983267
-0.202701,0.180467,-0.085828,-0.295903,0.954378,-0.040044
-0.257722,-0.119383,-0.974143,-0.078903,-0.243787,0.966614
0.059212,-0.668091,0.717556,0.690192,0.277690,0.668224
0.084963,-0.633061,0.373806,0.850160,-0.080767,-0.520292
-0.619399,-0.218653,0.434879,-0.630557,0.194866,-0.751283
-0.040689,0.006932,0.175445,0.085581,-0.489640,-0.867714
0.132004,-0.163077,0.695933,0.799518,0.525299,-0.291261
-0.278336,-0.298304,0.622084,0.931748,-0.356817,-0.067282
0.521731,-0.634794,0.613529,-0.743251,-0.275309,-0.609739
0.005272,-0.500619,-0.973559,-0.048212,0.067492,0.996554
0.444949,0.083797,0.674222,-0.236851,0.494492,0.836289
-0.917744,0.124211,0.548294,0.325953,0.549838,0.769047
0.149240,-0.300161,0.718549,0.519813,-0.054614,-0.852533
-0.691924,0.523766,-0.963309,0.138334,-0.296358,-0.945006
0.260494,0.401411,0.695539,-0.040579,-0.932894,0.357858
-0.047991,0.456740,0.513662,0.830407,0.127146,-0.542456
0.328897,0.289516,0.439522,-0.554494,0.778587,-0.293835
0.080367,0.325597,0.535446,0.905516,-0.353277,-0.235023
0.041976,-0.511944,0.638802,0.577868,0.203928,0.790242
0.020953,0.417749,0.606871,0.985755,0.159080,0.054599
-0.220144,-0.881731,0.340371,0.624440,0.435896,0.648127
-0.525852,0.711598,0.536337,0.227276,0.640811,0.733285
0.071646,0.368115,0.735091,0.833043,-0.001425,-0.553206
0.137277,0.413047,0.440398,-0.515138,0.718378,-0.467511
0.494899,-0.560033,0.611689,-0.620355,-0.589069,-0.517840
0.103956,-0.680406,0.515137,-0.175245,0.340371,0.923816
0.043259,-0.523766,0.388026,0.736355,0.295796,-0.608511
-0.454746,0.188080,0.760715,0.057304,-0.870428,0.488949
-0.014530,0.205471,0.175343,-0.711833,0.690004,0.131103
-0.035957,-0.747866,-0.965134,0.029934,0.274439,0.961139
-0.226022,-0.430746,-0.974698,0.031743,0.219976,0.974989
0.284083,-0.897389,-0.957104,-0.282942,0.375483,0.882585
-0.801147,0.220819,0.537855,0.278233,0.675268,0.683081
-0.599729,-0.495977,0.604287,-0.422983,0.816984,0.391947
0.359920,-0.090605,0.655797,-0.269057,0.430056,0.861777
-0.675092,-0.333519,0.530818,-0.320545,0.947212,-0.006326
-0.047042,0.060960,0.343466,0.087709,-0.979661,-0.180477
0.224401,0.393365,0.152143,0.610796,-0.752927,-0.245009
0.303348,-0.698663,0.667886,0.108250,0.755158,0.646544
-0.218588,-0.061641,-0.978815,0.406210,-0.138930,0.903157
-0.292462,0.119136,-0.522817,0.505992,-0.858967,-0.078405
0.315919,0.123035,0.542367,0.044625,-0.622633,0.781241
0.358839,-0.000804,0.774439,0.007016,0.825959,0.563687
-0.229471,-0.246689,-0.978742,-0.062566,-0.027085,0.997673
-0.493748,0.248546,0.757430,-0.432779,-0.830458,-0.350774
0.045016,-0.525127,0.377426,0.780074,0.295645,-0.551433
-0.181344,-0.144882,0.881124,-0.099511,-0.994266,0.039142
-0.192701,0.337542,0.828154,0.939863,0.339427,-0.038047
-0.651367,0.068573,-0.991327,0.120081,-0.152576,-0.980970
-0.112607,-0.623902,-0.969514,-0.147405,-0.106357,-0.983341
0.149513,-0.344968,0.717133,0.642757,0.430947,0.633363
-0.598446,-0.282275,0.564559,-0.384957,0.626928,-0.677325
-0.379116,-0.438916,0.811977,0.125417,0.750037,0.649396
0.282189,-0.679416,0.480519,-0.100857,-0.424150,0.899958
-0.582563,0.521352,0.707380,0.638589,0.344811,-0.687976
-0.503616,-0.164439,0.732901,0.340301,0.659872,0.669899
-0.319433,-0.027912,0.707175,-0.080365,0.464636,0.881847
-0.286381,0.264080,0.670718,0.600081,0.403821,0.690530
-0.251773,0.132938,-0.432324,0.545440,-0.816773,-0.188085
-0.493344,-0.461753,0.122942,-0.815184,0.571137,0.096325
-0.068197,0.123592,0.895038,0.991282,-0.087972,0.098086
0.096184,0.478710,0.655227,0.913116,0.264218,-0.310496
-0.035483,0.206770,0.924093,0.325852,-0.504182,0.799763
-0.618520,0.035895,0.682442,0.247814,-0.934132,-0.256875
-0.086448,0.506746,0.714052,0.882043,0.186720,0.432592
0.000540,-0.401101,0.717177,-0.575609,-0.370692,-0.728877
-0.750727,0.485456,-0.976099,-0.166563,0.053654,0.984570
-0.572423,-0.577485,-0.967500,0.010481,0.096692,0.995259
-0.532749,0.125015,-0.987356,0.269624,-0.155737,-0.950289
0.823524,-0.318357,0.557157,0.292791,0.899213,0.325099
0.285098,-0.361802,-0.957265,-0.037323,0.034640,0.998703
-0.052788,0.309073,0.263894,0.051519,-0.405991,0.912424
-0.627035,0.130338,0.607805,0.164347,-0.976491,-0.139479
0.450695,0.038248,0.577656,0.097034,-0.989423,0.107826
0.398039,-0.746133,0.431258,0.130526,0.990957,-0.031097
-0.503954,0.496596,0.646438,0.811750,0.473230,-0.342222
-0.048799,-0.768721,-0.961265,-0.025158,0.191490,0.981172
-0.262181,-0.274910,0.780703,-0.128729,0.485826,0.864524
-0.159987,-0.100260,0.344254,0.378780,-0.851805,0.361876
-0.152281,0.323183,0.620683,0.869765,0.015135,0.493235
-0.416153,-0.478215,0.673989,-0.762205,0.571557,0.303918
-0.243460,0.112328,-0.348007,0.531547,0.579467,-0.617799
0.613991,0.201263,0.665871,-0.537874,0.473370,-0.697576
-0.777088,0.091162,0.642934,-0.235619,-0.971582,0.022650
-0.093543,0.201324,0.809305,0.815472,0.532300,-0.227294
0.010681,0.583612,0.538541,0.766865,0.249806,-0.591198
0.157215,0.259561,0.208252,0.944898,-0.210027,-0.251111
-0.226224,-0.530573,0.541797,0.379866,-0.110259,0.918447
0.032781,-0.112267,0.889534,0.714871,-0.699236,-0.005395
-0.841230,0.122107,0.647927,0.376990,0.924120,0.062289
0.684828,-0.094071,0.678938,0.714241,0.392912,-0.579206
-0.175936,0.408529,0.690750,0.383674,-0.112751,-0.916560
0.108147,0.250897,0.572268,0.907747,-0.276884,-0.315167
-0.517539,-0.364835,0.767343,-0.676269,0.042997,-0.735399
0.221158,0.486385,0.465335,0.056877,-0.626372,0.777447
0.165532,-0.887239,-0.961032,-0.181049,0.148707,0.972166
-0.183102,0.719149,0.675405,0.001323,-0.451527,0.892257
-0.749782,-0.560280,-0.965529,-0.029631,0.108279,0.993679
-0.274822,0.122416,0.880336,0.657433,0.747225,-0.097146
0.084690,0.003342,0.266099,-0.471531,0.881802,-0.009134
0.616965,-0.348620,0.453888,-0.646545,-0.757718,-0.088566
-0.028185,0.146491,0.835658,0.745339,0.325606,-0.581765
-0.588780,0.214012,0.528744,0.157060,0.358391,-0.920265
-0.484623,-0.057371,-0.983458,-0.167352,0.057440,0.984222
-0.154579,0.113071,-0.227130,-0.047825,-0.996468,0.069030
0.091922,0.560033,0.663082,0.915262,-0.393220,-0.087595
-0.295234,-0.447023,-0.067607,-0.720713,0.690541,-0.061031
-0.245151,0.759438,0.678617,-0.366824,-0.431728,0.824045
-0.263266,0.415150,0.677055,0.799540,0.463716,-0.381711
0.182495,0.548583,0.574896,-0.471182,0.876292,0.100493
-0.100169,0.436812,0.496244,0.992279,0.104540,0.066731
-0.316459,-0.776644,0.375820,0.933043,0.351679,-0.075843
0.108890,0.185110,0.771431,-0.471003,0.180113,-0.863548
-0.126192,0.211537,0.548032,-0.056572,0.720151,0.691508
0.189525,0.312291,0.746217,0.222938,0.936121,-0.271986
0.330114,-0.421896,-0.965485,0.048908,0.021574,0.998570
0.345795,0.114433,0.557872,0.105948,0.944971,0.309524
-0.180465,0.129533,0.847981,-0.353156,-0.923392,0.150427
-0.283811,-0.090853,0.368549,0.916328,0.323445,-0.236065
-0.198106,0.148347,0.895126,0.079779,-0.950834,0.299248
0.899765,-0.366010,0.574867,0.007715,0.773119,0.634214
-0.681041,-0.034411,0.349671,0.979219,-0.168967,0.112161
-0.405138,0.220262,0.360446,0.018701,-0.075631,0.996961
0.501858,-0.501981,0.371221,-0.344836,0.808210,0.477372
-0.199393,-0.055700,0.575612,0.141142,0.256501,0.956183
0.396079,0.358523,0.413869,0.753947,0.656184,-0.031409
0.094896,0.402216,0.447581,0.775253,-0.629736,0.049150
-0.342614,0.123592,-0.914092,-0.313475,0.938944,-0.141834
0.160730,-0.217540,0.451771,0.345860,0.593560,0.726683
0.149377,0.225399,0.388085,-0.687093,0.620331,-0.378275
-0.876176,0.319717,0.560091,-0.945819,0.302336,0.118404
-0.484961,-0.098032,0.480928,0.487445,-0.858612,-0.158692
-0.892665,0.127553,0.558296,0.275659,0.960598,-0.035550
-0.718215,-0.223976,-0.979866,0.298323,0.241016,0.923534
-0.195065,0.043013,0.894483,0.672931,0.164596,0.721161
0.085099,-0.708504,0.698313,0.039976,0.342017,0.938843
-0.350593,0.106820,0.836943,0.828882,-0.355931,0.431588
0.325853,-0.405558,0.457393,-0.054528,0.042558,0.997605
0.029266,-0.471717,0.853515,0.958084,-0.168584,-0.231635
0.048259,-0.622973,0.732697,0.959885,0.154359,0.234082
-0.764786,-0.173103,-0.978406,0.315176,0.208148,0.925926
-0.586008,-0.598466,-0.967412,-0.099366,-0.085508,-0.991370
-0.344912,0.144696,0.715819,-0.047497,-0.670420,0.740460
0.136464,-0.314024,0.295898,0.122286,-0.643668,0.755472
0.040825,0.354376,0.298380,0.853099,0.141963,0.502065
0.206488,-0.785926,0.517926,0.868995,0.365874,0.333142
-0.215816,0.736849,0.681289,-0.366824,-0.431728,0.824045
-0.596755,0.078785,0.605674,0.590893,0.762726,-0.262858
-0.232511,0.159797,-0.977749,-0.515105,-0.403264,0.756337
-0.203650,0.060280,-0.039852,-0.598763,0.241036,-0.763796
-0.068399,0.259561,0.309579,0.814253,-0.508012,0.280918
0.153836,0.258386,0.248753,0.589188,-0.779321,0.213344
-0.511388,-0.100445,0.580225,0.356717,0.926175,0.122286
0.176208,-0.011140,0.278232,0.121945,0.972375,0.199036
0.160598,-0.788835,0.521167,-0.148104,0.796330,0.586450
-0.085569,0.670009,0.540804,0.471739,0.753966,-0.457163
-0.190131,0.771074,0.369601,-0.594440,0.797637,0.102059
0.298076,-0.802142,-0.953834,-0.105190,0.099731,0.989439
-0.040082,0.345031,0.859048,0.579802,0.672366,-0.460167
-0.839068,0.146862,0.352898,0.542209,0.384529,0.747093
0.145453,-0.090915,0.428703,0.850721,0.522699,0.055307
-0.588038,-0.513430,0.269282,-0.561987,0.818635,-0.118354
0.033593,0.428580,0.640700,0.990708,-0.133824,-0.024274
-0.525514,0.500866,-0.984670,-0.075606,0.165446,0.983316
-0.087392,0.031687,0.958214,-0.056443,0.949281,0.309323
0.080165,0.312415,0.730375,0.831365,0.127175,-0.540980
-0.435621,-0.247308,0.598373,-0.456093,0.868596,0.193702
0.466376,-0.101126,0.663900,0.051645,-0.998666,0.000156
-0.567964,0.632814,0.532292,-0.882323,0.434044,0.181969
0.007504,0.099827,0.702518,0.538863,-0.282693,-0.793543
0.015140,0.222800,0.410306,0.672108,-0.700759,-0.239183
-0.440081,-0.032863,0.708300,0.859986,-0.367560,0.354010
0.126464,0.107810,0.747516,0.840959,-0.516082,-0.162628
-0.532543,0.151194,0.706489,-0.752875,0.536836,-0.380771
0.015817,-0.435388,0.832388,0.913960,-0.377471,-0.148971
-0.272321,-0.355057,0.788908,0.943793,0.067600,0.323549
0.114228,-0.393242,0.872685,0.929638,-0.205716,-0.305701
-0.557687,0.186347,0.497105,-0.410926,-0.878532,-0.243561
-0.509631,-0.108306,0.574750,-0.629549,-0.749245,-0.205671
0.458398,-0.503404,0.471394,0.088984,0.285662,0.954190
0.027578,-0.007674,0.620639,-0.708739,-0.701818,-0.071701
-0.333625,-0.714692,0.193199,-0.928641,0.062950,0.365600
-0.443530,0.226823,0.753561,0.506871,0.630744,0.587575
-0.623050,-0.690556,-0.963733,-0.160763,-0.070455,-0.984475
-0.303278,0.038866,-0.745195,0.932889,0.183274,-0.310046
0.115041,-0.524632,0.500011,0.612616,0.424158,0.666927
-0.821494,0.080394,0.650380,-0.272507,-0.942021,0.195797
-0.491178,0.089492,-0.972289,0.410269,0.043478,-0.910928
0.263604,0.402525,0.675259,0.388499,0.857051,-0.338426
-0.754646,-0.070244,-0.984319,-0.068361,-0.218650,-0.973406
-0.473810,-0.345588,0.260565,0.848574,-0.487602,0.205345
-0.011893,0.030820,0.960550,-0.367662,0.929016,0.041876
-0.180601,0.096361,0.069301,0.038719,0.972190,0.230969
-0.237107,0.276953,0.540337,-0.011946,0.509002,0.860682
-0.463129,0.394789,0.645898,0.873432,0.484765,-0.046036
0.181753,0.235797,0.446939,0.055656,-0.774702,0.629873
-0.700711,-0.125882,-0.972216,-0.301087,-0.063360,-0.951489
0.197025,-0.188266,0.845689,0.307408,0.856068,0.415509
-0.212775,-0.267298,0.760817,0.962563,-0.072537,0.261172
-0.520039,0.270331,-0.977442,-0.278749,0.016522,0.960222
-0.061035,-0.063189,0.740333,-0.416760,0.519107,0.746217
-0.342210,-0.339460,0.175839,-0.779857,0.314038,0.541482
-0.710174,-0.050996,0.727674,-0.527896,0.805967,0.267847
0.562217,-0.105520,0.676456,0.233218,0.972305,-0.015235
-0.285568,-0.259624,0.117380,0.937957,-0.346020,0.022497
-0.159376,-0.072162,0.868203,-0.352160,0.087890,0.931804
0.225886,0.315138,0.832899,0.891836,0.286485,-0.350077
-0.457655,0.467447,0.501544,0.424395,0.009420,0.905428
0.071444,0.658498,0.605863,0.598048,-0.772867,0.212167
-0.144644,0.052111,0.308221,0.968000,0.126822,0.216544
0.127813,-0.490841,0.682691,0.916983,-0.027484,-0.397978
-0.837917,-0.074886,-0.982772,0.112825,0.317366,0.941568
-0.373435,-0.260923,0.765139,-0.802637,0.593701,0.057387
-0.546132,-0.082435,-0.985765,0.129954,-0.026717,-0.991160
-0.575398,-0.030078,0.566297,0.329100,0.294443,-0.897216
-0.101654,-0.585159,-0.974260,0.056880,0.114304,0.991816
-0.475159,0.464723,0.694575,0.242160,-0.505287,0.828278
0.583645,-0.470045,0.351160,-0.337307,-0.743375,0.577596
-0.445085,0.457297,0.544469,0.512398,0.483068,-0.709996
0.125923,-0.426786,0.827920,0.575176,-0.801701,-0.162630
0.887261,0.114618,0.408146,0.960204,0.072625,0.269694
0.393175,-0.023951,0.654468,-0.474713,-0.079259,0.876565
-0.192701,-0.115670,0.901083,-0.555910,0.754099,-0.349713
0.156674,0.085778,0.606929,-0.370635,-0.310599,0.875305
-0.091720,0.531254,0.716184,0.793989,0.021782,0.607542
-0.143428,-0.146306,0.650920,0.917194,-0.324581,-0.231091
-0.029538,0.225771,0.795537,-0.131906,-0.156333,0.978857
-0.832307,0.136465,-0.993634,0.024311,0.213091,0.976730
0.818388,0.180220,0.637371,0.003596,-0.959630,0.281241
-0.358567,-0.338532,0.795478,-0.442807,0.848157,0.290778
-0.433525,0.336304,0.629385,0.796707,0.604012,-0.020647
0.601016,0.205718,0.668207,-0.080691,0.437850,0.895420
-0.158704,0.179601,0.384712,-0.326328,-0.208743,0.921920
-0.688005,-0.402030,0.170788,0.930101,-0.366855,-0.018133
-0.868672,0.115856,0.635239,0.155454,-0.899980,0.407272
-0.061708,0.346887,0.857807,0.823120,0.288146,-0.489332
-0.149170,0.189875,0.544235,0.369003,-0.757185,-0.538987
0.464685,0.148719,0.663520,-0.225191,0.739332,0.634568
0.024670,-0.042889,0.067680,0.996523,0.079600,-0.024624
0.274822,0.026860,0.154070,0.776844,0.569541,-0.268584
-0.503818,-0.861184,-0.957338,-0.001158,0.241359,0.970435
-0.137342,0.083055,-0.045239,0.939933,-0.016989,0.340936
0.331872,-0.402153,0.598301,0.099043,0.096899,0.990354
-0.413315,0.009221,0.674485,0.434793,0.753177,-0.493640
-0.660901,-0.180777,0.594636,-0.211401,-0.977358,-0.009003
-0.636161,-0.175765,0.596987,-0.060324,-0.987844,0.143265
-0.476784,-0.040909,0.562165,-0.213663,0.305751,0.927828
-0.112132,0.656703,0.738683,0.830807,-0.408251,0.378273
-0.538694,0.671989,0.530175,-0.721493,-0.070020,0.688873
-0.522675,0.572967,0.411766,0.673741,0.544824,0.499240
-0.051167,-0.144820,0.767387,0.740533,-0.463273,-0.486815
0.146468,0.564241,0.682968,-0.603880,0.770903,-0.202576
0.355931,-0.214878,0.663112,-0.641298,0.372664,0.670715
0.619333,0.166976,0.609879,-0.052939,0.909555,-0.412198
0.001824,-0.700768,0.157151,0.967084,0.132624,0.217160
0.030685,0.358213,0.297446,0.928567,0.010090,0.371027
-0.220073,0.056628,0.908354,0.783713,0.551081,-0.286539
0.433187,0.349301,0.438281,0.408179,-0.905549,0.115635
-0.183844,0.185914,0.751487,0.525150,0.604716,-0.598778
0.020276,0.287536,0.792748,0.012699,-0.827286,0.561638
0.614602,0.362731,0.523036,-0.757434,0.537715,-0.370347
-0.524367,0.446528,0.695364,-0.024820,0.562752,0.826253
0.149645,-0.319532,0.787244,0.242863,0.766201,0.594939
0.077322,0.109853,0.768541,-0.741718,0.637741,0.207705
-0.678339,0.088439,0.548513,0.311119,-0.015877,0.950238
-0.124500,0.085716,0.488462,0.963411,-0.215665,0.159149
-0.639069,-0.496472,0.380595,0.142426,0.873742,-0.465070
-0.198176,0.005755,0.188001,0.986874,-0.161375,0.006062
-0.016085,-0.725276,-0.964346,0.086894,0.290486,0.952926
0.134979,-0.598898,0.497222,0.667718,0.074037,0.740724
-0.772963,0.068387,0.636305,-0.378983,-0.096207,0.920389
-0.152347,0.088811,0.027383,-0.014627,-0.996513,0.082146
-0.173638,0.115361,-0.353613,-0.691062,-0.689866,0.215683
-0.577357,-0.260552,-0.978348,0.048647,0.230449,0.971868
-0.117879,0.398440,0.868918,0.602281,0.630880,-0.489130
-0.219265,-0.144139,-0.973398,0.088878,-0.160293,0.983060
-0.345997,0.116661,-0.952271,-0.024780,0.985857,0.165746
-0.010681,0.182077,0.430134,0.961170,-0.273470,-0.036969
0.040487,-0.309692,0.813437,0.748243,-0.549641,-0.371521
-0.907063,0.007179,0.344357,-0.570014,0.540165,-0.619117
-0.150928,-0.005632,0.442091,-0.509651,0.858089,0.062764
-0.117879,0.240748,0.815641,0.675687,0.703473,-0.220394
-0.135045,0.000248,0.766876,0.246717,0.067885,-0.966707
-0.235148,0.066655,0.718432,-0.138461,-0.718638,0.681460
-0.371677,-0.052853,0.474052,-0.120957,0.977902,-0.170520
-0.863602,0.144573,0.363687,0.204996,0.637032,0.743079
0.392634,-0.859080,-0.960521,0.238284,0.072048,0.968519
-0.219265,-0.184614,0.924472,0.529923,-0.745290,-0.404628
-0.426360,-0.465528,0.812619,-0.000928,0.933349,0.358969
-0.286109,0.144387,-0.852828,0.055511,0.994617,-0.087499
-0.574115,-0.527479,0.638510,-0.228210,0.819471,0.525726
-0.115375,0.086521,0.728098,-0.722602,-0.463313,0.513018
0.444070,0.187956,0.525503,-0.022878,0.916756,0.398791
-0.567151,0.070491,0.631327,0.439139,0.774387,0.455501
-0.327882,-0.272435,0.729718,0.997720,-0.047981,0.047453
0.364112,0.114494,0.672806,0.129181,0.556062,0.821040
-0.440081,0.260552,0.694400,0.963649,0.250786,0.092129
-0.385398,-0.712341,-0.968463,-0.053966,0.185800,0.981105
0.343022,0.047593,0.673492,0.031223,-0.883416,0.467547
-0.285770,0.108738,-0.388800,-0.444240,0.894800,-0.044534
-0.025887,0.066035,0.400261,-0.481253,0.851124,0.209724
0.687262,-0.187956,0.551390,0.065121,0.997044,0.040763
-0.008111,0.287102,0.501515,0.970267,0.079482,-0.228616
-0.244743,0.176817,-0.318704,0.230891,-0.946236,-0.226552
-0.155255,-0.219768,0.899593,0.191233,-0.153292,0.969501
-0.725178,-0.039052,0.713176,0.158101,0.976227,0.148270
-0.697126,-0.027107,0.557887,-0.092896,-0.099659,0.990676
-0.319904,0.069253,0.341451,-0.579642,0.132877,0.803964
0.191212,0.378450,0.401283,0.629756,-0.736546,0.246793
-0.459816,-0.398379,0.593132,-0.124927,0.529622,0.838984
-0.012908,0.116227,0.905127,0.865314,0.491205,-0.099745
0.339170,-0.038433,0.787915,0.261756,0.939939,0.219088
-0.242647,0.132814,-0.472518,0.198407,-0.977699,0.068842
-0.344169,0.304555,0.606885,0.128139,-0.264919,0.955719
0.042649,0.505632,0.648351,0.953007,-0.289468,-0.089365
-0.335518,-0.721005,0.367308,0.931208,0.196676,-0.306871
-0.241365,-0.359265,0.666323,0.785468,-0.572083,-0.236136
-0.286517,0.593391,0.400933,0.042852,0.391431,0.919209
-0.130383,0.035153,-0.233817,0.192903,0.973723,-0.121048
-0.680162,0.452036,-0.991400,0.005685,-0.070793,0.997475
-0.457383,-0.182572,0.551623,-0.242672,0.963609,0.112105
-0.095639,-0.852767,-0.960579,0.047944,0.126142,0.990853
0.742348,-0.396336,0.433492,-0.063362,-0.993411,-0.095502
-0.031093,0.219024,0.080601,0.958325,-0.210205,-0.193459
-0.429198,0.351529,0.664849,-0.082802,0.736451,0.671404
-0.233794,0.121178,-0.239760,-0.306702,0.941307,0.140980
-0.121526,-0.355675,0.781900,-0.198510,0.073990,0.977302
0.238258,0.078228,0.161268,0.623963,0.751191,-0.215366
-0.119971,0.626687,0.734799,0.898603,-0.129669,0.419163
-0.549375,0.653732,0.681216,0.913249,-0.226786,0.338443
-0.077186,0.427033,0.339670,0.582462,-0.022513,-0.812546
0.264685,0.083612,0.487236,-0.030924,0.991997,0.122415
-0.233728,-0.095556,0.388523,0.597007,-0.795049,-0.107141
-0.749510,-0.417998,0.197404,0.710604,-0.670316,0.213819
0.284285,-0.381731,0.459962,-0.612901,-0.594468,-0.520538
-0.227643,0.052606,-0.114635,0.133780,0.968461,-0.210204
-0.310374,-0.903825,-0.959119,0.190862,0.380874,0.904714
-0.107739,0.527169,0.705876,0.305802,0.391614,-0.867827
-0.273402,0.557680,0.680413,0.978460,-0.072577,-0.193256
-0.475295,-0.487684,0.609324,-0.490949,0.721564,0.488174
0.104158,-0.362731,0.820839,0.969922,0.182015,0.161625
0.482733,0.120931,0.607557,0.266333,-0.762756,-0.589297
0.023387,-0.963362,-0.956798,-0.021553,0.159485,0.986965
0.072186,0.050749,0.742391,0.948498,-0.314188,0.040472
0.271983,-0.222366,0.642905,0.035285,0.920717,0.388633
0.178642,0.273610,0.452107,-0.221740,-0.655994,0.721459
-0.189657,-0.183748,0.768365,-0.172291,0.531254,0.829509
-0.128287,0.396336,0.846375,0.183419,-0.913870,0.362215
-0.012100,0.207266,0.394188,-0.670110,0.725296,-0.157793
-0.096047,0.180840,-0.457363,-0.462498,0.836591,-0.293618
0.225886,0.292363,0.591979,-0.667247,0.553975,-0.497888
0.206897,-0.303874,-0.969996,0.184204,-0.201924,-0.961923
0.012706,0.551553,0.527211,0.833961,0.146016,-0.532155
0.535522,-0.547902,0.377587,-0.172238,0.979357,0.105805
-0.391347,-0.496101,0.657826,0.712084,-0.698715,0.068799
-0.698817,0.539980,0.414015,-0.203504,0.971110,-0.124625
-0.471310,-0.318975,0.256068,0.218379,-0.808470,0.546523
0.126530,0.299728,0.728273,-0.196687,-0.361078,0.911557
-0.115173,0.608863,0.323653,0.963029,-0.208707,-0.170341
-0.525584,-0.325102,0.399415,-0.726635,0.663262,-0.179122
-0.457993,-0.383154,0.761065,-0.554689,0.186237,-0.810947
-0.204459,0.016462,0.585204,0.077629,-0.326535,0.941992
0.180400,0.203428,0.453713,-0.393474,0.414279,-0.820702
-0.302668,0.124211,0.886424,0.444085,0.892066,0.083708
0.151604,0.490716,0.541432,0.736142,-0.308935,-0.602207
0.184319,0.336799,0.823745,0.879006,0.254681,-0.403096
-0.301249,-0.038248,0.658688,-0.067050,-0.983027,0.170767
0.188308,0.411808,0.735792,-0.155610,-0.102022,-0.982536
-0.521797,-0.025745,0.559975,0.035032,0.334908,0.941599
0.151674,-0.419421,0.731500,-0.565212,0.173757,-0.806439
-0.131328,-0.011388,0.441799,0.527791,-0.845484,-0.081195
0.039068,-0.048088,0.228167,0.103115,0.950515,0.293069
-0.089286,0.216549,0.924764,0.110653,-0.531912,0.839539
-0.428996,0.489603,0.653811,-0.332140,-0.465330,-0.820458
-0.331665,-0.793478,0.554660,-0.866648,0.448072,-0.219436
0.344714,-0.505446,0.433594,-0.132808,-0.335467,0.932644
-0.241839,-0.207699,0.743954,0.728682,-0.455927,-0.511032
-0.203110,0.103045,-0.489426,0.832653,-0.000142,0.553796
-0.540386,0.182634,0.349905,0.449728,0.510750,-0.732720
0.094220,0.636836,0.630042,0.870075,-0.441247,-0.219706
-0.902129,0.529830,-0.998744,-0.234253,0.033036,0.971614
-0.290300,-0.146120,0.411489,-0.402186,0.913987,-0.053610
0.246773,0.571606,0.437886,0.879788,0.088989,0.466963
0.013923,-0.326030,0.801056,0.839987,0.208090,0.501119
-0.295168,0.062322,-0.475643,-0.799873,0.567608,-0.195000
0.060359,-0.043075,0.522890,0.353377,0.731557,0.583051
-0.389862,-0.388167,0.731368,0.055392,0.941957,0.331133
-0.614869,0.628605,0.418950,-0.043533,0.327981,0.943681
0.078878,-0.354747,0.852405,-0.387037,-0.101455,-0.916465
0.037108,0.126006,0.596227,-0.611558,-0.668318,0.423495
0.224673,-0.617898,0.485294,0.169165,-0.066886,0.983315
-0.601825,0.303070,0.811553,0.975202,0.147300,0.165180
-0.461710,0.414656,0.522656,-0.265845,0.945277,-0.189153
-0.614939,0.005323,0.672324,-0.058375,0.861418,0.504531
-0.849749,0.270516,0.556631,0.840598,-0.366926,0.398447
-0.414532,0.483166,0.548484,-0.647557,-0.465276,0.603480
-0.189929,-0.503156,0.807246,0.398978,0.743440,0.536762
0.065767,0.386930,0.733514,-0.736974,0.321455,0.594589
-0.763838,0.122354,0.351511,-0.247805,-0.922809,-0.294983
-0.571479,0.079960,0.545053,0.232196,0.587919,0.774879
-0.265832,-0.847073,-0.963528,0.082130,0.099910,0.991601
0.486314,-0.488241,0.452224,-0.145470,0.103830,0.983899
-0.720447,0.605087,0.428761,-0.681967,-0.155000,-0.714770
0.255358,-0.257457,0.657578,-0.143510,0.906281,0.397567
-0.346942,-0.341565,0.233102,-0.140305,0.725024,-0.674281
-0.145862,0.070925,0.858055,0.376473,0.900324,-0.218371
0.005545,-0.148471,0.563084,-0.696887,-0.682444,-0.220499
0.039270,-0.326216,0.849047,-0.691173,0.639769,0.336119
-0.348225,0.167905,-0.965821,0.235114,-0.802729,-0.548039
-0.558975,0.165925,0.499909,-0.402252,-0.876690,-0.263832
-0.201282,0.747370,0.373353,-0.657520,0.634947,0.405598
-0.516054,-0.351776,-0.975223,-0.060681,0.127604,0.989967
-0.384186,-0.156517,0.434674,-0.534771,0.763688,-0.361664
0.423724,-0.720262,-0.957980,0.172384,-0.039985,0.984218
-0.022100,0.542456,0.501778,0.879937,-0.448215,-0.157527
0.300036,-0.701820,0.478767,-0.531317,-0.584548,0.613194
-0.854208,-0.043384,-0.982012,0.116679,0.309924,0.943575
0.086245,0.083364,0.717950,-0.655724,0.701686,-0.278681
-0.143766,0.134484,-0.060540,-0.660181,0.750682,-0.025242
0.429334,-0.111523,0.660892,0.116278,-0.989114,0.090187
0.212371,-0.258882,0.615339,0.941961,-0.029021,0.334464
-0.542481,-0.274168,0.533066,0.484110,-0.873634,0.049010
-0.198852,-0.075937,0.170758,0.922532,-0.205957,-0.326368
0.115041,0.259933,0.774381,-0.589179,0.723962,-0.358814
0.108077,0.091781,0.914894,-0.864939,-0.036619,0.500539
-0.355324,-0.364587,0.071432,-0.704326,0.651748,-0.281335
0.106456,0.370033,0.460473,-0.034236,-0.353985,0.934624
-0.680364,0.570553,0.414570,-0.162552,0.943959,-0.287261
-0.248869,0.046479,0.000518,0.855530,-0.478843,-0.196922
-0.280836,0.131700,-0.532979,0.113822,0.968477,0.221578
-0.537547,-0.072719,-0.982553,-0.105765,0.049595,0.993154
-0.428187,0.334324,0.620245,0.806763,0.590517,0.020575
-0.000879,-0.249598,0.798238,-0.672481,0.354941,0.649451
-0.919229,0.007736,-0.987035,0.033587,0.243687,0.969272
0.121530,-0.383649,0.795434,0.089864,-0.859371,-0.503394
0.066646,-0.458596,0.856289,0.838158,-0.522093,-0.157828
0.136464,0.262780,0.783929,0.774380,-0.631695,0.036011
-0.368975,0.005013,0.369557,0.067450,0.761522,0.644620
-0.136328,-0.818542,-0.961017,0.106873,-0.065036,0.992143
-0.770463,0.164129,-0.993401,0.212947,0.022735,-0.976799
-0.271038,-0.980938,-0.945774,0.166546,0.484232,0.858943
-0.049748,0.151318,0.896805,0.968528,0.248833,0.006006
-0.850830,0.075690,0.618770,-0.526673,0.385058,-0.757856
-0.287057,0.574019,0.669959,0.568619,0.004128,-0.822590
-0.812439,0.120311,0.625428,-0.032721,0.995529,-0.088609
0.271645,-0.482362,-0.960433,0.035950,0.073374,0.996656
0.123758,-0.468128,0.677624,0.936303,0.110223,-0.333449
0.381347,0.374551,0.416877,0.802937,0.590700,-0.079786
-0.309227,-0.717973,0.366505,0.931208,0.196676,-0.306871
-0.599189,-0.641973,-0.965456,-0.142613,-0.133099,-0.980788
-0.207231,0.144263,-0.674441,0.325438,-0.921304,-0.212813
-0.256843,0.033481,-0.127001,0.971837,0.114075,-0.206204
-0.048936,0.169575,0.640817,-0.370672,0.402185,-0.837167
-0.765529,0.139188,0.347087,-0.191993,-0.928870,-0.316762
-0.367556,-0.330858,0.758364,0.455690,-0.736784,0.499495
0.350795,-0.276148,0.676164,-0.257643,0.909715,0.325635
-0.097871,-0.028469,0.753108,0.877723,0.082470,0.472019
-0.101047,-0.097166,0.900221,0.647130,0.479818,0.592450
0.856238,-0.295829,0.559434,0.145226,0.911582,0.384614
0.898750,-0.347072,0.564734,0.007715,0.773119,0.634214
-0.483814,0.472459,-0.980771,-0.050286,0.066999,0.996485
0.602774,-0.403701,0.365717,0.781539,0.349495,-0.516770
-0.433864,-0.410138,0.250608,0.219271,-0.589365,0.777540
0.342548,-0.026736,0.777783,-0.150916,0.597659,0.787419
-0.032714,-0.497958,0.317448,0.832732,0.199081,0.516647
-0.188106,0.200582,0.249819,0.971889,-0.191472,-0.137003
-0.254409,0.006622,-0.804370,0.091782,0.947324,0.306845
-0.145725,-0.683439,0.242140,-0.524590,-0.800839,0.288897
-0.259817,-0.675083,0.554076,0.852301,-0.234366,0.467606
-0.225280,0.056690,-0.646452,0.600567,0.779564,-0.177762
-0.332746,-0.700953,-0.965237,0.225775,-0.061485,-0.972237
-0.284083,-0.246999,0.741807,0.721367,-0.570167,-0.393114
-0.156270,-0.255539,0.870772,-0.303228,0.935808,-0.179765
-0.527205,-0.513616,0.107992,-0.293180,0.837595,-0.460956
-0.227643,0.375418,0.677595,0.762899,0.375159,-0.526536
0.316661,-0.311301,0.585978,0.600875,0.660366,0.450407
-0.204665,0.050192,0.032478,-0.059289,-0.986723,0.151204
0.724774,-0.160601,0.682019,0.712347,0.211193,-0.669297
-0.598987,0.135598,0.582240,-0.598190,-0.793543,0.111612
-0.076918,0.041156,0.944811,-0.441657,-0.889067,-0.120408
0.128151,-0.238211,-0.967193,-0.204724,0.132585,0.969799
-0.201352,-0.188761,0.923290,-0.466284,0.824971,0.319378
-0.592295,0.314457,0.790835,-0.570155,-0.820448,0.042276
-0.227173,-0.424682,0.509603,0.613509,0.238781,0.752722
-0.197363,-0.045674,0.343656,-0.232323,0.448980,0.862811
-0.554919,-0.623035,0.055620,-0.682560,0.646119,-0.341529
-0.135247,0.618703,0.729923,0.979538,-0.158478,0.124053
0.057587,0.503590,0.666382,0.825509,-0.085679,-0.557848
-0.262722,0.664501,0.677916,0.771990,-0.173834,-0.611402
-0.199322,-0.270949,0.899316,0.521095,0.414048,0.746341
0.616425,0.186038,0.667302,-0.443723,0.661392,-0.604707
-0.222507,0.199158,0.620727,0.842327,0.380908,0.381305
0.015953,0.020362,0.841250,0.580729,0.813337,-0.035163
-0.202297,-0.405063,0.249016,0.900950,-0.388231,-0.193817
0.820347,0.267050,0.413168,0.747517,0.259522,0.611446
-0.415139,0.320647,0.680719,-0.090033,-0.881432,0.463650
-0.768099,0.219210,-0.992627,0.255725,0.007350,-0.966722
0.107269,-0.255230,0.190965,-0.379601,-0.069157,-0.922562
0.105037,-0.332034,0.795318,0.292680,0.790511,0.537987
-0.119905,0.019124,0.408773,0.844696,-0.533667,0.041078
-0.100371,-0.532244,0.532044,0.022752,0.522142,-0.852555
-0.290300,0.494307,0.631560,0.482133,0.868230,-0.117147
-0.185131,-0.079280,0.357482,0.696671,-0.686891,0.206952
-0.076848,-0.143149,0.292993,0.128648,-0.669820,0.731294
-0.032240,-0.080270,0.926560,0.780422,0.417331,-0.465592
-0.669754,-0.368796,0.396567,0.824690,-0.565492,0.010271
-0.419128,0.516153,0.536030,0.894005,0.137213,0.426529
-0.108754,0.301770,0.332618,-0.405518,-0.019296,-0.913883
-0.048936,-0.221685,0.693612,0.505018,0.360930,0.784019
-0.290098,0.137889,0.844871,0.161835,0.961241,0.223216
-0.751334,-0.026179,-0.986976,0.039078,0.161144,0.986157
-0.769989,-0.183253,0.586153,0.935504,-0.340121,0.095659
-0.498005,-0.121488,0.694356,0.351541,0.356411,-0.865674
0.136670,-0.055824,0.616405,-0.656261,0.533524,0.533548
0.036498,-0.888662,-0.957542,0.044417,-0.232143,-0.971667
-0.212099,-0.001857,0.860202,0.668480,0.586736,-0.457029
-0.814530,0.144510,-0.994204,-0.037031,0.130131,0.990805
-0.474012,-0.414841,0.276553,0.971730,-0.127868,0.198471
0.125379,-0.224842,0.423184,0.496150,-0.246136,-0.832618
-0.043865,0.009407,0.593512,0.956355,0.126746,-0.263288
-0.255424,-0.295148,0.782250,-0.200397,0.562564,0.802099
-0.319231,0.090791,0.692283,0.665598,-0.224580,0.711718
-0.281583,0.084540,0.875766,0.843840,0.495136,0.206821
0.007772,-0.083550,0.937467,0.986058,0.152216,0.067235
-0.699292,0.232702,-0.988670,-0.111037,-0.011922,0.993745
0.698413,0.149585,0.625910,0.118535,-0.958100,0.260756
-0.012232,-0.424062,0.810049,0.730747,-0.575896,-0.366541
-0.024670,0.543941,0.527138,-0.344444,-0.303177,0.888505
-0.086245,0.255848,0.683683,-0.660662,-0.386729,0.643402
0.222644,-0.559723,0.447201,0.951967,-0.122254,-0.280737
-0.246030,0.002166,0.763752,0.351665,0.119247,0.928500
-0.182425,0.286360,0.780498,0.704477,0.097001,-0.703067
0.218724,-0.415150,0.626830,0.716737,0.462625,0.521790
-0.306793,-0.136403,0.728974,0.942195,0.299701,-0.149824
0.036229,0.011945,0.807319,0.866657,0.408505,-0.286407
0.498954,-0.676445,0.472285,0.505137,0.131181,-0.853011
0.110713,0.363535,0.106561,-0.672005,0.497141,0.548872
-0.513686,0.217787,0.535227,0.005831,-0.970627,0.240520
0.037921,-0.540785,0.511122,0.357417,0.182740,0.915892
0.084014,0.454945,0.543973,0.795993,-0.173581,-0.579884
0.089286,-0.301646,0.467219,0.796758,0.205520,0.568276
