-0.152648,0.620722,0.674127,-0.587495,-0.224238,-0.777539
-0.049849,0.493225,0.372039,0.204477,0.161715,0.965421
0.008979,0.552868,0.461258,0.790153,0.006267,0.612877
-0.132762,-0.224199,0.657049,0.775326,0.080601,-0.626397
-0.081225,0.149553,0.626102,0.826281,0.380953,-0.414890
0.160010,-0.146195,-0.344383,0.789723,-0.237873,0.565468
0.184162,0.129474,0.734547,0.413534,0.123286,0.902103
0.998278,-0.001453,0.371653,-0.582163,0.754897,-0.302021
-0.009185,-0.537642,0.764420,-0.716828,0.132831,0.684481
0.591356,0.556828,0.590913,0.683192,0.660868,-0.310648
-0.029897,0.296458,0.388277,-0.390704,-0.299041,-0.870589
0.332920,-0.212330,0.967607,-0.639553,0.693713,0.331261
0.238656,-0.089836,-0.467648,0.978048,0.072234,0.195458
-0.721675,-0.235922,0.537200,0.662111,-0.729832,-0.170162
0.200952,-0.111186,0.050036,0.980339,-0.163762,-0.110080
-0.171500,0.072223,0.596573,0.205283,0.535697,0.819077
0.321498,0.502633,0.550008,-0.608615,0.793035,-0.026122
0.017374,-0.260629,-0.867398,-0.740677,-0.260259,-0.619405
-0.110194,-0.064828,0.823752,0.983732,0.065128,0.167418
0.159392,-0.360430,0.608197,0.368854,-0.293628,0.881890
0.059622,0.522115,0.451947,-0.616849,-0.020174,-0.786823
-0.041181,-0.330424,0.715431,0.994475,0.064240,-0.083024
0.593490,-0.332811,0.839467,-0.582859,-0.110769,0.804988
0.293083,-0.041542,0.667957,0.737776,-0.210762,0.641301
-0.137369,0.583850,0.684360,-0.587896,0.218135,-0.778971
0.895963,0.039155,0.289045,-0.637848,-0.600920,-0.481711
0.397876,-0.266151,0.989877,-0.417942,0.302433,0.856656
0.271476,0.039451,-0.819138,0.294739,-0.547912,0.782893
-0.066224,0.662228,0.661208,-0.386176,0.888482,0.247926
0.365467,0.385064,0.324716,0.386420,0.846468,0.366294
-0.996972,0.032061,0.383250,-0.525405,0.036973,-0.850048
0.122373,0.549360,0.429829,0.840552,0.487957,0.235309
-0.417551,0.082446,0.457539,0.311349,0.535757,0.784874
-0.002028,0.029450,0.894860,0.644962,0.002366,0.764211
0.669041,0.278393,0.539348,0.787742,0.124252,-0.603344
0.326520,0.207109,0.681839,0.424741,-0.572711,-0.701140
-0.077374,-0.146195,0.736241,0.666883,-0.690154,-0.280989
0.110471,0.018028,0.814359,-0.450306,-0.617246,-0.645160
0.500603,-0.558541,0.852138,0.863115,-0.438931,-0.249743
-0.770256,0.439482,0.370909,-0.264866,-0.099662,-0.959121
-0.029620,0.167020,0.666070,0.498335,0.866669,-0.023405
0.301406,-0.036239,0.494312,0.789730,0.400803,-0.464417
-0.436130,0.641475,0.376240,0.650560,0.223971,-0.725678
-0.636355,0.099987,0.387285,-0.068508,-0.414747,0.907354
-0.595073,-0.018101,0.386183,-0.293264,-0.225829,0.928977
0.751059,-0.779345,0.660285,-0.419985,0.564666,0.710468
0.262808,0.181203,0.358432,0.062147,0.073217,0.995378
0.367462,0.300786,0.350499,-0.017940,0.856039,0.516600
-0.009185,0.337886,0.747576,-0.718561,-0.624427,0.306203
-0.045377,-0.185012,0.877176,-0.392401,0.915458,-0.089206
0.158082,-0.059457,-0.451479,0.730580,-0.682696,-0.013386
0.520349,-0.717014,0.622025,-0.419141,0.339055,0.842237
-0.258541,0.239804,0.722689,-0.521345,-0.265440,0.811012
-0.239479,-0.190685,0.732481,-0.016964,0.784699,0.619644
0.938900,-0.244651,0.305380,-0.737313,0.588535,-0.331658
-0.122028,0.446348,0.552666,-0.606338,0.064666,0.792573
-0.097326,-0.106033,-0.994160,0.331774,-0.271946,-0.903311
0.239895,-0.101035,-0.989285,-0.054442,0.117026,0.991635
0.228678,0.232263,0.396389,0.834753,0.472057,-0.283460
0.007261,0.259062,0.818932,-0.367180,0.209122,-0.906337
0.162349,0.491211,0.425077,0.939133,0.343530,-0.004040
-0.155881,0.117678,0.722042,0.029983,-0.330760,0.943238
-0.302574,-0.012055,0.395204,-0.027870,0.217966,0.975558
0.421612,0.163216,0.297846,0.840900,0.353001,-0.410216
-0.467850,0.196954,0.523882,0.393440,0.492780,-0.776127
-0.595829,0.437914,0.570529,0.537410,0.607994,-0.584409
-0.320191,-0.423057,0.587208,0.971901,0.012873,-0.235036
0.495853,0.073863,0.724080,0.456350,-0.715587,0.528848
-0.360512,-0.811744,0.422763,0.279181,0.678537,0.679445
-0.658374,0.481580,0.551234,0.768683,0.223774,0.599209
-0.185401,0.625200,0.510729,-0.692312,-0.274231,-0.667459
0.179278,0.025117,0.694014,0.496155,0.716205,-0.490796
-0.622253,0.347367,0.566384,-0.015849,0.509012,0.860614
0.359344,0.571380,0.605305,-0.475280,0.274852,-0.835802
0.100010,0.595417,0.667970,-0.650896,0.501344,-0.570077
-0.376542,-0.599969,0.434567,0.145046,-0.115235,0.982691
0.274298,0.179786,0.360553,-0.534457,0.453230,-0.713399
0.109371,0.617665,0.323504,0.902091,0.394677,-0.174533
0.490557,-0.317808,0.680889,-0.592771,-0.679147,0.432876
-0.624932,-0.170155,0.490056,0.124684,0.676328,0.725971
0.550763,-0.037360,0.634352,-0.568383,-0.185444,-0.801593
0.188773,-0.611541,0.753691,-0.174172,-0.875619,0.450506
0.043454,0.378421,0.656250,0.963985,-0.232880,0.128454
0.304712,0.184489,0.793398,0.182195,0.974940,0.127662
0.253174,0.227484,0.817816,-0.530467,-0.834374,0.149750
0.221181,-0.063858,-0.572306,-0.640743,-0.706853,-0.299679
0.263769,0.082820,-0.812211,-0.478257,0.629485,-0.612387
0.266869,-0.103122,-0.350691,0.954702,-0.238800,0.177533
0.689753,0.298549,0.592414,0.820997,0.473356,-0.319216
-0.279455,-0.180083,0.604424,0.652304,-0.495798,0.573309
-0.260330,-0.458367,0.421909,-0.254438,0.429940,-0.866264
-0.270926,-0.199569,0.731572,0.171442,0.002045,0.985192
0.067601,0.235995,0.795697,0.510989,0.518588,0.685534
0.571543,-0.400664,0.741571,0.985265,-0.060186,-0.160093
0.792480,-0.771883,0.601105,-0.460687,-0.737302,0.494118
0.346960,0.236218,0.361351,0.610583,-0.007414,0.791917
0.624592,0.261823,0.360594,-0.241500,0.643828,-0.726060
-0.675231,-0.068414,0.390122,0.043572,0.026734,-0.998693
0.770185,0.184338,0.360277,0.774149,-0.091723,0.626322
-0.282622,-0.209643,0.623761,-0.053574,-0.225918,0.972672
-0.118517,-0.607660,0.709922,0.908816,0.416019,0.031343
-0.021502,-0.127829,-0.713227,-0.135762,-0.990218,0.032191
-0.242851,-0.492929,0.425008,0.022953,-0.454829,0.890283
-0.118039,-0.652819,0.686991,0.858514,-0.002184,-0.512786
0.804382,0.020119,0.366351,0.429471,0.592350,-0.681672
0.193245,-0.037884,0.943987,-0.305579,0.091568,0.947754
0.206730,0.148810,0.620056,-0.354888,0.560499,-0.748262
0.243196,-0.093194,-0.315131,0.841007,-0.280028,-0.462917
0.528056,-0.407084,0.821728,0.875670,-0.480235,0.050763
-0.745827,0.113574,0.381570,-0.237164,-0.591446,0.770678
0.490490,-0.480163,0.822816,-0.664925,0.745598,-0.044260
0.291222,-0.027209,0.558561,0.887259,0.278997,-0.367332
-0.437986,-0.084387,0.379628,-0.351208,0.085415,-0.932393
-0.652595,-0.186803,0.413522,-0.056992,0.850808,0.522377
-0.331682,-0.434329,0.621791,0.021988,-0.982077,0.187192
-0.054734,0.273842,0.638704,-0.905594,0.217992,0.363839
-0.536656,0.526894,0.379820,-0.416783,0.730402,0.541115
0.774657,-0.288845,0.315764,0.093194,-0.790947,0.604746
-0.514088,-0.120367,0.503485,0.077167,0.351430,0.933028
0.161110,-0.091108,-0.215086,0.948297,-0.313352,-0.050424
0.407371,-0.294590,0.891142,0.489430,0.869237,-0.069897
0.046821,0.444931,0.742122,0.443827,0.842363,-0.305683
-0.506793,0.113574,0.530396,-0.746588,0.215802,0.629314
0.113633,-0.084087,0.905410,0.788078,0.380859,-0.483610
-0.187945,-0.208973,0.654404,0.619066,0.297250,-0.726911
0.742043,-0.155152,0.701658,0.651096,-0.718815,0.243677
-0.141019,-0.627588,0.534225,-0.259218,-0.315031,0.912996
-0.035125,0.424852,0.547240,-0.471238,0.881983,0.006425
0.075379,-0.117382,-0.834646,-0.889144,-0.191199,0.415771
0.552275,0.147165,0.632616,-0.434757,-0.654072,-0.619012
0.216570,-0.044454,-0.088200,-0.453310,-0.760264,-0.465305
0.625831,-0.977456,0.612178,-0.212731,0.874359,0.436167
-0.423951,0.395438,0.535602,0.705639,0.144407,0.693700
-0.155604,0.078191,0.691274,0.646449,0.514487,-0.563389
0.241961,0.067594,0.558148,0.815650,0.570491,-0.096201
-0.016891,-0.369464,-0.980994,0.048109,0.963037,0.265037
-0.184296,0.139251,0.725829,-0.063574,0.311942,-0.947972
0.381086,0.497184,0.595981,-0.067389,-0.524577,0.848691
0.374341,0.204795,0.840995,0.937743,0.289047,0.192587
-0.336499,-0.691414,0.560214,-0.001540,0.981258,0.192691
0.338699,-0.638190,0.766279,-0.080030,-0.122135,0.989282
-0.067946,-0.589071,0.659211,-0.327903,-0.862332,-0.385827
0.379847,-0.160004,0.937941,0.611076,0.703340,0.363178
0.075518,0.277573,0.783701,-0.571981,-0.773426,-0.273222
0.010562,0.188074,0.727399,-0.588909,-0.486499,0.645372
0.216637,-0.674989,0.794210,0.869529,-0.122476,-0.478455
-0.046410,-0.683650,0.538866,-0.154161,-0.420025,0.894323
-0.909654,0.313999,0.384049,0.279667,0.374810,0.883914
0.473767,-0.591313,0.844315,0.779056,0.610984,-0.140608
-0.913165,0.063712,0.375468,-0.333028,0.410990,0.848634
0.448036,-0.811520,0.618775,0.836894,-0.227643,-0.497782
0.251591,-0.138654,0.958875,-0.101375,0.928474,0.357295
-0.000311,0.635206,0.233184,-0.484184,0.874218,-0.036179
-0.296245,-0.894003,0.399736,-0.173015,-0.627930,0.758795
0.327415,-0.362817,0.957319,-0.616917,-0.648307,0.446218
0.085357,0.664915,0.677859,-0.698011,0.081848,-0.711394
-0.255030,-0.376927,0.673466,0.664382,0.089620,-0.742000
0.696221,-0.324300,0.532200,-0.636140,0.733566,0.239179
0.407921,0.190161,0.725292,0.670979,0.402859,0.622488
0.274365,0.255927,0.817940,-0.309397,-0.950288,-0.035015
0.283176,-0.020265,0.255922,0.398013,0.380483,0.834757
0.628720,-0.110216,0.574909,0.253007,-0.402747,0.879649
-0.304023,-0.442170,0.428396,-0.002177,-0.101628,0.994820
0.182440,-0.136641,-0.263745,0.919962,0.231984,-0.315995
0.107372,0.545852,0.342207,0.795539,0.454512,0.400670
-0.271337,-0.523978,0.636886,0.876545,0.268168,0.399693
-0.030653,0.380362,0.765067,0.479381,0.491153,0.727298
0.015862,0.709255,0.429539,0.994639,-0.084370,0.059790
0.552346,0.359086,0.598419,-0.666807,-0.188458,-0.721007
-0.343860,0.384763,0.526264,0.144717,0.018315,0.989304
0.491107,-0.541670,0.801592,-0.364445,-0.692286,-0.622832
0.238039,-0.121041,0.954454,-0.072250,0.849690,0.522309
-0.694772,0.455829,0.560145,0.998218,0.008333,0.059086
0.461727,0.297055,0.680338,0.714105,0.380733,-0.587449
-0.093265,0.532266,0.258029,0.179690,-0.927716,-0.327192
-0.914265,0.202029,0.387203,0.097990,-0.387208,0.916770
0.673169,-0.044226,0.625826,0.620491,0.419782,-0.662400
0.201363,0.282576,0.809856,0.098959,0.948919,-0.299598
-0.150997,-0.096780,0.762437,-0.788839,0.611509,0.061557
-0.406611,0.523158,0.494023,0.858430,-0.432554,0.275673
-0.312485,-0.897735,0.393800,-0.193812,-0.518456,0.832851
-0.370902,-0.361847,0.413288,-0.265903,0.433934,0.860812
0.601956,0.485238,0.598543,0.790212,-0.420103,0.446182
-0.214987,-0.404022,0.675311,0.656225,0.216208,-0.722927
-0.562803,0.765089,0.366943,0.300568,-0.015213,-0.953639
-0.134001,0.642891,0.658468,0.727074,-0.683212,0.067710
0.799359,-0.190908,0.337015,0.384065,-0.363199,0.848870
-0.375303,0.092452,0.386266,-0.276023,-0.042325,-0.960219
0.329548,-0.124549,0.939070,0.900614,0.236766,0.364467
-0.309180,0.406113,0.530603,-0.005477,0.127087,0.991876
-0.007190,-0.404100,0.687996,-0.367720,0.754238,-0.543973
-0.284343,-0.627141,0.685971,0.158585,0.817863,0.553129
0.021985,0.646026,0.364547,0.789694,0.364567,0.493431
-0.470945,-0.443213,0.560531,0.940922,-0.231958,0.246699
-0.411839,0.638117,0.372810,0.443751,0.418817,-0.792261
-0.276498,-0.677827,0.429898,-0.120321,-0.413697,0.902429
-0.368012,0.485165,0.394736,0.232573,0.299018,0.925472
0.536039,0.331544,0.695695,-0.501864,-0.694549,-0.515493
-0.034714,-0.232783,-0.946617,0.934844,-0.307213,-0.178007
0.003545,0.046094,0.269392,-0.517113,-0.119898,-0.847478
0.028658,0.084761,0.892147,0.872620,-0.488159,-0.015336
0.183956,-0.043930,-0.080019,-0.309946,0.947306,0.080900
-0.169299,-0.304445,0.657021,-0.728663,0.378833,0.570557
-0.214227,0.558914,0.347868,0.438858,0.896656,0.058401
0.628309,0.095363,0.349851,0.074430,-0.717860,0.692197
-0.429457,-0.475980,0.579275,-0.464908,0.295610,-0.834551
0.531705,-0.522562,0.853956,0.946097,0.321233,-0.041349
-0.420785,-0.083194,0.611407,0.004527,0.811094,0.584898
-0.078613,0.208750,0.627300,0.880457,0.443341,-0.168059
0.045587,0.078715,0.890618,0.819551,-0.559628,0.123097
0.189735,-0.144924,-0.730291,0.896718,0.434747,-0.083015
0.299962,-0.674169,0.763415,-0.142766,0.083353,0.986240
-0.270581,0.193373,0.693395,0.952966,0.257496,0.159851
0.510581,-0.412159,0.851049,-0.560694,0.758681,-0.331700
0.257508,-0.041765,0.158702,0.186377,-0.972125,0.142252
0.209620,0.156423,0.632107,0.177870,0.273731,-0.945216
0.720579,-0.611464,0.639007,0.916134,-0.361716,0.172800
0.088452,-0.689619,0.682101,-0.154456,0.983594,0.093205
0.015240,0.665658,0.674485,-0.095613,0.878684,0.467731
-0.946123,0.094242,0.366874,-0.074130,0.280958,0.956853
0.203219,0.200539,0.378760,-0.697188,-0.678543,0.231316
-0.631883,0.345203,0.558768,-0.566204,0.807263,-0.166550
-0.304640,0.643042,0.535382,-0.295409,0.247404,0.922781
0.697321,-0.848096,0.648303,-0.663745,-0.630718,0.402042
0.507347,-0.596985,0.842097,0.959764,0.182214,0.213659
-0.049849,0.558768,0.666304,0.067411,-0.142907,0.987438
-0.444937,-0.055274,0.531319,0.564792,0.007737,-0.825197
0.321636,-0.051470,0.262726,0.915272,0.402663,0.011803
-0.009390,0.631697,0.682377,0.394071,0.907176,-0.147447
0.592389,-0.205241,0.838806,0.391607,0.807248,0.441582
0.275125,-0.162989,0.959206,-0.033007,0.888770,0.457164
0.071045,0.408578,0.744946,0.995723,0.090705,0.017581
0.219321,-0.320122,0.898648,0.458077,0.888711,-0.018918
0.589156,-0.029819,0.574427,-0.564179,-0.377544,-0.734277
-0.311313,0.688352,0.535836,-0.021222,-0.103095,0.994445
-0.044482,-0.275186,0.407063,0.295772,-0.374228,0.878904
0.344066,0.298923,0.569317,0.673284,0.572358,-0.468076
0.433858,0.444931,0.593337,-0.257793,-0.555786,0.790344
0.023018,0.458813,0.538012,0.042975,-0.996147,0.076449
-0.324870,0.596014,0.383222,0.616581,0.077088,0.783509
0.559019,-0.126636,0.811026,-0.343979,0.907921,0.239496
0.266798,0.122307,0.603804,0.888813,0.425861,0.169272
0.388309,-0.295784,0.976587,-0.451288,0.879356,-0.151896
-0.331198,0.613482,0.362729,-0.247859,-0.868610,-0.429048
-0.066774,-0.107828,0.843433,0.664380,-0.738447,-0.115309
0.057972,-0.418282,0.721477,-0.124250,0.942177,0.311231
0.148452,0.091331,0.746295,0.904278,0.422816,0.059224
0.796676,-0.710221,0.635288,-0.211701,0.499494,0.840053
-0.475829,0.172023,0.621158,-0.300263,0.296739,-0.906525
0.332853,0.052814,0.387423,-0.622326,-0.673314,0.399198
-0.349572,0.176055,0.591905,-0.420866,-0.324343,-0.847156
0.132830,0.179039,0.745937,-0.656819,-0.427387,-0.621232
0.044142,0.518680,0.653757,0.363073,-0.571876,0.735620
0.627893,-0.990819,0.604479,0.010453,0.582633,0.812668
-0.836929,0.464563,0.375826,-0.575502,-0.318982,-0.753026
0.089003,-0.097673,0.916442,0.960792,0.264320,-0.083749
0.753054,-0.026015,0.348860,-0.231968,0.266007,-0.935645
0.716379,-0.405516,0.618733,0.898129,0.423472,-0.118474
-0.580555,-0.036016,0.496199,0.272517,-0.097162,0.957233
-0.286132,-0.459488,0.431564,-0.109862,-0.446576,0.887975
0.344616,0.213825,0.745868,-0.236702,0.758312,0.607400
0.139368,-0.168214,0.894516,0.544874,0.838430,-0.012151
0.366018,0.000114,0.654391,0.858979,-0.286682,0.424226
0.600373,-0.684844,0.619739,0.468153,0.655985,-0.592044
0.732963,-0.082820,0.350072,-0.134577,0.506172,-0.851868
0.560603,-0.447915,0.754352,0.746936,0.218539,0.627955
-0.226133,-0.135593,0.740001,-0.160282,-0.867972,-0.470037
-0.462071,0.685440,0.374559,-0.683492,-0.342729,0.644496
-0.644683,0.214422,0.580253,0.589826,-0.494346,0.638535
0.029280,0.543091,0.552116,0.156808,-0.986151,0.054020
-0.430830,0.271454,0.399391,0.108659,-0.230574,0.966969
0.272992,-0.132312,0.819331,0.815615,-0.235517,-0.528492
0.020885,0.373865,0.526375,0.108349,0.752236,0.649924
0.582966,0.308924,0.341464,-0.273913,-0.821105,0.500757
0.167649,0.353491,0.547337,0.136715,0.468453,0.872846
0.320124,0.095659,0.395466,-0.568712,-0.679510,-0.463500
0.174805,0.148733,0.254862,0.783993,0.426832,0.450743
-0.177761,0.491958,0.648331,0.607935,0.719161,-0.336486
0.232533,0.139775,0.431385,0.898592,-0.040105,0.436948
0.570648,0.254880,0.704454,-0.660192,-0.379020,-0.648452
-0.020263,0.375210,0.668301,0.438467,0.391245,0.809119
-0.207142,0.305789,0.452581,-0.828369,0.519690,0.209113
0.449615,-0.036239,0.730250,0.957462,-0.235014,-0.167438
-0.011179,-0.215392,0.406140,0.046406,-0.083848,0.995397
0.003133,0.717839,0.687293,-0.195148,0.925559,-0.324435
-0.019091,-0.764415,0.709688,0.806038,0.562310,-0.184689
0.693193,-0.279437,0.299912,-0.048771,-0.922096,0.383876
0.723396,-0.555853,0.637478,0.876232,0.024250,0.481279
-0.156776,-0.379761,0.614078,0.071689,0.187390,0.979666
0.720646,0.087823,0.324303,0.857331,-0.513771,0.031996
0.253241,0.015413,-0.542364,0.150839,0.986041,0.070503
-0.365740,-0.134996,0.550642,0.120677,0.058473,0.990968
-0.340971,-0.666255,0.580349,0.773341,0.557788,0.301357
0.198197,-0.495467,0.834151,0.403092,-0.906050,0.128805
0.228060,0.235548,0.829316,0.208983,-0.972723,0.100683
0.552275,-0.571006,0.742232,-0.649469,0.538534,-0.536816
0.227233,-0.067220,-0.400328,0.979123,0.136842,-0.150306
-0.131246,0.392901,0.399198,0.107236,0.964328,0.242018
-0.889907,0.144851,0.367866,-0.577596,0.165426,0.799385
-0.166616,-0.517185,0.704922,0.961444,0.273601,-0.027721
-0.138885,-0.779122,0.684043,-0.290066,-0.944773,0.152533
-0.731586,0.256374,0.386721,-0.030213,-0.974836,0.220864
0.126707,-0.243161,0.841395,-0.704887,-0.428229,0.565469
-0.320603,0.148733,0.595527,-0.445716,-0.432012,-0.784030
-0.303468,-0.450977,0.430035,0.147188,-0.315111,0.937572
0.090930,0.674542,0.282572,-0.265480,0.144724,0.953192
0.109161,0.565188,0.665354,0.547765,-0.466349,0.694602
0.618053,0.096032,0.638497,-0.496543,-0.363141,-0.788400
-0.344272,-0.703355,0.533013,-0.007512,-0.996356,0.084960
-0.327826,-0.395366,0.590321,0.951907,-0.024410,-0.305413
-0.641105,-0.386481,0.528151,-0.043101,-0.936182,0.348863
0.071389,-0.372895,0.821700,0.976237,0.203750,-0.073810
0.380603,-0.495613,0.829316,0.776723,0.607191,-0.167394
0.418379,-0.264434,0.993541,-0.731496,0.168653,0.660659
0.536451,-0.098197,0.883085,-0.394662,-0.768870,0.503072
0.209620,0.036690,0.814029,-0.407754,0.697713,0.589011
0.659340,0.228309,0.347496,0.699366,0.475396,-0.533747
0.754982,0.400218,0.559401,-0.410166,0.822972,-0.393040
0.294045,-0.242264,0.742232,-0.067922,0.417966,0.905920
0.074896,-0.446794,0.856944,0.707085,0.411802,-0.574848
0.364161,-0.455752,0.830611,0.761388,0.570749,-0.307464
0.133174,-0.416342,0.865222,0.045345,-0.640730,0.766426
0.045860,0.595641,0.359644,-0.421194,-0.691021,-0.587440
-0.321086,-0.658268,0.426936,-0.234800,-0.440665,0.866420
0.321225,0.235325,0.675766,0.742475,-0.585336,-0.325750
0.206525,-0.249581,0.934539,0.547456,0.611564,-0.571211
0.477895,-0.237412,0.584288,-0.638849,0.097936,-0.763073
-0.148519,0.635206,0.529115,0.137890,-0.073080,0.987748
0.166616,-0.468518,0.823780,0.051363,0.938210,0.342234
0.322808,-0.183445,0.858528,0.893328,0.420605,0.158292
0.245745,0.404323,0.266913,0.212657,-0.854743,0.473488
0.060311,0.547793,0.663219,-0.202876,0.750695,-0.628728
0.679225,-0.686110,0.637451,-0.171688,-0.131666,0.976313
0.367601,-0.012953,0.887023,-0.021041,0.110808,0.993619
-0.023014,0.666109,0.369739,-0.697917,0.229778,0.678317
0.685965,0.271823,0.602413,0.711994,0.701188,-0.037419
-0.336637,-0.496360,0.423906,0.165508,-0.149608,0.974795
0.066157,0.115068,0.868830,-0.498651,0.297691,0.814081
-0.072351,-0.298249,0.784969,0.052592,0.907251,-0.417289
0.779613,0.092971,0.353777,0.047947,0.605588,0.794333
0.292394,0.497704,0.596987,-0.016129,-0.725010,0.688549
0.358794,0.124922,0.684897,0.504315,-0.347665,-0.790440
0.059895,-0.593773,0.767009,-0.604588,0.059617,0.794304
0.536383,0.504647,0.599273,-0.358413,0.677838,0.641931
-0.755255,0.142390,0.392767,-0.237335,-0.758533,0.606877
0.270237,-0.605195,0.785974,0.308471,0.487288,-0.816943
0.718101,-0.961333,0.632120,0.564587,0.801232,-0.198163
0.321498,-0.088419,0.419692,-0.314473,-0.924460,-0.215594
0.218976,-0.599969,0.610387,0.393769,0.341018,-0.853612
-0.102554,0.533610,0.246874,-0.181455,0.974654,0.130854
0.225238,0.107979,0.151815,0.933277,0.358413,0.023129
0.453953,-0.341918,0.601669,0.307347,0.648182,0.696705
-0.606563,-0.081850,0.470541,0.142066,-0.020151,-0.989652
0.243956,-0.664465,0.670505,0.148308,-0.941727,-0.301920
-0.647917,0.302504,0.589205,0.493091,0.839880,0.226854
0.587783,0.189268,0.621956,-0.807469,-0.279311,-0.519596
0.635255,0.361924,0.625895,0.220777,-0.902819,0.369020
-0.012968,-0.065876,0.851160,0.763274,0.387002,-0.517342
0.584410,-0.969023,0.553135,0.241811,0.939482,-0.242696
0.697250,-0.364239,0.764833,0.751028,0.014692,-0.660107
0.248907,-0.054604,0.234933,0.924414,-0.210743,0.317877
0.157120,0.028029,0.737123,-0.610763,-0.491719,0.620630
-0.379225,0.110589,0.601187,0.072355,0.227759,0.971026
0.425673,-0.119173,0.909005,0.785310,-0.005505,0.619078
0.172189,-0.344306,0.868059,-0.373897,0.077574,0.924221
0.101110,0.163066,0.798342,0.779202,0.625924,-0.032610
0.207419,0.067594,0.871653,0.089174,-0.292774,0.952014
0.546429,-0.020265,0.597235,-0.151755,0.642160,-0.751400
0.007950,0.317284,0.735773,0.798172,-0.354842,-0.486835
-0.095604,0.064532,0.716877,-0.381721,0.825599,0.415543
0.489869,0.084237,0.494767,-0.150465,0.819282,0.553298
0.758766,-0.284740,0.317940,0.192587,-0.756178,0.625384
-0.691954,0.325571,0.558960,0.902976,0.164928,0.396777
0.257579,-0.053857,-0.111282,-0.203161,-0.822685,0.530957
0.225721,-0.535925,0.787241,0.130242,-0.483334,-0.865693
-0.477484,0.542567,0.371777,0.320860,-0.427060,-0.845381
0.111366,0.256000,0.571824,0.206933,0.513536,0.832742
-0.169849,-0.798604,0.622604,0.665817,0.723403,0.182693
0.166204,-0.113651,-0.261445,0.885912,0.455604,-0.087091
0.736541,-0.540030,0.647394,-0.572616,-0.699911,-0.426890
-0.048610,0.255627,0.758443,0.741755,-0.510965,0.434414
0.432208,-0.564664,0.827264,0.951489,-0.042125,-0.304786
-0.637182,-0.177623,0.511004,0.110918,0.430325,0.895833
0.400904,-0.087226,0.503994,0.605881,0.590664,-0.532940
0.275398,-0.203524,0.881707,-0.656528,0.753893,-0.024812
0.388586,0.235248,0.235043,0.861691,0.505978,-0.038413
-0.448515,0.190985,0.626116,-0.601987,0.396924,-0.692866
-0.071179,-0.776881,0.693560,-0.824223,-0.215243,0.523762
0.319435,-0.124025,0.503016,-0.985471,-0.083200,0.148071
0.681497,-0.726122,0.635591,0.848767,0.194680,-0.491624
0.823238,-0.738961,0.634062,-0.170821,-0.156200,0.972842
0.264803,0.051916,0.327126,0.536505,-0.444726,0.717204
-0.153404,0.423581,0.539817,0.414215,-0.489636,-0.767256
-0.048610,0.005859,0.724617,0.972778,0.045363,-0.227254
-0.096709,-0.655658,0.718199,0.720305,0.693626,0.006588
-0.415279,-0.093272,0.395108,-0.473885,0.579655,-0.662897
0.363884,0.112380,0.867783,0.789993,0.545192,-0.280493
0.036436,-0.071175,0.893965,-0.626645,-0.778890,-0.025431
0.212303,-0.154031,0.955170,-0.495604,0.676201,-0.545095
-0.335742,-0.436420,0.619505,-0.027051,-0.834988,0.549603
0.383219,-0.021013,0.619064,-0.554331,0.797549,-0.237977
-0.224272,-0.687382,0.662668,0.377640,0.870850,-0.314656
0.651150,0.095882,0.625730,-0.259012,-0.588602,0.765807
0.424573,-0.600493,0.829495,0.856662,-0.074579,-0.510459
0.669179,-0.960212,0.563340,-0.115118,0.846670,-0.519518
0.500603,0.089763,0.612205,-0.284539,0.793036,-0.538638
-0.505142,0.055351,0.615800,-0.216268,-0.845054,0.488991
0.293356,-0.019222,0.631528,-0.630954,0.763967,0.135099
0.351155,-0.568395,0.817568,0.552445,0.197647,-0.809778
0.267142,-0.159558,-0.209440,0.454029,-0.831268,0.320705
0.212580,-0.365282,0.865731,-0.301850,0.847084,-0.437419
0.545257,-0.904678,0.610139,0.157089,-0.324676,-0.932689
0.233083,-0.126340,-0.541125,0.864600,0.410651,-0.289537
0.462827,-0.010784,0.875551,0.002702,0.985434,0.170035
0.228888,-0.036690,-0.217869,-0.340822,0.938136,-0.061171
0.958029,-0.107081,0.303837,0.855016,0.234641,0.462484
-0.577250,-0.059903,0.381335,-0.156609,0.243219,0.957245
0.256752,0.107527,0.383043,0.817252,0.003181,-0.576271
-0.355762,0.526443,0.383553,0.206007,-0.669390,-0.713777
-0.336427,-0.442466,0.571259,0.965823,0.244277,-0.086688
-0.012624,0.469711,0.545078,-0.276270,0.935153,-0.221731
0.231227,-0.073266,-0.011211,0.919377,0.042156,0.391111
0.561636,0.581234,0.596022,0.118552,-0.988209,-0.096889
0.443908,0.328556,0.597276,-0.188653,0.219648,0.957165
0.621908,-0.139402,0.818174,-0.179110,0.878167,0.443557
0.227716,0.286234,0.437500,-0.187994,-0.179624,0.965605
0.067328,-0.725825,0.636720,0.799969,-0.155929,0.579428
-0.017718,0.685664,0.371281,-0.686806,0.580106,-0.437921
0.070218,0.719702,0.688244,0.817533,0.553735,0.158171
0.091753,0.514128,0.651251,-0.625303,0.481541,-0.614097
0.419273,-0.100958,0.744959,-0.618082,0.515060,0.593875
0.335192,-0.037957,0.292186,0.937089,-0.190445,0.292565
0.141640,-0.123875,0.904666,-0.718743,-0.614029,0.326156
-0.420579,0.480090,0.542075,0.896829,-0.440373,0.042065
-0.357072,0.024972,0.392808,0.012971,0.224259,0.974443
0.241822,-0.167321,-0.018125,0.971577,-0.234683,0.031004
0.156432,-0.113277,-0.110608,0.752594,0.645329,-0.130970
0.597551,0.095436,0.555531,0.762781,-0.528724,-0.372313
0.398426,-0.318628,0.808878,0.961968,-0.032611,0.271208
0.475972,0.335649,0.662337,0.917889,0.396192,0.022626
-0.036020,0.370954,0.638993,0.575597,0.546271,0.608504
0.085147,-0.724855,0.771513,-0.262496,-0.488901,0.831908
0.307324,0.326469,0.344714,-0.535839,-0.837597,0.106338
0.201431,0.336469,0.544527,-0.436706,0.258320,0.861718
0.252830,0.112006,0.668039,-0.771481,0.320176,0.549823
0.714867,-0.134996,0.341932,-0.091719,-0.006213,0.995766
0.323081,-0.529655,0.614712,0.026008,0.015093,0.999548
0.227166,-0.077298,0.146926,-0.636027,0.381809,-0.670591
0.754222,-0.747025,0.632506,-0.064392,0.332062,-0.941057
0.472667,0.322956,0.710280,-0.219850,-0.499976,-0.837669
0.230399,0.261522,0.392863,0.726391,0.636238,-0.259916
-0.017029,0.724855,0.695984,-0.306487,0.932561,-0.190779
-0.236317,-0.551675,0.663673,0.315319,0.218332,-0.923529
0.637598,0.195163,0.714756,0.344247,0.259797,-0.902219
-0.130629,-0.563543,0.684043,0.912103,0.248522,-0.326045
0.075791,-0.090807,0.290037,0.492133,0.772610,0.401098
0.320053,-0.785391,0.576341,0.804809,0.066527,0.589794
-0.012280,0.116038,0.892478,0.568908,0.237295,0.787423
0.561770,-0.039825,0.900755,0.755623,0.410771,-0.510197
-0.576771,0.408205,0.564580,0.102729,-0.991442,0.080553
-0.636561,0.439108,0.377520,-0.233578,0.086625,0.968472
0.292877,0.016835,0.383636,0.741742,0.636573,-0.211175
0.134413,-0.093568,-0.647642,0.515933,0.856517,-0.013826
0.328175,0.431718,0.576424,0.573513,0.634635,-0.517997
0.536178,-0.227634,0.849438,0.418435,-0.107391,0.901875
-0.263492,0.199419,0.564290,0.942425,-0.298235,-0.151297
-0.450304,-0.162542,0.485663,-0.760596,0.048296,-0.647427
-0.495991,-0.327138,0.382396,-0.255526,-0.564694,0.784746
-0.188013,0.554212,0.229438,-0.088608,0.989274,0.116125
0.063750,-0.654236,0.753512,-0.408943,-0.816920,0.406703
0.280904,-0.684771,0.782710,0.878666,-0.364890,0.307899
0.720579,-0.009590,0.353005,-0.017347,-0.449644,0.893040
0.298034,-0.037583,0.114271,0.269564,0.960858,-0.063937
0.058727,0.454335,0.652669,0.866770,-0.164386,0.470836
0.250562,0.189044,0.225278,0.692247,-0.010132,0.721589
0.244300,-0.641324,0.789004,0.176475,0.409658,0.895006
-0.267142,0.900200,0.512988,-0.738573,-0.282369,-0.612190
-0.098498,-0.104170,0.730801,-0.581761,0.646117,0.494052
-0.670553,0.392527,0.555214,0.521971,0.244759,-0.817092
-0.285238,-0.222481,0.526003,-0.224105,0.229683,0.947113
0.250768,-0.126262,0.166662,0.990085,-0.018125,-0.139298
-0.226338,0.638262,0.358996,-0.488782,-0.867480,-0.092576
0.830873,-0.570860,0.616117,-0.327888,0.429015,0.841686
-0.504937,-0.094761,0.389819,-0.755214,-0.096383,-0.648354
0.021435,0.170757,0.888938,0.868422,0.127019,0.479280
-0.014069,-0.281154,-0.935765,0.828797,-0.557670,-0.045817
-0.044276,0.281382,0.767161,0.822255,-0.275837,0.497805
-0.467300,0.465533,0.575515,0.487174,-0.549173,0.679021
0.642961,-0.227038,0.658715,0.849463,0.000416,-0.527647
-0.832729,-0.068487,0.377507,-0.750979,-0.416880,0.512095
-0.142464,0.504351,0.232867,0.162626,0.972264,0.168096
0.234939,-0.140896,0.950860,0.017057,0.608449,0.793409
0.255996,0.161052,0.861696,0.051772,0.997936,0.037998
0.956446,-0.110366,0.307528,0.870155,0.173074,0.461384
0.494064,0.121337,0.729479,0.153681,-0.574586,0.803886
0.813260,-0.511140,0.608748,0.165366,-0.063056,0.984214
-0.052877,0.236072,0.820722,0.403263,0.697884,-0.591893
0.016962,0.288025,0.748031,0.797295,-0.570585,-0.196860
0.595350,-0.363118,0.724245,0.884258,0.046160,0.464712
0.008773,0.249207,0.614740,0.607904,-0.472409,-0.638186
0.343722,-0.401635,0.602509,0.084092,-0.564348,-0.821243
-0.295695,0.963725,0.503168,0.317710,-0.901581,-0.293620
-0.293906,0.807639,0.522105,-0.629007,-0.485490,-0.607166
0.307395,-0.045793,0.161566,0.406879,0.885819,-0.223101
-0.099392,-0.539433,0.733790,0.864943,0.148747,-0.479320
0.646472,0.243088,0.554360,0.928338,0.280381,0.244082
0.371935,-0.202927,0.675614,0.780485,0.530991,-0.329986
0.020885,-0.519650,0.768386,0.449846,0.743217,-0.495245
-0.021985,-0.144104,-0.966202,-0.457943,0.860577,0.222924
0.644889,0.589148,0.607963,-0.781889,0.434259,-0.447291
0.151136,0.336396,0.552033,0.136715,0.468453,0.872846
-0.129529,-0.121337,0.760619,-0.788839,0.611509,0.061557
0.637733,0.279291,0.363500,0.100073,-0.487243,0.867514
-0.122511,0.676784,0.654088,-0.580609,0.800963,0.146120
-0.446449,0.076925,0.495483,0.684897,0.210010,0.697719
0.074073,0.151420,0.875151,-0.804375,0.021353,-0.593738
0.386797,-0.443364,0.841147,0.755488,0.244630,-0.607777
0.597412,-0.094538,0.671579,-0.190392,-0.903853,0.383145
-0.001684,-0.176351,0.881859,-0.300926,0.910509,-0.283579
0.517872,0.616170,0.608666,-0.641235,0.765615,0.051488
0.164688,0.499048,0.316838,0.764117,0.616687,-0.189268
0.092925,-0.190161,-0.956189,0.925564,-0.311570,0.215072
0.143564,0.208822,0.742783,0.598421,0.373442,0.708825
0.041665,-0.042139,0.888828,0.057269,0.776280,0.627781
-0.307257,0.683126,0.526485,0.660908,-0.152898,-0.734726
0.136479,0.332588,0.552377,-0.038815,0.343928,0.938193
-0.436819,0.067744,0.624091,0.241636,0.459308,0.854780
0.262737,0.156346,0.724149,0.861032,0.080436,-0.502149
-0.221383,-0.695295,0.652490,0.620367,0.703819,-0.346099
0.362645,-0.239129,0.920766,0.068191,0.968570,0.239211
0.297828,-0.226067,0.970169,0.847311,0.318605,-0.424918
0.034920,-0.150450,-0.954165,0.122147,-0.988300,0.091337
-0.023014,0.436643,0.466657,-0.730038,-0.113561,-0.673905
0.770739,-0.876162,0.619229,-0.608112,0.666960,-0.430539
-0.159321,-0.515846,0.702815,0.947930,0.313082,-0.058390
0.623353,0.238979,0.349039,0.330994,0.862195,-0.383487
-0.634843,-0.364836,0.518483,0.417061,0.908818,0.010491
0.321980,-0.513158,0.803631,0.755549,0.082014,0.649938
0.560531,-0.591982,0.741847,0.428719,0.427639,-0.795817
0.179278,0.378795,0.633429,0.975805,0.017752,0.217920
0.062717,0.597135,0.678727,0.559575,-0.554169,0.616256
0.475695,0.243462,0.362040,-0.198445,0.544861,-0.814706
0.058795,0.065206,0.619835,-0.174809,0.247051,-0.953104
-0.649223,0.216959,0.395838,-0.162682,-0.474033,-0.865348
-0.220009,0.407457,0.390494,0.541268,0.774864,0.326521
-0.681904,0.641028,0.362591,-0.113722,-0.133212,0.984541
0.279804,-0.430297,0.754669,-0.385008,0.075668,-0.919806
0.704616,-0.482400,0.626997,0.289783,0.550542,0.782898
0.582483,-0.402605,0.802281,0.867622,-0.300629,-0.396047
-0.642478,0.136194,0.571356,-0.657940,-0.332501,0.675690
-0.694633,0.198895,0.375372,-0.331429,0.113082,0.936679
0.463583,-0.656255,0.611530,-0.614844,0.008745,0.788600
-0.212438,-0.225019,0.654336,0.619066,0.297250,-0.726911
0.290261,-0.140222,-0.200722,0.546552,-0.795670,-0.261131
-0.081225,-0.281378,0.827347,-0.534715,-0.457399,0.710539
0.058589,0.180980,0.883746,0.609751,0.751382,0.252246
0.684109,-0.806668,0.631817,-0.403844,-0.030141,0.914331
-0.043038,-0.008547,0.731917,-0.241514,0.310163,0.919494
-0.199780,0.261076,0.740304,0.141716,-0.894569,0.423868
-0.271887,-0.778302,0.409005,0.789265,0.465143,-0.400878
0.327553,-0.684169,0.611255,0.514584,-0.150858,0.844065
-0.759450,0.254734,0.409638,0.714429,0.378040,0.588793
0.220492,0.084911,0.607674,0.381294,0.351392,0.855067
0.128701,-0.225543,0.920945,0.877974,0.057944,0.475189
0.149414,0.640805,0.654887,0.545227,-0.261452,0.796474
-0.096982,-0.734933,0.534886,0.321864,0.677887,-0.660964
0.540373,-0.231589,0.832154,0.838450,0.239611,-0.489477
0.126501,0.652446,0.222909,-0.062253,0.118515,0.990999
0.392509,0.545032,0.604672,-0.141921,-0.347161,0.927005
0.014279,-0.632663,0.543205,-0.008015,0.170106,0.985393
-0.337599,-0.313553,0.573229,0.427144,0.826938,-0.365680
0.685415,-0.952599,0.605691,-0.367645,-0.739811,0.563487
0.064162,0.020119,0.807280,-0.305855,0.553972,0.774317
-0.003406,0.556080,0.294513,-0.657988,0.243989,0.712406
-0.138402,0.539433,0.350857,0.068287,-0.997612,0.010307
0.506726,0.252342,0.353790,0.349669,0.372363,-0.859696
0.595623,0.450307,0.608611,-0.445613,0.194033,-0.873945
0.569821,-0.995672,0.608432,-0.445767,0.379246,0.810842
-0.266726,0.249881,0.577843,0.307908,0.706806,0.636881
-0.849036,0.112977,0.376061,-0.341561,0.344326,0.874515
0.208452,-0.637515,0.670091,-0.272596,0.862153,0.427064
0.170127,0.546896,0.340803,0.874290,0.485062,-0.018236
0.572504,0.071922,0.657958,-0.011341,-0.889212,0.457355
0.265558,-0.030120,0.942610,-0.167774,0.623449,0.763652
-0.434614,-0.470905,0.571879,0.156173,-0.032193,0.987205
-0.018407,0.389989,0.738899,0.586026,-0.448375,0.674932
0.484846,0.130445,0.354038,-0.124147,0.034391,0.991668
-0.433102,-0.489271,0.551427,0.970225,0.118757,-0.211094
0.054532,-0.199792,0.640990,-0.094656,0.973580,-0.207803
-0.442942,-0.499421,0.427529,0.858864,0.226745,-0.459281
-0.423195,0.687828,0.397119,0.241689,0.961677,-0.129478
-0.196340,0.404919,0.633085,0.025889,-0.785440,0.618396
0.618263,-0.678424,0.636349,-0.595135,-0.114043,0.795492
-0.244711,0.098347,0.455156,-0.350254,-0.088664,-0.932449
-0.452710,0.083494,0.621460,0.241636,0.459308,0.854780
0.571471,0.201287,0.329771,0.063607,-0.697584,0.713674
0.781607,-0.382750,0.676661,0.560021,0.614149,-0.556056
0.558469,0.438138,0.590720,0.571690,-0.162189,0.804279
0.639799,0.276079,0.363844,-0.244627,0.541636,-0.804231
-0.669385,0.225470,0.577939,0.882529,0.314118,0.349961
0.166960,-0.078788,0.071108,0.999983,0.004804,-0.003410
-0.045238,0.513905,0.663481,0.136914,-0.151309,0.978959
0.168610,-0.180679,-0.293149,-0.202949,0.970135,-0.132855
0.164344,0.023774,-0.991902,-0.094905,0.053564,0.994044
-0.511748,0.095508,0.625923,-0.321148,-0.570784,0.755691
0.285994,-0.509126,0.808079,0.885087,0.026214,-0.464687
0.525578,0.430971,0.603790,0.773341,0.415517,0.478842
0.109988,-0.263613,0.786167,0.461176,-0.064031,0.884995
0.485879,0.457396,0.595485,0.281526,0.158067,-0.946445
0.485396,0.309297,0.361586,0.125095,0.460392,-0.878858
0.319574,-0.280407,0.972551,0.755351,0.571054,-0.321467
0.658995,-0.476431,0.695846,0.531482,-0.837893,-0.124350
0.268103,-0.030717,0.103597,-0.230791,0.967442,0.103881
-0.192552,0.609974,0.655107,0.836104,-0.322320,0.443893
0.275470,-0.063038,-0.012271,-0.262419,0.854575,0.448149
-0.149481,-0.321913,0.663123,0.838247,-0.447526,-0.311548
-0.332026,0.673795,0.524130,-0.396792,-0.129178,0.908774
0.454159,-0.592132,0.632561,0.067688,0.440462,0.895216
0.466817,-0.531742,0.835514,0.410658,0.667900,-0.620701
-0.055216,-0.108425,0.833365,-0.582156,0.810501,-0.064676
0.161526,-0.099094,-0.240717,0.976953,-0.213446,0.001941
0.216637,-0.064455,0.125537,-0.699353,0.708985,0.090805
-0.061411,0.596912,0.224741,-0.377670,0.919061,0.112655
0.062238,0.730081,0.347620,0.079452,-0.973327,0.215225
0.666219,-0.824505,0.637698,-0.358290,-0.155101,0.920636
0.628170,0.191058,0.715018,0.344247,0.259797,-0.902219
0.620464,0.006534,0.342001,0.101724,-0.125321,0.986887
0.757250,-0.215839,0.525479,0.868111,-0.262133,-0.421509
-0.034231,0.402682,0.754187,0.898470,0.431836,0.079181
0.237073,-0.040048,-0.208737,0.088667,0.973971,0.208609
0.313312,-0.333558,0.920312,0.332204,-0.875022,0.352104
-0.083358,-0.382527,0.776402,-0.540707,-0.781141,0.312177
-0.143908,0.507408,0.229080,0.203112,-0.937396,-0.282903
-0.206386,0.252119,0.721876,0.244250,-0.555776,0.794642
-0.654657,-0.176875,0.506597,0.540675,-0.675059,-0.501961
0.695738,-0.476431,0.586657,0.586578,0.579608,0.565669
-0.094437,-0.112977,0.684263,0.997798,0.051482,-0.041823
0.288266,-0.725525,0.608308,-0.342117,-0.607528,0.716844
0.316340,-0.152168,0.650204,-0.702739,-0.407286,-0.583332
-0.255992,0.020716,0.608253,0.323518,0.664640,0.673491
-0.565554,-0.354311,0.378856,-0.145151,-0.292210,0.945275
0.634705,0.083121,0.509420,0.175846,0.766272,-0.617985
0.562253,-0.399995,0.640095,-0.002915,-0.727626,0.685968
0.483951,-0.574965,0.836106,-0.513800,0.534464,0.671087
-0.236317,-0.531669,0.662090,-0.275547,-0.061974,0.959288
-0.053633,-0.256597,0.836120,0.495922,0.753166,-0.432205
0.062029,-0.238382,0.843020,0.256700,-0.875019,0.410423
0.432208,-0.127829,0.757286,-0.641866,0.461363,0.612497
0.087281,0.316687,0.754559,0.838174,-0.358430,0.411087
0.964496,-0.234277,0.300931,-0.800082,0.454734,-0.391262
-0.562114,-0.163813,0.510316,-0.228351,-0.351899,-0.907757
0.205214,-0.343039,0.900314,0.442940,0.894228,0.064507
-0.244502,-0.601614,0.557983,-0.788152,0.341573,-0.512000
0.452920,-0.382527,0.794127,-0.570698,0.688751,0.447130
-0.556058,0.203747,0.576686,-0.108469,-0.279916,0.953877
0.554202,0.239280,0.707649,-0.118870,-0.510211,-0.851795
0.079574,0.148213,0.795670,-0.620797,-0.497070,-0.606245
-0.179962,0.520994,0.524295,0.084266,0.485060,0.870412
0.356245,-0.020789,0.349328,-0.001058,-0.880265,0.474482
-0.303057,-0.364161,0.584894,0.962944,-0.029824,-0.268048
0.312897,-0.183445,0.967373,-0.048497,0.004789,0.998812
-0.127601,-0.420520,0.613101,0.255847,-0.011120,0.966653
-0.047233,0.621246,0.679016,0.860526,0.407819,-0.305251
-0.482296,-0.298622,0.539638,0.076551,-0.479162,0.874382
0.458287,-0.424552,0.850705,0.113297,-0.601715,0.790635
0.400077,0.337964,0.601311,0.395537,-0.438128,-0.807214
0.298723,-0.074610,-0.020810,0.943671,0.049782,0.327120
0.248013,-0.169485,-0.121929,-0.369325,-0.818318,-0.440403
0.028730,-0.219497,0.287861,0.032756,0.128347,0.991188
0.706195,-0.714253,0.639392,0.784360,0.432133,0.445017
-0.202602,0.553092,0.342042,0.351043,0.931186,0.098294
-0.490897,0.065352,0.599466,0.531775,0.701933,0.473821
0.742253,-0.599595,0.626777,-0.054982,0.942651,0.329219
0.556269,0.055648,0.354176,-0.042083,-0.652573,0.756556
-0.271820,-0.595942,0.659418,0.308684,0.195161,0.930927
0.661818,0.045274,0.632919,-0.514483,-0.083028,0.853472
-0.643923,0.291533,0.589907,0.570561,0.776559,0.267237
0.263631,-0.050422,0.102041,-0.230791,0.967442,0.103881
0.537895,0.079312,0.643001,-0.621978,-0.487713,-0.612600
-0.211820,-0.239129,0.619698,0.650884,-0.416679,0.634610
0.494203,-0.140072,0.873581,-0.251645,0.880746,0.401200
0.411567,-0.233530,0.958310,-0.545884,-0.807704,-0.222766
-0.073863,-0.260329,0.410754,0.136779,-0.022950,0.990336
-0.873877,0.125369,0.373513,-0.087217,0.486563,0.869281
-0.180857,-0.302951,0.651223,-0.584850,0.337795,0.737459
-0.513122,0.016534,0.498595,0.101890,0.055934,0.993222
-0.691059,0.421267,0.369973,-0.489399,0.151813,0.858744
-0.422507,0.790991,0.491337,-0.547446,-0.345913,0.762002
-0.050744,-0.196731,0.856132,0.661277,0.711568,-0.237454
-0.965731,0.013996,0.380289,-0.400575,-0.130732,-0.906890
0.526061,0.237266,0.660740,0.853085,0.518470,0.058612
0.155537,0.426939,0.535409,0.152623,0.021723,0.988046
-0.094025,-0.919084,0.443477,0.714281,-0.016432,-0.699666
-0.612619,0.385661,0.377341,0.459237,-0.233604,-0.857047
-0.290949,-0.829435,0.405272,0.441801,0.619902,-0.648485
0.776106,-0.166050,0.685723,-0.822825,-0.103957,0.558706
0.060999,0.712166,0.239147,0.093724,0.295432,0.950755
0.643306,-0.386554,0.647105,-0.187246,-0.814359,0.549325
0.539684,-0.686935,0.814029,0.869919,0.230677,0.435923
-0.619225,-0.337289,0.530851,0.157474,-0.054659,0.986009
0.712389,-0.149553,0.733197,0.551886,0.498948,-0.668186
0.523583,-0.104689,0.826920,-0.489572,-0.526325,-0.695199
0.272853,-0.107304,0.808616,0.812114,-0.180464,-0.554891
-0.377713,0.714481,0.529845,0.885438,0.119272,-0.449192
-0.034714,-0.270033,0.291318,0.164749,0.138402,0.976577
0.340904,-0.089836,0.159941,0.999574,0.026024,-0.013216
0.769223,0.101035,0.298066,-0.499380,-0.853101,-0.151124
0.643994,0.527564,0.593144,0.240673,-0.520688,0.819122
-0.705367,-0.307133,0.555751,-0.628893,-0.260139,0.732681
-0.265075,-0.697532,0.654088,0.736464,0.617674,-0.275863
-0.107166,0.525846,0.376322,-0.399924,-0.320360,-0.858738
-0.104205,-0.271377,0.825639,-0.171237,-0.952758,0.250859
0.390854,-0.576009,0.744739,-0.673354,-0.072978,-0.735709
-0.177900,0.552946,0.669637,0.038948,-0.809112,0.586363
-0.663947,0.430374,0.567761,-0.413824,-0.500972,0.760116
0.378469,-0.053411,0.858473,0.033957,-0.847859,0.529133
0.255446,-0.013996,0.737563,0.356405,0.887893,0.290899
0.166893,0.270183,0.560586,-0.596586,-0.415901,-0.686376
-0.430902,0.570637,0.378443,-0.418468,0.356056,0.835529
-0.002717,-0.318405,0.836258,-0.138166,-0.283539,0.948955
-0.197163,0.206435,0.661277,-0.438296,0.088538,-0.894459
0.167577,0.075804,0.742453,-0.436494,-0.455385,0.775949
-0.294317,0.677677,0.390715,0.736380,-0.067154,0.673228
-0.676197,0.340424,0.569290,0.977638,0.178756,-0.110771
0.226204,0.030717,0.893111,0.004940,-0.080449,0.996747
-0.719335,0.295565,0.558616,0.980283,0.185455,0.068211
-0.521382,0.202029,0.635426,-0.696323,0.556254,-0.453560
0.621081,0.055201,0.336795,-0.125929,-0.694901,0.707993
0.252762,-0.230769,0.883346,0.891606,-0.436418,-0.120742
-0.376748,0.240624,0.588751,0.227288,0.579050,0.782970
0.680048,-0.744036,0.635495,0.702036,0.138307,-0.698582
0.158426,0.505841,0.295202,0.109494,0.899609,0.422746
0.080540,0.239726,0.736255,0.312712,0.075164,-0.946869
-0.129734,-0.196658,-0.992329,0.426990,-0.306677,-0.850664
0.308701,-0.153735,0.029584,-0.617378,0.591390,-0.518751
-0.434341,-0.189714,0.527352,0.879030,-0.333502,-0.340711
-0.055905,-0.283769,0.835128,0.474215,0.601049,-0.643320
0.234805,0.191582,0.354272,-0.609693,-0.202373,0.766368
0.060861,-0.203597,-0.783440,-0.431089,0.899495,0.071206
0.095882,-0.357965,0.627699,-0.366421,-0.583390,0.724839
0.230399,-0.169335,-0.402435,0.971844,0.008862,-0.235457
-0.032303,0.661480,0.371956,0.029454,-0.345137,0.938090
0.297967,-0.341322,0.897504,-0.247240,0.948196,0.199491
-0.745209,-0.226664,0.506928,0.116475,0.771956,-0.624914
0.591016,0.575261,0.605167,-0.177911,-0.930057,0.321468
-0.100010,-0.824505,0.621984,0.181609,0.947856,0.261893
0.482368,-0.279063,0.862564,0.881103,-0.413178,0.230090
-0.189184,0.566304,0.673714,-0.720816,-0.502076,0.477853
0.276226,0.061024,-0.990469,0.127848,-0.064871,-0.989670
-0.053633,-0.767477,0.666772,-0.623484,0.737529,-0.259458
0.300100,-0.067070,0.926454,0.009715,-0.885527,0.464486
-0.028036,0.044677,0.904129,0.366450,0.304162,0.879318
-0.167233,-0.399024,0.670656,0.812870,-0.123183,-0.569271
0.700072,-0.316988,0.318808,0.067730,-0.805945,0.588104
0.711012,-0.191728,0.783385,-0.257605,-0.907749,-0.331108
0.529500,0.110963,0.733363,0.169326,-0.737177,0.654139
0.636565,-0.159257,0.339963,-0.496651,-0.646350,0.579284
0.322736,-0.069607,0.747397,-0.319586,-0.897829,-0.302932
0.508926,-0.210317,0.841491,0.532648,0.680511,0.503180
0.484984,-0.742469,0.612219,-0.311061,0.610666,0.728236
-0.112671,-0.095436,0.673700,0.938479,0.264323,-0.222239
0.313035,-0.099691,0.002383,0.979182,-0.198987,-0.040084
-0.158771,0.536075,0.666552,0.236736,-0.946879,0.217662
-0.133657,0.308550,0.580005,-0.500019,0.235209,0.833461
-0.352184,0.513085,0.495317,-0.483144,0.873317,-0.062358
0.657479,-0.333781,0.762671,0.243947,0.919523,-0.308169
0.269620,0.007353,0.633140,0.817861,0.566464,-0.101106
-0.585989,-0.091554,0.382396,-0.370882,0.229733,0.899816
0.871265,-0.077895,0.355608,-0.191025,-0.699240,0.688892
0.005334,0.468071,0.471573,-0.692306,-0.391272,-0.606316
-0.605391,-0.001905,0.501928,0.068055,0.641597,0.764017
-0.102072,0.304668,0.249931,-0.662133,0.000719,0.749386
0.007055,-0.019445,0.883773,-0.214767,-0.929330,0.300369
0.317163,-0.045870,0.135495,0.960199,0.236931,0.147923
0.706472,-0.533906,0.646196,-0.032035,0.830186,0.556565
-0.288677,-0.412460,0.431454,-0.212616,-0.030959,0.976645
-0.020125,-0.202403,0.857729,-0.198383,0.902375,-0.382575
0.432829,-0.035943,0.889200,0.449943,0.451044,0.770785
0.705577,-0.813088,0.652380,0.682233,0.065777,-0.728170
-0.866309,0.212481,0.384930,-0.140231,0.563523,-0.814111
-0.673858,0.425595,0.557900,0.369959,0.689848,-0.622286
-0.310902,-0.717912,0.563505,0.119774,0.992444,-0.026620
-0.067668,0.110439,0.726986,0.836419,-0.199830,-0.510364
-0.163587,-0.462249,0.686233,0.984578,-0.120734,0.126604
0.053566,0.094616,0.277077,-0.652425,0.008566,-0.757805
0.620464,0.343335,0.545574,-0.302584,0.919831,-0.249707
-0.083152,-0.343262,0.810668,0.884223,0.289620,0.366429
-0.134686,-0.333709,0.691893,-0.644499,0.758655,-0.095208
-0.872705,0.166050,0.376143,-0.205174,-0.552818,0.807649
0.164965,-0.305789,0.625620,0.828268,0.034917,0.559244
0.107027,0.039301,0.844742,-0.249950,0.852424,0.459237
0.210447,-0.688279,0.593158,-0.149213,-0.886823,0.437357
0.309184,-0.547046,0.798493,-0.654125,-0.614296,0.441318
-0.259847,-0.481580,0.660547,0.928034,0.206529,-0.309998
0.071662,0.141493,0.726077,0.461150,0.200152,-0.864453
-0.207142,-0.564213,0.589921,0.201442,0.713681,-0.670881
-0.082325,0.588328,0.509007,0.263208,0.317115,0.911131
-0.303678,0.603031,0.528551,0.788609,-0.396109,-0.470312
0.386247,-0.384390,0.845940,-0.591519,0.521349,0.615061
-0.081708,0.199195,0.687321,-0.337222,0.261176,0.904471
0.184850,-0.184935,0.946149,-0.105800,-0.813481,0.571887
-0.579316,0.408952,0.563698,-0.148218,0.977907,0.147407
-0.322048,-0.138358,0.721642,0.909868,-0.258926,-0.324188
-0.098632,0.490542,0.548397,-0.411229,0.809162,0.419699
0.115700,-0.241667,0.621571,-0.128243,-0.229136,0.964909
0.350193,-0.128280,0.572706,0.707417,-0.022791,-0.706429
-0.466199,-0.465383,0.576286,0.891402,-0.167204,0.421242
-0.471701,0.489571,0.384572,-0.419717,0.757979,0.499305
-0.214915,0.887137,0.500964,0.778122,0.224088,0.586780
-0.085903,-0.040795,0.735484,-0.472506,0.504097,0.722928
0.417072,-0.417535,0.848984,0.426802,-0.090498,-0.899806
0.686448,0.353040,0.550435,-0.055990,-0.954320,0.293493
-0.166338,-0.624827,0.678575,-0.692388,0.349419,0.631273
0.731725,0.065129,0.363913,-0.009124,-0.529074,0.848527
0.610074,0.049752,0.513607,-0.273060,0.580240,0.767307
-0.179479,0.555483,0.661842,-0.371474,0.920359,-0.122255
0.002167,-0.535925,0.757217,0.609618,-0.307390,-0.730669
0.421956,0.195163,0.736296,0.411152,0.796057,-0.444125
0.385214,-0.486209,0.838034,0.438502,0.831709,-0.340553
0.144114,0.517787,0.646127,-0.543613,0.234139,-0.806017
-0.200053,0.377747,0.535327,-0.589702,0.457670,0.665424
0.616680,-0.481206,0.587952,0.644867,0.532375,0.548383
0.434685,0.427536,0.605402,0.808323,-0.242391,-0.536526
0.142879,0.405366,0.242948,0.392077,0.539361,-0.745228
0.092030,-0.397156,0.823780,-0.722550,-0.671063,0.166121
0.272303,-0.132759,0.910203,0.267560,0.936621,-0.226170
-0.031409,-0.834884,0.665478,-0.421284,0.876458,-0.233114
-0.519043,0.272721,0.579426,0.087874,0.556745,0.826022
0.483678,-0.358489,0.573504,0.843427,-0.381984,0.377781
-0.480646,0.565634,0.375000,0.369568,-0.486730,-0.791526
-0.353839,-0.454038,0.613156,-0.390999,-0.920363,-0.007189
0.192968,-0.065056,-0.340679,-0.674488,0.162194,-0.720249
-0.273815,-0.695592,0.653771,0.872446,0.458627,-0.168819
0.004162,-0.086998,0.866048,-0.479911,0.445344,-0.755880
-0.497503,0.183368,0.640164,-0.688109,0.387774,-0.613300
0.179756,0.114694,0.873884,0.056174,-0.164211,0.984824
0.448721,0.357222,0.611985,-0.425112,0.900587,0.090678
0.086869,0.152765,0.384324,-0.246666,0.788271,-0.563724
-0.265558,0.625200,0.535258,0.406190,0.093207,0.909023
-0.405855,0.267199,0.394860,0.117867,-0.242933,0.962856
0.337670,0.295565,0.352675,-0.312214,0.778467,0.544529
-0.260880,-0.187997,0.625496,0.019478,-0.413609,0.910246
0.218015,-0.124922,0.073821,0.882117,-0.446517,0.149972
0.256063,-0.045793,0.945667,0.058633,0.232741,0.970770
-0.438881,0.360056,0.533564,0.476516,0.275557,0.834866
0.080125,-0.123802,-0.870014,-0.610491,-0.696470,-0.377135
-0.465922,-0.575111,0.432500,-0.067070,-0.236221,0.969382
-0.167027,0.613482,0.653785,-0.544148,0.326691,-0.772771
0.548630,0.117979,0.705762,-0.588865,0.623809,-0.513906
0.226616,-0.425299,0.817072,-0.149763,-0.855576,0.495541
0.600096,-0.680812,0.622259,-0.551744,-0.556668,0.621047
-0.413834,0.816222,0.368692,-0.115487,0.808013,0.577735
