-0.038043,-0.641749,0.371288,-0.697893,0.360632,-0.618781
0.501316,-0.811081,0.574433,-0.561603,0.705753,0.431873
-0.866491,-0.478900,0.631746,0.296013,0.683298,0.667443
-0.322706,-0.111719,0.625085,-0.500490,-0.789408,-0.355450
-0.117718,0.597580,0.029256,-0.137436,-0.127453,0.982276
0.413327,-0.880983,0.513309,0.283025,0.758670,0.586785
-0.642003,-0.278458,0.672773,0.578504,0.584863,0.568567
-0.044981,0.643046,0.009061,-0.576956,-0.004869,-0.816761
0.486243,-0.063901,0.561463,-0.579720,0.079338,0.810944
0.666707,-0.347928,0.485717,-0.536608,0.402236,0.741794
0.399151,-0.709828,0.667650,-0.692041,0.600351,0.400821
-0.488635,-0.472850,-0.097832,-0.642546,0.618772,0.451946
0.305000,-0.444813,0.724328,0.752536,0.288642,-0.591925
-0.067173,-0.147823,0.822626,0.788984,0.404699,0.462303
0.092117,-0.075616,0.691967,0.618280,0.641779,0.453706
0.265343,0.820827,0.366433,0.651068,0.179822,0.737411
0.156777,-0.051131,-0.980820,-0.014176,0.059506,0.998127
-0.127048,-0.268808,-0.197287,0.862141,-0.503625,0.055451
0.018842,0.254645,0.784041,-0.560725,0.713873,-0.419491
-0.056526,-0.447309,0.444902,0.880894,0.012962,0.473136
0.499461,-0.216573,0.447584,0.054869,0.671357,0.739100
0.587151,-0.124634,0.561561,-0.023587,-0.766327,0.642018
-0.016330,0.108166,0.562211,0.619818,0.765093,-0.174526
0.088946,-0.011042,0.641682,0.781733,-0.150186,-0.605258
-0.498086,0.014163,0.854451,0.688948,0.596073,0.412369
-0.590740,-0.418551,0.605693,0.102673,-0.464273,-0.879721
-0.108864,0.003889,0.562691,-0.493437,0.443401,-0.748275
-0.203434,0.341111,0.368776,0.260512,0.307003,0.915359
0.234478,0.200970,-0.039997,0.625226,-0.019904,-0.780190
-0.195657,-0.611935,0.808273,0.689287,0.724288,0.017038
-0.616461,0.307408,0.370046,-0.511945,0.598216,0.616482
-0.431870,-0.624082,0.681551,-0.237547,-0.196067,0.951383
-0.393528,0.419415,0.374040,0.198886,0.903007,0.380819
0.321390,-0.599357,0.658081,-0.722226,0.635546,0.272895
-0.689855,-0.582217,0.602546,0.334729,-0.618463,-0.710957
-0.077461,-0.186903,-0.766216,0.999106,0.030418,-0.029347
-0.507835,-0.589083,0.619439,0.616429,-0.116148,0.778797
-0.337420,-0.380671,0.841368,0.788670,0.409161,-0.458898
0.029848,-0.340247,0.496260,0.290685,0.356274,0.888015
-0.574350,-0.206635,0.665067,0.870640,-0.280324,0.404234
-0.060593,-0.774881,0.546785,-0.587103,0.652434,-0.479209
-0.346333,-0.426617,-0.393841,0.829875,-0.335359,-0.445917
-0.018842,0.130875,0.611296,0.965679,-0.169776,-0.196572
0.046716,-0.075087,-0.981992,-0.070761,0.063592,0.995464
-0.525003,-0.007490,0.634456,0.404943,-0.820427,-0.403635
0.103361,-0.023141,-0.984758,-0.044806,0.081638,0.995654
-0.202117,-0.383936,0.642811,-0.174909,-0.227494,0.957942
0.875823,-0.642854,0.455064,0.301215,-0.880414,0.366253
-0.076864,0.704354,0.015553,-0.772764,-0.049564,-0.632755
0.340113,-0.123674,0.272087,0.241893,0.230836,-0.942445
-0.056406,-0.554611,0.713447,0.815532,0.337840,-0.469863
-0.420266,-0.266023,0.795091,-0.429679,-0.835420,-0.342709
0.766779,0.077872,0.608502,0.745420,0.132767,-0.653239
0.367627,-0.443324,0.745724,-0.653449,0.457921,-0.602755
0.212047,-0.213452,-0.971971,-0.148593,0.371236,0.916572
-0.654863,-0.140237,0.657432,-0.283251,0.752321,0.594795
0.400048,-0.264871,0.450477,-0.138241,0.987633,0.073962
-0.427743,-0.468001,0.749534,-0.024058,-0.528996,0.848283
0.467041,-0.336886,0.793313,-0.193240,-0.657866,0.727923
0.573813,-0.129099,0.297942,0.609341,0.792820,0.011848
-0.192128,-0.478804,0.808442,0.656222,0.234498,0.717205
-0.118973,-0.269816,0.788049,-0.518298,-0.742667,-0.424043
-0.149300,-0.210188,-0.964689,-0.424382,0.296142,0.855686
-0.083443,-0.343607,0.939935,0.368275,0.194321,0.909182
-0.121605,-0.078112,-0.981893,0.151709,-0.221377,-0.963316
0.782272,-0.602669,0.541013,-0.789506,0.260670,0.555636
0.385572,0.232272,0.501016,-0.323148,-0.141008,0.935784
0.076146,-0.198569,0.212219,-0.038260,-0.247275,0.968190
-0.269230,-0.058380,0.428418,0.717643,0.186981,0.670840
0.320673,0.271352,0.477631,0.197138,0.075500,-0.977464
-0.398014,-0.840079,0.483953,0.763998,0.369581,0.528882
0.029848,-0.548898,-0.954894,-0.131821,0.313666,0.940339
-0.080751,-0.270584,0.697146,-0.473461,-0.872791,0.118619
-0.054970,-0.252100,-0.272200,-0.402858,0.915107,0.016862
0.026199,0.375294,0.530527,-0.546757,0.254397,-0.797709
0.338976,-0.720198,0.601727,0.164178,0.583366,0.795443
-0.013997,-0.326612,-0.969657,0.045329,0.012301,0.998896
-0.015552,0.702002,0.009343,-0.201955,0.052052,-0.978011
-0.025182,-0.333093,0.914658,-0.384164,0.675639,-0.629229
0.171073,0.157953,-0.049001,0.618006,-0.395534,-0.679427
0.567113,0.406501,0.434007,-0.477519,0.664805,-0.574465
-0.143079,-0.660953,0.803206,-0.628015,-0.121221,-0.768702
0.064601,0.105670,0.740714,-0.005369,-0.516134,0.856491
-0.441978,-0.060493,0.807257,0.188081,0.718598,0.669509
0.059038,-0.280282,-0.970885,0.019080,0.200243,0.979560
0.826653,0.157665,0.332745,-0.312289,0.243912,0.918141
-0.049408,-0.365020,0.944168,-0.006005,-0.995453,0.095063
-0.466383,-0.710452,0.488244,0.005073,0.109928,0.993927
-0.038222,-0.213932,-0.682229,-0.803524,0.587274,0.097256
0.263968,-0.762399,0.629389,0.068395,-0.446691,0.892070
0.112753,0.234097,0.548648,0.905337,0.402808,0.134575
-0.837959,-0.404340,0.614274,0.722485,0.259727,0.640747
-0.300873,-0.512747,0.866899,0.757367,0.493812,0.427254
-0.453044,-0.062557,0.634117,0.390203,-0.812438,-0.433227
-0.243330,-0.569686,0.887476,-0.914318,-0.047453,-0.402207
0.391973,-0.811417,0.539587,-0.787789,-0.290057,0.543374
-0.653846,-0.420567,0.050948,0.388097,-0.900284,-0.197154
0.445627,0.371694,0.461358,-0.482348,0.412380,-0.772841
0.358536,-0.579865,0.661087,-0.426770,0.547662,0.719676
0.066336,-0.188247,-0.735223,-0.497084,0.865169,-0.066252
0.073813,0.004561,0.536214,-0.555941,0.456178,-0.694860
0.712286,-0.070815,0.331461,-0.453568,-0.392689,0.800044
-0.100131,-0.263911,-0.668313,0.304270,-0.940278,-0.152636
0.404414,0.555476,0.332618,-0.033161,-0.760277,0.648753
0.415779,-0.723030,0.605157,0.087338,0.447014,0.890253
0.221438,-0.197993,-0.976883,-0.232462,0.309849,0.921930
-0.038701,-0.504297,0.712925,0.058731,0.641763,0.764651
0.017347,0.336646,0.618988,0.993885,-0.040195,-0.102847
0.827013,-0.581449,0.449433,-0.197885,0.931799,-0.304289
0.320792,-0.728888,0.529948,0.352134,0.207641,-0.912626
-0.132312,-0.229056,0.064822,0.113813,0.989613,0.087825
-0.148582,-0.239714,-0.968994,-0.499473,0.024295,0.865989
0.431331,0.496951,0.461259,0.881625,-0.041768,-0.470099
-0.033377,-0.002593,0.600754,0.866719,0.475219,-0.151542
-0.266120,-0.538528,0.660240,0.447596,-0.218170,0.867214
0.124417,0.495223,0.356342,0.206628,-0.482666,0.851081
-0.611975,-0.631139,0.642895,0.513037,-0.840436,-0.174529
0.537923,0.065246,0.451804,-0.404140,-0.642698,0.650853
-0.745125,-0.581017,0.605552,-0.568056,0.115125,-0.814898
-0.103422,-0.752941,0.851205,-0.771420,0.447685,0.452206
-0.106173,-0.065390,0.766018,-0.179642,-0.716202,0.674376
0.117957,-0.766960,0.734857,-0.363522,-0.929880,-0.056357
0.211508,0.088530,0.695170,0.150496,-0.588539,-0.794338
-0.548690,-0.148159,0.666267,0.621527,-0.040139,0.782364
0.131954,0.186279,0.316459,-0.599519,0.375347,-0.706889
0.087510,-0.291901,0.725556,0.310504,0.888683,-0.337387
0.145592,-0.792117,0.737439,0.140209,0.989817,-0.024556
-0.006878,-0.286620,0.535636,0.196198,-0.053831,0.979086
0.130518,0.196313,0.768869,0.538730,0.842436,-0.008407
0.533377,-0.448749,0.433217,-0.604362,-0.769161,0.207698
0.342266,-0.248308,0.877357,0.868466,0.454908,-0.197042
0.061610,0.328196,0.525432,-0.583959,0.058601,-0.809665
0.181182,-0.178117,0.193251,0.034715,-0.437808,0.898398
-0.059277,-0.382256,0.963066,0.372298,0.927440,-0.035352
0.453822,-0.043737,0.323219,0.411767,0.905522,0.102356
0.120589,0.460704,0.184769,-0.560678,-0.126826,-0.818264
-0.182797,-0.365164,0.850358,-0.665914,0.206023,0.717017
-0.071061,-0.420423,0.341509,-0.007880,0.287348,0.957794
-0.614607,-0.230544,0.664136,0.212935,0.449965,0.867289
-0.045699,-0.030102,0.198106,0.214706,-0.033944,-0.976089
0.066456,-0.427289,0.848961,-0.051587,0.790724,0.609995
-0.511784,-0.029142,0.819098,-0.542375,-0.641808,-0.542137
0.341368,0.202698,0.719629,0.848416,0.296129,-0.438746
-0.631355,-0.587402,0.721661,0.970687,0.086827,0.224117
-0.631235,-0.372317,0.705798,0.098064,-0.713654,0.693601
0.617837,-0.687839,0.578906,0.284332,-0.302985,-0.909591
0.445987,-0.375726,0.466820,0.142447,0.986300,-0.083196
-0.518842,-0.432570,0.706390,0.699664,-0.230657,0.676216
-0.938449,-0.490374,0.642303,-0.714982,0.667222,-0.208841
-0.188000,0.315906,0.027380,-0.026113,0.737682,0.674643
-0.173167,-0.353930,-0.721619,0.139419,-0.966445,0.215744
-0.061012,0.419943,0.555733,0.017301,-0.155172,0.987736
0.403697,0.447117,0.443251,-0.559523,-0.354826,0.749021
0.028293,0.534831,0.353943,0.820704,0.086282,-0.564801
0.852375,-0.004465,0.644279,0.893778,0.306929,-0.327042
0.441022,0.492487,0.318844,-0.304797,0.577058,-0.757696
-0.040974,-0.551299,0.787273,0.082565,0.331770,0.939740
0.358416,0.591867,0.314271,0.859316,0.501671,-0.099511
0.568070,0.102934,0.474963,-0.740806,0.658291,0.133639
-0.382043,-0.249844,0.410015,0.863318,0.222296,-0.453062
0.583622,-0.141725,0.530343,0.439438,0.435612,-0.785580
-0.025362,-0.290796,-0.127117,0.950413,0.234264,0.204539
0.344659,-0.269576,0.705882,0.322580,0.442891,0.836534
0.402081,0.586058,0.331165,-0.349455,0.168196,-0.921733
-0.559457,0.015699,0.810686,0.914725,-0.402694,0.033396
0.177653,-0.048682,0.666380,0.053797,-0.978048,-0.201316
0.049289,-0.308176,0.841114,-0.125897,-0.424653,0.896560
-0.238425,-0.349417,-0.250734,0.296444,-0.954374,0.035941
0.466563,-0.628643,0.449433,0.874497,-0.170242,0.454171
0.057543,0.539728,0.011375,0.262639,0.566955,0.780758
0.768871,-0.617648,0.508891,-0.642034,0.632004,0.434008
-0.754875,-0.441980,0.750593,0.905888,0.232182,0.354201
0.027396,0.566038,0.351191,0.885990,-0.158017,-0.435950
0.160965,0.119401,0.408914,0.456852,-0.555656,0.694646
-0.215636,-0.544913,0.726558,-0.553124,0.589947,0.588231
0.052100,0.027030,0.578271,0.962640,0.247229,0.110466
0.372712,-0.825004,0.612609,-0.333363,0.502299,0.797850
0.118136,-0.709540,0.713560,0.949005,0.170861,0.264944
0.584639,-0.397043,0.487863,-0.021910,0.111605,0.993511
-0.018304,-0.475347,-0.964675,-0.026384,0.132429,0.990841
0.170295,-0.364108,0.508143,0.369713,0.734242,-0.569387
0.720601,0.066494,0.353379,0.138923,0.588021,0.796826
0.582188,0.130635,0.465409,-0.958981,0.183926,0.215702
-0.065618,-0.216477,-0.031472,0.824668,-0.563655,0.047066
-0.328628,0.000384,0.727828,0.961363,0.260622,0.088644
0.485884,-0.358731,0.788614,0.832781,0.463433,-0.302828
0.029549,0.193672,0.660396,0.862057,0.049475,-0.504391
-0.236212,-0.116904,-0.424862,-0.032967,-0.971824,0.233392
0.028592,0.439435,0.012434,-0.430153,0.507161,-0.746831
0.309786,-0.226655,0.464209,-0.012100,-0.461156,0.887236
0.104438,-0.447261,0.725768,0.717035,-0.696435,0.028963
0.095884,-0.910605,0.411849,0.758581,0.124139,-0.639643
0.452865,-0.398099,0.482740,-0.206381,0.793911,0.571937
0.346871,-0.527918,0.554815,0.465189,-0.258151,0.846733
0.026977,0.271304,0.519391,-0.388797,0.142020,-0.910312
0.353511,0.004609,0.812408,0.411909,0.138804,-0.900591
0.496889,-0.612511,0.468429,0.884605,-0.253686,0.391303
0.410277,0.621249,0.338899,0.779314,0.276992,-0.562090
0.258404,0.696433,0.342215,-0.496063,-0.122452,-0.859609
0.026858,0.134284,0.593415,-0.718546,0.643809,0.263063
0.428640,-0.017332,0.528650,-0.620362,0.609447,0.493685
-0.052398,0.051995,0.714957,0.433057,0.248483,-0.866440
-0.568190,-0.648567,0.471604,-0.421047,0.191759,0.886537
0.385633,-0.450094,0.495314,0.835370,-0.065598,0.545760
-0.097918,-0.626578,0.635119,-0.636149,-0.204332,-0.744018
0.445748,0.429113,0.474780,0.591339,0.027690,-0.805948
-0.155939,0.833405,0.034859,0.302740,0.238437,0.922765
0.386649,0.248548,0.492068,0.786104,-0.063452,-0.614829
-0.020876,0.567238,0.016018,0.630786,0.387957,0.672011
0.440065,-0.151616,0.523216,0.107013,-0.828684,0.549391
0.129920,0.116088,0.510669,0.963119,0.246261,-0.108428
0.114906,-0.438235,0.833663,0.987398,-0.145874,-0.061372
-0.006161,-0.158673,0.765030,-0.174266,0.015485,-0.984577
-0.185668,-0.272649,0.945128,-0.288764,0.835944,0.466704
-0.269290,-0.186663,0.882748,0.947789,-0.304655,0.094237
0.235316,-0.410917,0.626524,0.222115,0.626022,-0.747503
0.269829,-0.806232,0.602687,-0.036682,0.637725,0.769390
0.271564,-0.820107,0.619609,0.989429,-0.120630,-0.080496
0.631774,-0.408421,0.477560,0.458193,-0.205523,-0.864766
-0.189138,-0.423304,0.955798,0.961008,-0.222921,0.163613
0.919188,-0.524269,0.544132,-0.665866,-0.112803,0.737494
-0.123460,-0.035431,-0.987806,-0.102056,0.147282,0.983815
-0.006520,-0.192184,0.282869,0.890625,-0.427206,0.155826
0.424093,-0.728023,0.554942,0.668142,-0.163805,-0.725779
0.461180,-0.386192,0.763111,-0.380986,-0.835313,-0.396361
0.231488,0.200058,-0.034902,0.616240,-0.028912,-0.787027
0.261993,-0.052859,0.706673,-0.472899,0.079213,-0.877549
0.159169,-0.363100,-0.963659,-0.209864,0.138720,0.967840
0.085716,0.414086,-0.020732,0.613910,-0.605939,0.505917
0.019320,0.142590,0.753923,-0.428149,0.741470,-0.516634
0.079077,-0.367084,0.316304,0.164033,0.961977,-0.218390
0.469075,-0.026502,0.557765,0.682509,0.372040,-0.629101
-0.266120,0.320515,0.368875,0.232923,0.335224,0.912892
0.054552,-0.655672,0.549565,-0.189533,0.949002,-0.251938
0.080452,0.367709,0.338870,0.093948,-0.084819,0.991957
-0.612693,0.088194,0.422787,-0.555524,0.085261,0.827118
-0.603302,-0.691248,0.707689,0.794201,0.149551,0.588965
0.077342,0.499592,0.355312,0.209423,0.646883,-0.733270
-0.395861,-0.645446,0.680578,0.673295,0.031308,-0.738711
-0.170296,-0.421960,0.819916,0.901339,-0.327451,-0.283486
0.078119,0.130875,0.649783,0.834597,0.181883,-0.519968
-0.372353,-0.417879,0.720842,-0.385498,0.454571,0.802968
0.499941,-0.376926,0.748419,-0.202680,0.804853,0.557792
-0.626091,-0.690768,0.724131,0.995149,-0.084340,-0.050638
-0.056586,-0.593932,0.398936,-0.495346,-0.190319,-0.847591
0.560713,-0.223534,0.556608,-0.494075,-0.074879,-0.866189
0.156179,-0.104038,-0.778071,-0.681190,0.689092,0.247250
0.386410,-0.318114,0.780640,-0.265980,-0.751966,0.603159
0.095765,-0.482884,0.803672,0.805353,-0.587924,0.075839
0.460342,-0.660713,0.281416,-0.371856,0.096047,-0.923308
-0.261933,-0.214221,0.870258,-0.537464,0.609200,-0.583102
0.143439,0.141773,0.468147,0.496201,0.555281,-0.667419
0.176277,0.671708,0.356808,0.177729,-0.176893,0.968050
-0.063166,-0.725335,0.814102,-0.463008,0.767344,0.443629
-0.020038,-0.506937,0.715451,-0.456834,0.662104,0.594072
0.310145,0.463152,0.433682,0.361316,0.793425,-0.489823
-0.214977,-0.522493,0.883002,0.986484,0.028628,0.161336
0.426247,0.330789,0.486649,0.079288,0.710545,-0.699170
-0.080273,-0.272985,-0.044781,-0.421989,0.902981,-0.080935
-0.124776,-0.409717,0.918271,-0.474813,0.124042,-0.871302
-0.022431,0.244179,0.001482,0.840369,0.181424,0.510749
0.360569,0.004321,0.822302,-0.179843,0.955100,0.235459
0.661503,-0.201402,0.548803,-0.458196,0.217468,0.861838
0.359672,0.008162,0.670444,0.877338,0.254116,-0.407067
-0.304821,-0.516491,0.761051,0.492697,-0.178716,-0.851652
0.821988,0.213645,0.345108,-0.338843,0.822271,0.457226
0.507537,-0.004369,0.291577,-0.008642,-0.147343,0.989048
-0.391614,-0.451630,0.083578,0.512694,-0.857959,-0.032442
0.524524,-0.523693,0.539023,0.032573,0.040909,0.998632
0.800873,-0.029670,0.626835,0.883924,0.260259,-0.388515
0.089545,-0.210956,0.204231,0.022209,-0.309264,0.950717
0.319656,-0.876038,0.641809,0.012590,0.797872,0.602695
0.209594,-0.169811,-0.980086,-0.178387,0.235096,0.955462
0.068190,-0.188583,-0.738921,-0.497084,0.865169,-0.066252
-0.056466,0.530606,0.576592,-0.255918,0.916068,-0.308748
0.060654,-0.740170,0.736494,0.794982,0.599920,0.089995
0.389341,-0.334630,0.775827,-0.481919,0.372689,0.793005
-0.395681,-0.051082,0.750042,-0.382891,-0.923628,-0.017510
0.528891,-0.610639,0.517811,-0.829852,0.492170,0.262895
-0.016509,0.307072,0.033180,-0.167834,0.129398,-0.977286
0.006819,-0.033319,-0.985675,-0.142982,0.124664,0.981843
0.036607,-0.116184,0.915307,0.541674,-0.659881,0.520717
-0.418889,-0.048874,0.812493,0.935702,0.295341,0.192967
-0.200981,-0.255989,0.496599,-0.455589,0.676418,-0.578703
0.433126,0.056844,0.461499,-0.393847,0.470308,-0.789744
0.809726,-0.011139,0.619284,-0.728794,0.538896,-0.422433
0.386470,-0.921600,0.649726,0.223545,0.973592,0.046324
0.488695,0.019924,0.572626,0.450565,0.208242,-0.868117
-0.430973,-0.291325,0.705219,-0.593172,0.336290,0.731476
0.236332,0.152384,0.693745,-0.656369,0.431456,0.618890
-0.309128,-0.472130,0.922237,0.709470,0.140020,-0.690685
0.327252,-0.356138,0.816769,0.602561,-0.081368,-0.793914
-0.134884,-0.234481,0.935178,0.599633,0.373898,-0.707560
0.380548,0.376542,-0.018051,0.330930,-0.032946,-0.943080
-0.474160,-0.257334,0.872784,-0.610064,0.792335,-0.005263
0.274256,-0.353113,0.318293,-0.033012,-0.102396,0.994196
0.283946,0.174132,0.706503,0.103168,-0.342648,0.933782
0.248295,-0.342551,0.780710,-0.199398,-0.968906,0.146501
-0.017945,-0.699313,0.830431,-0.788909,-0.408954,-0.458672
-0.365355,0.079025,0.606230,-0.435116,-0.375717,-0.818237
-0.373549,-0.502569,0.672335,-0.360454,0.093700,-0.928059
-0.170893,-0.371645,0.901448,-0.407903,-0.612927,0.676709
-0.296926,-0.515867,0.333522,0.159949,0.551045,0.819003
0.149839,0.312113,0.329669,-0.597036,0.527750,-0.604175
0.076803,0.031591,0.661581,0.858482,-0.150587,-0.490237
0.429417,-0.400403,0.734080,0.291255,0.171094,-0.941221
0.048511,0.697489,0.366603,0.966977,-0.252293,0.036106
0.850581,0.032503,0.626722,0.936173,0.223836,0.271068
0.065079,-0.886888,0.414093,0.758581,0.124139,-0.639643
0.036069,-0.429497,-0.967173,-0.034902,0.178342,0.983349
0.728617,-0.114984,0.598608,-0.604331,-0.100632,0.790352
0.059935,-0.029574,0.596971,0.971256,0.174021,-0.162412
-0.044981,-0.339383,0.789658,-0.304727,-0.651646,0.694622
-0.110241,0.244947,0.494199,0.499948,0.643951,0.579119
0.413626,-0.671804,0.598129,0.001680,0.250132,0.968210
0.065079,-0.368717,0.278029,0.753768,0.644266,-0.129441
0.330303,-0.332373,0.530371,0.905691,0.137409,0.401051
0.260139,0.100917,0.707336,0.294110,0.309617,-0.904232
-0.332217,0.023669,0.636460,0.300598,0.384397,0.872857
0.333233,-0.420471,0.629996,-0.696808,0.717184,-0.010294
-0.275690,-0.349465,0.712897,-0.458808,0.356435,0.813910
-0.257746,-0.078304,0.638026,0.552492,0.152437,0.819460
-0.079614,-0.185511,0.915251,-0.278325,0.935350,0.218303
0.833772,-0.306016,0.499887,-0.304857,0.310336,0.900419
0.153607,-0.140717,0.739302,0.293624,0.932443,0.210558
0.456036,-0.019732,0.378909,0.044624,-0.490077,0.870536
0.132193,0.122714,0.678037,-0.140579,-0.986277,0.086571
-0.018124,-0.441884,0.837247,-0.167109,0.450593,0.876950
0.369841,0.036248,0.470052,0.374376,-0.011748,-0.927203
0.522430,-0.258198,0.459425,0.110462,0.553547,0.825460
0.206245,0.516251,0.353520,-0.368191,0.200788,-0.907810
0.191470,-0.313745,0.445834,0.100768,-0.218479,0.970625
0.014775,-0.616976,0.351163,0.713855,-0.578672,0.394397
0.491745,0.403620,0.449376,0.238096,0.126617,0.962953
0.293755,0.185847,0.483093,-0.486787,0.214707,0.846723
0.288851,-0.878919,0.652817,0.003861,0.764951,0.644077
0.454898,-0.108647,0.283307,-0.283285,-0.462509,0.840140
0.289090,0.782179,0.356371,-0.504899,0.015498,-0.863039
-0.064900,0.483797,0.538444,0.428180,0.316101,-0.846606
-0.070104,-0.247780,0.447640,-0.082605,0.994093,0.070389
-0.545998,-0.530510,0.643248,0.714263,-0.669998,-0.202315
-0.225206,-0.501320,0.865671,0.950366,-0.227029,0.212749
-0.291781,-0.029286,0.786003,-0.639417,-0.192726,0.744313
-0.087690,-0.734169,0.486353,0.196201,-0.285107,0.938200
-0.218327,-0.176293,-0.982669,-0.180050,0.255441,0.949911
-0.407704,-0.635364,0.672420,-0.635168,0.271127,0.723224
0.447243,-0.510442,0.503006,0.774282,0.211632,0.596405
0.175320,-0.341783,-0.961415,0.204288,-0.224172,-0.952897
-0.112992,0.274761,0.205558,0.284724,0.132820,-0.949364
0.690633,0.452206,0.554999,0.765582,0.171270,-0.620122
-0.603361,0.062125,0.413698,-0.555524,0.085261,0.827118
0.140687,0.321235,0.516145,-0.528508,0.168970,-0.831943
-0.561132,0.187191,0.404920,-0.056762,0.919788,0.388289
0.076025,0.534207,0.556410,-0.338167,-0.689296,0.640714
0.401662,-0.946037,0.668341,0.899779,-0.072437,0.430292
0.164374,0.121465,0.639311,0.144288,-0.782182,0.606112
-0.627946,-0.262471,0.710455,0.676897,0.634096,-0.373808
-0.126211,-0.294349,0.037710,-0.228208,0.972584,-0.044747
-0.210552,-0.237649,0.913105,-0.176893,0.980301,0.087852
0.476911,0.587594,0.325985,-0.014877,-0.477182,0.878679
0.129382,-0.479908,0.886813,0.992529,-0.008529,-0.121712
0.207919,-0.405396,0.598862,0.761329,0.491538,0.422810
0.591578,-0.184886,0.551075,0.211262,-0.075229,0.974530
0.227001,-0.697729,0.655287,-0.219778,0.630178,0.744697
-0.554971,-0.705027,0.476685,-0.482153,0.058900,0.874105
0.129142,-0.340727,0.951663,0.748299,0.238200,0.619120
0.334131,0.055451,0.276335,0.763430,0.425345,-0.486062
0.174363,0.381680,0.506915,0.492425,0.244992,0.835163
-0.027755,-0.412598,0.838560,-0.256203,0.152427,0.954529
0.111616,-0.314849,0.945072,0.113886,0.758896,0.641176
-0.430554,0.096980,0.589872,0.147323,0.473278,0.868507
0.249911,-0.478852,0.643149,-0.693734,0.595920,-0.404490
0.835386,0.216909,0.322866,-0.266006,0.655184,0.707088
-0.499222,-0.488646,0.795317,-0.453203,0.186558,-0.871667
0.202297,0.126074,-0.032898,-0.125125,-0.098601,0.987229
-0.071420,0.188103,0.532319,-0.737220,-0.498474,-0.456103
0.531523,0.095540,0.577834,-0.309845,-0.307307,0.899755
-0.496172,-0.538192,0.773682,0.283213,0.595760,0.751571
0.130937,0.295022,0.334411,0.538620,-0.416381,0.732472
-0.193802,-0.449854,0.951564,0.969774,-0.242355,0.028342
0.368405,0.231456,-0.027676,0.335568,-0.474902,0.813549
-0.155939,-0.557732,0.375367,0.856077,0.275060,-0.437578
-0.070523,-0.590523,0.796616,0.986321,0.147143,0.074295
-0.078298,-0.379039,0.341439,0.633144,-0.155049,0.758346
0.626391,0.128091,0.493409,-0.735848,-0.076054,0.672862
0.264984,-0.000240,0.706136,-0.138526,0.068765,0.987969
-0.084280,-0.252869,0.289898,-0.602230,0.792048,0.099893
0.125852,0.005905,0.393079,-0.640740,0.758874,-0.116455
0.197870,-0.751308,0.729127,-0.039131,-0.997566,-0.057719
0.413626,-0.010274,0.538543,-0.834773,-0.159519,0.526980
-0.117358,0.263719,0.024783,0.492178,-0.083961,0.866436
0.717251,-0.012771,0.608812,0.888175,-0.134067,-0.439512
-0.294652,-0.396851,0.911355,0.801264,-0.510041,-0.312784
-0.211508,-0.542321,0.747996,-0.223502,0.910821,-0.347062
-0.676336,-0.556676,0.739669,0.784709,0.334261,0.522016
0.353811,-0.830669,0.622657,0.404940,-0.487460,-0.773567
-0.474219,-0.665178,0.772849,0.837895,0.381301,-0.390565
0.046656,0.260982,0.578398,-0.452061,0.534188,-0.714342
0.014715,0.469346,0.213503,0.799465,-0.201489,0.565913
0.687940,-0.425272,0.499224,-0.408089,0.300663,0.862013
-0.388204,-0.559412,0.740770,0.329071,-0.113030,-0.937516
-0.078418,-0.271256,-0.711909,0.852449,-0.517585,-0.073728
0.345496,0.247491,-0.010232,0.689954,0.102195,-0.716603
0.331678,-0.408853,0.580134,0.560441,0.821019,-0.108783
0.483611,0.016372,0.373504,0.315729,-0.681879,0.659815
0.854110,-0.580489,0.445170,0.179867,-0.875616,0.448268
-0.271623,-0.130491,0.749944,0.688866,0.624550,-0.367970
0.145353,-0.484085,0.652055,0.144601,0.976192,0.161677
0.095287,-0.237986,0.754756,-0.101249,0.228858,-0.968180
-0.642900,0.315330,0.368762,0.458416,-0.615040,-0.641546
-0.110002,0.788516,0.215366,0.496024,0.289736,0.818543
-0.046956,-0.282683,-0.626482,0.897458,-0.410516,0.161385
-0.142960,-0.440252,0.811491,0.920896,-0.091969,0.378803
-0.497188,-0.502809,-0.263676,-0.726865,0.434083,0.532202
0.878275,-0.291997,0.504968,-0.141618,0.125564,0.981926
-0.472544,-0.275913,0.862199,-0.335461,0.941801,-0.021847
0.434622,0.060397,0.564398,-0.144397,-0.441963,0.885335
0.596364,-0.141773,0.314398,0.643120,0.591041,-0.486896
0.136260,-0.135100,0.741038,0.172241,0.954510,0.243400
-0.204809,-0.372894,-0.516117,-0.630172,0.615041,-0.473928
0.025242,-0.668587,0.478703,-0.678676,-0.295869,0.672206
-0.123220,0.462576,0.018897,0.096218,-0.215007,0.971861
-0.005802,-0.156801,0.776349,-0.020328,-0.094966,0.995273
-0.014476,-0.065150,0.752371,-0.426157,-0.219921,0.877511
-0.472485,-0.600701,0.779158,0.982044,0.071784,0.174461
0.722575,0.338470,0.517232,-0.277804,0.021121,-0.960406
0.505143,-0.508378,0.600429,-0.579775,-0.021053,0.814505
-0.796387,-0.156657,0.660396,0.405640,0.894126,0.189723
-0.192726,-0.542225,0.700294,0.148445,-0.977116,0.152340
-0.016569,0.792117,-0.015242,0.634810,0.565763,0.526240
-0.318160,-0.414038,0.487355,-0.711322,0.591677,-0.379394
0.076983,-0.266599,-0.970546,-0.004136,0.180499,0.983566
-0.692307,-0.424024,0.728604,0.419706,0.288381,0.860630
0.391195,-0.466993,0.501016,0.856061,0.086857,0.509524
0.370260,-0.614672,0.288656,0.163963,-0.151180,0.974813
0.488516,-0.122329,0.568195,0.268546,0.059815,-0.961408
0.868704,-0.447213,0.520309,-0.372389,-0.213290,0.903235
0.508435,-0.399347,0.761022,0.221240,0.865878,0.448674
-0.035232,-0.696961,0.557356,-0.582862,0.468370,-0.664004
0.142123,0.497960,0.359532,-0.230333,0.407914,-0.883489
0.148881,0.092899,-0.039319,-0.627874,0.135485,0.766432
0.257447,0.033511,0.706532,0.087438,-0.027998,0.995776
0.268154,-0.363532,0.720772,-0.055893,-0.662232,0.747211
-0.644455,-0.639829,0.666126,0.331089,-0.943528,0.011640
0.229633,0.554227,0.353647,-0.402413,-0.168654,-0.899788
0.349564,-0.163618,0.558442,0.222199,-0.782755,0.581311
-0.276946,-0.312833,0.503303,-0.397723,0.422379,-0.814501
-0.267436,-0.407701,0.462374,0.925092,-0.280770,0.255681
0.079794,0.044793,0.731060,0.223281,0.047124,0.973614
0.039000,0.224206,0.644307,0.911511,-0.273668,-0.307007
0.384616,0.410245,0.435785,0.334524,0.017756,-0.942220
-0.388862,-0.022181,0.799043,0.649065,-0.016133,0.760562
-0.457770,-0.434154,0.590395,-0.538221,-0.839381,-0.075877
0.094209,-0.186855,-0.977010,-0.038570,0.196001,0.979845
0.358716,0.006433,0.303418,-0.261167,0.801030,0.538650
-0.129142,0.235249,0.348157,0.893678,0.153251,0.421728
-0.708518,-0.368861,0.164023,-0.547432,0.836227,-0.032296
0.269770,0.201018,0.480115,-0.381504,0.238992,0.892938
0.169159,-0.199818,-0.975725,-0.017378,0.265416,0.963977
0.058440,0.524893,0.019448,0.290951,0.514245,0.806783
-0.111197,-0.222190,0.912795,-0.440834,0.895899,-0.055053
0.109163,0.678237,0.359588,-0.725363,0.400094,-0.560155
0.089245,-0.094532,0.912343,-0.602927,-0.742539,0.291744
-0.049109,0.767248,0.011446,-0.512948,-0.339309,-0.788514
-0.596005,-0.501752,0.709848,0.856604,-0.106160,0.504935
-0.163297,-0.731624,0.575110,-0.602765,0.320292,-0.730813
0.034993,-0.272697,-0.970292,0.139169,0.102329,0.984967
0.360271,0.240146,0.459241,0.561492,-0.826149,-0.046954
0.124477,-0.453454,0.866335,0.863119,-0.354571,-0.359589
0.711030,-0.023429,0.602405,-0.596227,0.311298,0.740004
0.245664,0.783763,0.364627,-0.111963,0.497217,-0.860371
0.242673,-0.437611,0.600034,-0.247580,-0.853847,-0.457875
0.233102,0.182198,0.537527,0.941630,0.336185,0.017678
0.585357,0.288300,0.276067,0.277810,0.940066,-0.197730
0.546895,-0.869941,0.544809,0.835708,0.111627,-0.537710
0.150556,0.124442,0.298140,0.492001,-0.284863,0.822671
0.268274,0.280858,0.462741,-0.332240,0.228236,0.915164
-0.122623,-0.037976,0.762730,0.221703,-0.072248,0.972434
-0.123280,-0.172932,0.680154,0.651082,0.682205,-0.332698
-0.600610,-0.487445,0.477207,0.867588,-0.125076,-0.481297
0.836644,0.060637,0.626157,0.978227,0.093453,-0.185307
-0.624477,-0.670940,0.704485,0.857401,0.463502,0.223673
0.023867,-0.185415,0.903085,-0.425839,0.902040,0.070606
-0.230470,-0.172308,0.744891,0.756445,0.649748,-0.074951
-0.390776,0.023429,0.749365,-0.639652,0.007327,0.768629
0.259062,-0.056508,0.697372,0.944917,0.036408,-0.325279
-0.118016,-0.452302,0.770633,0.144258,0.597869,0.788506
0.003469,0.585098,0.224822,-0.592116,-0.401778,-0.698551
0.105156,-0.048778,-0.981229,0.002762,0.055763,0.998440
-0.034155,0.851457,-0.020125,-0.292851,0.632455,0.717105
0.022670,0.658265,0.347973,0.777625,0.010694,-0.628638
0.065079,-0.016323,-0.980256,-0.057176,0.097970,0.993546
0.196615,-0.128715,-0.978816,-0.056299,0.116136,0.991636
0.612214,0.015651,0.588574,-0.369220,0.124273,0.920996
0.053595,0.226511,0.327636,0.342609,-0.393039,0.853311
-0.267735,-0.469394,0.918327,-0.511981,-0.136142,0.848140
0.591638,0.449613,0.544061,-0.337101,-0.746257,0.573989
-0.159469,-0.441164,0.926090,0.627082,-0.773802,-0.089431
0.333592,0.237457,0.717667,0.252943,0.733064,-0.631377
-0.126510,0.686975,0.224074,0.375184,0.685825,0.623604
0.088946,-0.151808,-0.978534,-0.021054,0.240772,0.970353
-0.563404,-0.518220,0.733671,0.262263,0.898889,0.351023
0.151753,0.428249,0.348989,-0.525638,0.424768,-0.737073
0.494556,0.474339,0.459890,0.231378,0.926079,-0.298063
0.320015,0.023573,0.703540,-0.419096,0.364201,0.831695
0.316605,0.039032,0.440810,-0.602565,0.368987,0.707647
-0.001973,-0.353642,-0.968641,0.009715,0.079737,0.996769
-0.086613,-0.307072,0.416620,0.965696,-0.017049,-0.259116
-0.084998,-0.270296,-0.203667,-0.750469,0.654228,0.093710
0.305000,-0.400739,0.532263,0.952512,0.300694,0.048001
0.064781,-0.360363,0.540956,0.611909,0.720596,0.326050
-0.118196,-0.044889,0.759893,0.221703,-0.072248,0.972434
-0.153786,0.686975,0.031853,0.067191,0.051630,0.996403
0.190095,-0.719094,0.688340,0.371116,-0.918054,0.139460
-0.349982,0.012339,0.436999,0.380944,0.313587,0.869796
0.477868,-0.596044,0.404384,-0.344527,-0.218312,0.913040
0.161562,0.508186,0.173436,0.133925,0.698749,0.702719
0.020337,-0.715445,0.482500,-0.113583,-0.196430,0.973917
-0.471348,-0.542465,0.626284,0.985646,0.162134,-0.047060
-0.618375,-0.488742,0.265877,0.344274,-0.926243,-0.153460
-0.284244,0.702962,0.238385,0.022031,0.499390,0.866097
0.103960,-0.054443,-0.060531,-0.879842,0.236580,0.412199
-0.101029,-0.249028,-0.019575,0.313018,0.949662,0.012737
-0.422419,-0.625330,0.651787,0.903074,0.422235,-0.078576
-0.449097,-0.495031,0.744609,-0.571815,0.061161,-0.818100
0.061551,0.092707,0.551485,-0.171592,0.547643,-0.818928
0.038821,0.042105,0.725627,-0.061744,-0.419244,0.905772
0.037804,-0.555572,0.686547,0.997617,0.068959,0.002238
-0.573992,-0.438379,0.467653,-0.834248,0.485753,0.260911
0.353511,0.227135,0.485717,0.901605,0.371227,0.222035
-0.040376,-0.284987,-0.288825,0.081525,0.996306,-0.026964
-0.422239,-0.468625,0.567531,0.965646,-0.040768,0.256645
0.417035,0.516348,0.457308,0.740629,0.389853,-0.547251
-0.217071,-0.322579,0.873222,-0.264055,0.671898,0.691974
0.015432,0.029142,-0.986720,-0.140931,0.093393,0.985604
0.513519,0.603774,0.335441,-0.701272,0.229103,0.675077
0.097380,-0.437467,0.499986,-0.498757,-0.369247,0.784155
-0.021473,0.318066,0.214830,0.028164,-0.186216,0.982105
-0.171612,0.041961,0.569465,0.668684,0.056090,0.741428
0.000060,-0.245907,-0.340776,-0.282911,0.943136,-0.174515
0.242434,0.447597,0.325787,-0.341837,0.439424,-0.830695
-0.385692,-0.413174,-0.416479,0.961093,-0.082912,-0.263490
0.304283,-0.445341,0.301146,-0.274642,-0.840571,0.466918
0.141345,-0.374958,0.631337,0.578059,0.449069,0.681311
-0.182319,0.041480,0.865911,0.093638,-0.909958,0.403991
0.252841,-0.323395,0.810955,-0.376121,0.210216,0.902409
-0.390836,-0.390465,-0.495724,0.442044,-0.737781,0.510173
-0.262292,-0.256757,0.848947,0.014697,0.985663,0.168083
0.666468,-0.410965,0.329443,0.085088,0.661912,0.744736
0.214440,-0.758750,0.625381,0.226035,0.716218,-0.660257
0.214499,-0.172500,0.685672,-0.774547,0.608176,-0.173777
0.330542,-0.434634,0.529666,0.811366,-0.243757,0.531289
0.390657,0.608286,0.353858,-0.453359,-0.539500,0.709511
0.217251,0.101829,-0.037682,-0.098337,0.086467,0.991390
-0.416377,-0.071247,0.687338,-0.612424,-0.788700,-0.053746
-0.040794,0.413798,0.015877,-0.294151,0.108737,-0.949553
0.289389,-0.691152,0.690358,0.394936,0.834274,0.384725
0.339036,-0.722262,0.286694,0.142070,0.008339,0.989821
-0.252781,0.329685,0.370935,0.232923,0.335224,0.912892
0.641523,0.259158,0.497431,-0.253810,-0.283769,0.924692
0.492583,0.019684,0.378641,0.030394,0.079051,0.996407
0.035770,0.319651,0.599342,0.940484,0.073751,0.331739
0.084699,-0.481204,0.891414,0.768083,0.345452,-0.539178
-0.572138,0.140958,0.601262,0.926083,-0.341718,-0.159997
0.671851,-0.254597,0.557892,-0.182572,0.184613,0.965705
-0.430015,-0.668299,0.784083,0.018710,0.970436,0.240631
0.045520,-0.692928,0.424692,0.742554,0.220459,-0.632464
-0.621785,0.152432,0.418525,0.755346,-0.442982,-0.482929
0.701639,0.120889,0.385853,0.744708,-0.362898,0.560102
-0.350879,-0.610255,0.770690,-0.176067,-0.587817,-0.789602
-0.238127,-0.480532,0.823346,0.964541,0.169741,0.202111
0.440722,-0.527438,0.552571,0.529725,-0.122824,0.839229
-0.039538,-0.163714,0.919456,0.153972,-0.770796,0.618196
-0.546357,-0.590235,0.684783,-0.574520,-0.361797,-0.734186
0.512502,0.477796,0.296348,0.055391,-0.545630,0.836194
0.077940,-0.558596,0.387405,0.644530,-0.764579,0.000842
0.182857,0.299006,0.395676,0.850118,-0.096246,-0.517721
0.583801,-0.080513,0.582915,0.404605,0.847227,-0.344240
-0.073454,-0.340919,-0.969290,0.049453,0.005042,0.998764
0.089664,-0.268280,0.827382,0.475673,-0.048913,-0.878261
0.942278,-0.536080,0.563975,-0.670109,0.621843,0.405296
0.253858,0.469490,0.431749,-0.161496,-0.835920,0.524554
-0.040794,-0.122329,0.317320,0.886144,-0.295436,0.357025
-0.346513,0.685487,0.238935,0.038797,0.393132,0.918663
0.263369,-0.106486,0.791224,-0.087518,-0.485111,0.870062
0.116103,-0.367853,0.890821,0.815138,0.556021,-0.162452
-0.041991,-0.306832,0.874196,-0.471766,-0.658017,0.586899
-0.507417,-0.040136,0.742351,0.623318,0.622515,0.473233
0.490310,-0.560469,0.408265,0.378256,0.439984,-0.814454
-0.649599,0.043977,0.615968,0.398189,0.617534,0.678304
0.480800,-0.925537,0.543257,-0.435536,0.600406,0.670686
-0.681960,-0.486533,0.604748,-0.201857,-0.458969,0.865218
0.567174,-0.064958,0.361719,-0.314587,0.821080,-0.476301
-0.331439,-0.071631,0.762801,0.733370,0.679182,0.029667
0.488216,-0.463728,0.451902,0.878123,0.464681,-0.113890
0.278503,0.116664,0.415829,0.097369,-0.543817,0.833536
0.319954,-0.750300,0.685531,-0.339224,-0.830955,-0.440955
0.459207,0.417399,0.442912,-0.219198,-0.331881,0.917501
0.320971,0.537952,0.346887,-0.384810,0.200759,-0.900898
0.000538,-0.299774,0.876185,0.837190,0.390686,-0.382723
0.116701,0.155120,0.554717,0.925751,0.172083,0.336709
-0.273896,0.794517,0.033095,-0.626838,-0.271869,0.730179
0.096423,-0.811513,0.421108,0.281346,0.226357,-0.932527
-0.276648,0.340967,0.369058,0.099469,0.307584,0.946308
0.632551,-0.669307,0.423323,-0.654962,0.692976,0.301345
0.222036,-0.151280,0.753288,0.743661,0.657766,0.119632
0.808350,-0.473763,0.524458,-0.365987,-0.138491,0.920257
-0.042649,-0.313169,0.837134,-0.783012,0.621675,-0.020283
-0.041512,-0.221950,0.158744,0.927996,0.324623,-0.182876
0.134885,-0.394258,0.907827,0.851044,-0.506645,-0.137965
-0.055867,-0.218205,-0.535805,0.565191,-0.818868,-0.100073
-0.862483,-0.471746,0.628938,0.343415,0.512421,0.787077
-0.499461,0.024917,0.823628,0.936968,-0.195233,0.289784
0.554074,0.424648,0.455120,-0.577182,0.701494,-0.418052
-0.399808,-0.057948,0.644843,0.155017,-0.814619,-0.558897
-0.170355,0.431226,0.021410,-0.250298,-0.275801,0.928054
-0.728496,-0.544481,0.609264,-0.473522,0.432965,-0.767019
-0.188121,0.405924,0.013182,0.442861,-0.027685,-0.896163
-0.602524,-0.584570,0.694281,0.420431,-0.891901,0.166584
-0.144934,-0.153680,0.547731,0.875926,0.465711,0.125963
0.333592,0.729992,0.337628,-0.118159,-0.237769,0.964108
0.385692,-0.939075,0.664714,0.735921,-0.648023,-0.196178
-0.340830,0.059004,0.594756,0.516221,0.248216,0.819698
-0.544442,-0.406789,0.790632,0.855146,-0.395712,0.334869
-0.107489,-0.352105,-0.967850,-0.061915,0.097957,0.993263
0.199127,-0.453166,0.755010,-0.337872,0.263051,0.903685
0.340651,0.098325,0.844149,0.279597,0.937421,-0.207525
0.382462,0.340871,0.513873,0.462463,0.877843,-0.124581
-0.048212,0.238322,0.015779,0.600501,-0.009173,0.799572
-0.192308,-0.387105,0.979931,0.945368,-0.325105,0.024202
-0.037804,0.207595,0.537301,0.476386,-0.805829,-0.351704
0.020278,-0.137068,0.751157,0.215627,0.096173,0.971728
0.359732,-0.410629,0.853238,0.898465,0.437545,-0.036258
-0.010288,0.759998,0.198219,0.412752,0.253732,0.874789
-0.326474,-0.028086,0.643460,0.282108,0.356031,0.890874
-0.075308,-0.751788,0.557765,0.511092,-0.548570,0.661706
0.413088,-0.783811,0.614909,-0.800608,-0.200297,-0.564719
0.133629,-0.761534,0.728788,-0.716372,-0.586830,-0.377415
0.751705,-0.290268,0.486494,-0.321378,0.688990,0.649622
0.008913,0.134572,0.738695,0.660092,0.686280,-0.305449
0.501137,0.288972,0.523174,-0.259939,-0.461488,0.848210
0.754098,0.190888,0.326705,-0.059330,0.546396,0.835423
0.374327,0.341111,0.502625,-0.476434,-0.763204,0.436498
-0.102704,0.221614,0.532404,-0.714960,-0.377824,-0.588287
-0.094509,-0.564357,0.723877,-0.356327,-0.748329,-0.559495
-0.561790,0.167891,0.594572,0.960479,0.209881,-0.182838
-0.014954,0.220846,0.535212,-0.522371,0.764377,0.377963
0.000538,0.159873,0.520873,-0.235864,-0.153187,-0.959636
0.163537,0.152191,0.653763,0.598312,0.691792,0.404286
-0.045340,-0.227087,0.162371,-0.788157,0.615417,-0.008369
-0.016390,0.486917,0.215507,-0.457135,0.067382,-0.886841
0.568669,-0.421048,0.777916,-0.642750,-0.052913,0.764247
0.237349,0.032455,0.818914,0.211748,0.791271,-0.573632
0.530088,0.224543,0.490587,-0.202646,-0.766462,0.609484
-0.250030,0.582601,0.012504,-0.677750,-0.078001,0.731143
0.413866,-0.458111,0.583818,0.312356,0.628969,0.711921
-0.208578,-0.334438,0.833790,0.244266,0.425098,0.871565
0.381147,-0.536080,0.501284,0.871897,0.214534,0.440194
0.006280,0.199722,0.583860,0.975036,-0.079975,-0.207143
-0.261634,0.126122,0.564864,0.120150,0.803300,0.583330
-0.150556,-0.219406,0.917382,0.102025,-0.164330,0.981115
0.156838,0.231840,0.665067,0.610041,0.235467,-0.756575
-0.309427,-0.274905,0.212064,-0.166284,0.626420,0.761543
0.260677,0.861251,0.375325,0.790482,-0.106363,0.603179
0.362843,-0.059676,0.287315,-0.489388,-0.099742,0.866343
-0.032958,-0.679485,0.728548,-0.640345,-0.616829,-0.457690
0.468536,-0.345096,0.729578,0.621173,-0.028949,-0.783139
-0.273657,-0.340391,0.763055,-0.033928,0.758050,-0.651313
-0.261095,-0.380191,0.486141,0.847309,-0.275293,0.454181
0.141465,-0.320851,0.020309,0.443333,0.877270,0.183995
0.506819,-0.099429,0.558104,-0.336686,0.383768,0.859863
-0.170474,-0.594700,0.830360,0.840599,-0.541616,0.006773
0.036727,0.082481,0.730524,0.029304,-0.340639,0.939737
0.132971,0.137165,0.552995,0.862255,0.068107,0.501874
-0.481457,-0.496807,-0.265920,-0.615882,0.594160,0.517362
-0.536248,-0.012051,0.770295,0.975189,0.178268,0.131248
0.495275,-0.150608,0.557779,0.547531,0.692794,-0.469304
0.081171,-0.322963,0.349258,-0.052550,-0.747416,0.662274
-0.054312,-0.296798,0.842596,-0.803897,-0.016113,-0.594550
-0.051142,-0.111191,-0.643037,0.986670,-0.162696,-0.003585
0.189077,-0.100629,0.709467,-0.069952,0.574290,0.815658
0.573933,0.192952,0.487834,-0.416136,-0.791132,0.448265
-0.167005,-0.637045,0.651547,0.133717,0.081349,0.987675
0.055569,0.508378,0.018460,-0.325155,-0.159377,-0.932134
0.362304,-0.902732,0.617647,0.915390,0.392184,0.090841
-0.416916,-0.617312,0.485943,0.300492,0.092273,0.949310
0.142781,-0.492871,0.600641,0.857305,-0.374462,0.353280
0.275392,-0.004177,0.453765,-0.221517,-0.509855,0.831251
-0.123400,0.419127,0.218711,-0.374692,-0.013062,0.927057
0.042170,-0.258150,-0.971280,0.092153,0.274555,0.957145
0.095287,-0.890249,0.418313,-0.599188,-0.050623,0.799006
0.071001,-0.659513,0.730284,0.828218,0.516733,-0.216892
0.026139,0.377214,0.626228,0.967673,0.133259,-0.214128
0.762352,-0.170820,0.324009,0.576701,0.327329,-0.748513
0.408961,0.076432,0.400686,-0.035756,-0.720556,0.692474
0.258822,-0.250228,0.838701,0.732970,0.507175,-0.453352
-0.021354,-0.188247,0.197273,-0.111034,0.971993,0.207125
-0.280057,-0.088194,0.662513,-0.331700,0.939367,0.086973
0.467401,-0.619857,0.539968,0.685588,0.398389,0.609307
0.014237,0.587114,0.218739,0.380986,0.541414,0.749480
-0.408840,-0.439964,-0.014720,0.923444,-0.367521,0.110365
0.488277,-0.236689,0.446991,0.027263,-0.193186,0.980783
0.610898,0.432090,0.560376,-0.451740,0.492826,0.743676
-0.414583,-0.194921,0.726092,0.921497,0.275074,-0.274185
-0.146548,0.869509,0.000692,0.675458,0.648097,0.351749
0.452805,0.499880,0.315386,0.167123,-0.697265,0.697059
0.162399,-0.347832,0.018065,0.444487,0.895467,-0.023874
0.696734,-0.574776,0.445806,-0.099137,-0.839957,0.533521
-0.488037,-0.298814,0.864655,-0.687436,-0.665286,-0.291250
0.335746,0.343080,0.303672,-0.655828,0.124747,-0.744532
0.378036,0.131787,0.471548,0.040219,-0.659103,0.750977
0.006161,-0.782467,0.422815,0.441022,0.406036,-0.800397
0.708458,-0.527198,0.494679,0.890776,0.250429,-0.379214
0.169279,-0.533535,0.665872,0.864822,0.487112,0.121673
0.339096,-0.090403,0.776377,0.791735,0.299793,-0.532240
0.166886,0.047146,0.550835,-0.391485,-0.003558,-0.920177
0.248595,0.067934,0.467554,-0.028905,-0.211298,0.976994
0.015492,-0.698977,0.750085,0.387151,0.913673,0.123756
0.048691,-0.471266,0.575533,0.068095,0.346085,0.935729
0.337899,-0.008546,0.276434,-0.648623,0.106739,0.753588
0.220840,-0.079648,0.708098,-0.730529,0.132071,-0.669988
0.352853,0.040953,0.726925,-0.574552,-0.447165,0.685517
-0.391075,-0.495367,0.501962,-0.239878,0.190428,-0.951943
0.223711,0.049691,0.827156,0.253554,0.876896,-0.408368
0.061610,-0.282923,0.846844,-0.200291,0.105876,0.973999
0.073214,-0.712324,0.658307,-0.146301,0.032811,0.988696
0.112932,0.129723,0.736621,0.395591,-0.644441,0.654372
0.064721,0.375198,0.622431,0.967766,0.183177,-0.172844
0.314213,-0.717653,0.535269,-0.349188,-0.151867,0.924664
0.151513,0.137357,0.540152,0.898307,0.219952,0.380349
0.094209,-0.415190,0.921686,0.932023,-0.332065,0.145142
0.440843,-0.248308,0.761926,-0.319200,-0.114139,0.940789
0.150258,0.285275,0.456997,-0.070817,0.766878,0.637873
-0.018124,0.242642,0.603760,0.904070,0.063339,-0.422665
-0.253320,-0.372365,0.890299,-0.177133,0.795849,0.579006
0.405970,0.379135,0.287668,-0.627889,0.277910,-0.726995
0.231906,-0.323251,0.411087,0.333156,0.879803,-0.339049
-0.005742,0.524365,0.339534,-0.769733,0.043380,0.636890
0.354947,-0.372365,0.853901,0.915149,0.390464,-0.100203
-0.008553,-0.194777,-0.572457,-0.352626,0.934326,-0.051867
-0.048271,-0.240770,0.391145,0.210145,0.927307,0.309742
0.375225,0.274185,-0.004290,-0.908531,0.245393,0.338163
0.058679,0.664602,0.366306,-0.680498,0.061893,-0.730131
-0.345376,-0.109943,0.673408,0.117317,-0.989589,0.083370
0.156957,-0.506121,0.509159,-0.668890,0.034748,0.742549
-0.250927,-0.016948,0.630504,0.272123,0.264497,0.925198
-0.510228,0.208316,0.599145,0.051707,-0.972039,0.229057
-0.313913,-0.447693,0.619778,-0.077441,0.138569,0.987320
-0.022132,-0.270872,-0.465889,0.250002,0.967527,-0.037285
0.113710,-0.026165,-0.040843,-0.918152,0.308753,0.248332
-0.016748,-0.315810,0.878641,0.790886,0.549932,-0.268466
-0.381086,-0.265831,0.712473,-0.229564,-0.379797,0.896133
0.137696,0.335974,0.519293,-0.553782,0.031648,-0.832060
-0.298959,-0.143550,0.809924,0.147750,-0.412874,-0.898724
0.366312,0.719046,0.346393,-0.123573,0.388732,-0.913026
0.598516,-0.456383,0.480129,0.453873,0.274724,-0.847659
0.234418,-0.202938,-0.972112,-0.260060,0.320770,0.910756
-0.114666,-0.406212,-0.965282,-0.006855,0.148698,0.988859
0.084340,0.211388,0.516964,-0.348475,0.058775,-0.935473
0.286278,-0.115272,-0.975881,-0.203095,0.136504,0.969597
-0.016210,-0.717077,0.486338,0.206397,-0.124397,0.970529
-0.455856,-0.350329,0.704118,0.109150,0.159464,0.981151
-0.569685,0.142446,0.424001,0.688924,-0.564908,-0.454162
-0.643079,0.085122,0.615008,-0.510883,0.040104,-0.858714
-0.311222,-0.520380,0.477885,-0.488945,0.759974,-0.428220
0.029968,-0.706131,0.474681,0.430177,0.717496,-0.547857
0.802966,-0.570935,0.519406,0.831095,-0.358406,-0.425237
0.257268,-0.632964,0.657968,0.033501,0.141687,0.989345
-0.226821,-0.260166,0.582731,-0.295128,0.920817,0.254941
-0.259002,0.372509,0.362651,-0.190379,0.417616,0.888455
0.300814,0.197129,0.721985,0.148374,-0.708960,0.689464
0.055091,-0.676125,0.718711,-0.480861,-0.845933,-0.230585
-0.092116,-0.258246,0.620752,0.727940,-0.669611,0.147391
-0.122084,-0.186663,0.939469,0.936539,0.048280,-0.347222
-0.133808,-0.399731,-0.964661,-0.092607,0.085824,0.991997
0.411233,0.441500,-0.021494,0.386709,0.136140,0.912098
0.484987,-0.031399,0.382720,0.088227,0.658187,-0.747667
-0.022012,-0.226943,-0.098369,0.455496,0.890181,0.010069
0.069506,-0.462720,-0.960765,-0.076216,0.273280,0.958910
-0.619870,-0.697393,0.731921,0.995149,-0.084340,-0.050638
0.488395,-0.369149,0.795797,0.687074,0.363859,-0.628917
-0.121785,0.112055,0.722324,-0.618006,-0.135581,0.774394
0.412011,-0.062653,0.457632,0.056823,0.457949,-0.887160
0.130338,0.300399,0.513577,-0.578712,0.279433,-0.766166
-0.747637,-0.443372,0.735873,0.867479,0.344452,0.358932
0.288193,0.734649,0.347508,0.498751,-0.447965,0.742008
-0.067412,-0.751980,0.824136,-0.225486,0.941212,0.251548
0.323543,-0.371837,0.836979,0.674862,0.703723,-0.222113
-0.084280,-0.221854,0.213560,0.596318,-0.753730,-0.276218
-0.271802,-0.467761,0.910833,0.932570,-0.023253,-0.360240
0.374327,-0.159249,0.694394,0.174857,0.101362,0.979362
0.820792,-0.577992,0.534323,0.843875,-0.427356,-0.324410
-0.264147,0.740986,0.010867,0.393217,0.195916,-0.898330
0.676575,0.027846,0.597804,0.676390,0.159751,-0.719011
-0.390417,-0.895002,0.496077,0.763998,0.369581,0.528882
-0.047434,-0.075424,0.805507,0.819318,0.511969,0.258082
-0.066335,-0.276730,-0.165843,-0.932495,-0.180321,0.312950
0.645831,-0.120217,0.575971,-0.470055,-0.785651,0.402245
-0.447242,-0.316482,0.702086,-0.088456,0.170391,0.981398
-0.249731,-0.104806,0.713122,-0.504589,-0.830918,-0.234446
-0.038940,-0.080561,0.398696,-0.683214,0.586528,-0.434976
0.493839,0.051515,0.439144,0.925237,-0.352333,-0.140709
0.357758,-0.453166,0.714943,-0.438205,-0.547914,0.712577
-0.146429,-0.314946,-0.515087,-0.706017,0.692564,0.147967
0.094150,0.396178,-0.009992,-0.602156,0.660436,-0.448591
-0.084819,-0.693024,0.484264,-0.294115,-0.204784,-0.933574
0.297345,-0.596764,0.537005,-0.552665,-0.349437,0.756608
-0.372293,-0.123482,0.792353,0.057040,0.407498,0.911423
-0.234836,-0.372221,-0.369919,-0.697076,0.502378,0.511568
-0.540375,-0.473330,0.624365,-0.132085,0.818932,0.558484
-0.226343,0.771137,0.018742,-0.330792,-0.241013,0.912409
-0.430135,-0.304623,0.691670,0.223716,-0.324317,-0.919113
0.089305,0.687791,0.316995,0.264567,-0.939348,-0.218241
-0.474399,-0.495079,0.759089,0.837647,-0.351693,-0.417923
-0.155761,-0.040712,0.823289,-0.794547,-0.372831,-0.479261
-0.034574,-0.388929,0.759710,-0.508396,0.444626,-0.737456
-0.119153,-0.182774,0.944818,0.810910,0.352615,-0.466999
0.036309,-0.004273,0.322429,0.812474,-0.568469,-0.129340
-0.583383,-0.699746,0.730665,0.988584,0.019145,0.149451
-0.402501,-0.026694,0.743818,0.000089,0.999847,0.017520
0.544803,0.077536,0.440668,0.902481,0.329330,-0.277615
0.465008,-0.061117,0.560320,0.593250,-0.011819,-0.804932
0.490429,-0.034855,0.347748,-0.270649,0.956482,-0.109044
-0.116999,0.412598,0.522807,0.601792,0.391860,-0.695911
0.505025,-0.092947,0.287555,0.290995,0.486666,-0.823698
-0.167663,-0.085266,0.884583,0.974813,-0.011652,0.222721
-0.122382,-0.014787,0.859913,0.474791,0.730144,-0.491389
-0.422180,-0.392530,0.328116,-0.580492,-0.044159,-0.813068
0.351119,0.386096,0.306890,0.591895,-0.294744,0.750191
0.122203,-0.468385,0.684219,0.252211,-0.832688,0.492971
-0.229633,-0.312881,0.117718,0.330319,-0.943597,0.022687
0.207919,-0.766815,0.497234,0.492667,0.312840,-0.812041
-0.024345,-0.150847,0.897906,0.339876,-0.930985,0.133230
0.582367,-0.775217,0.582661,0.917484,0.396992,0.024921
0.029071,0.185655,0.312690,0.390914,-0.378046,0.839207
0.388144,-0.442076,0.728703,-0.230803,-0.786886,0.572311
0.203673,-0.545585,0.677275,0.947996,0.314777,-0.047100
0.051142,0.284939,0.342074,0.290284,-0.241758,0.925899
0.217790,-0.234385,0.461443,0.326738,0.166770,-0.930285
-0.632491,-0.723703,0.472635,0.420285,-0.100363,-0.901825
-0.354887,-0.000960,0.760458,0.368203,0.846935,0.383571
-0.208219,-0.131307,-0.988230,-0.210447,0.248970,0.945371
0.322526,-0.939699,0.671700,0.778890,-0.463614,-0.422365
0.274675,-0.328292,0.778734,-0.475686,-0.876498,0.073986
0.457292,0.116280,0.415222,0.467348,0.873262,-0.137842
0.551261,0.585818,0.488258,0.901410,0.332193,-0.277681
0.269171,0.758174,0.336640,-0.206998,0.385733,-0.899089
0.150795,-0.412982,0.789940,0.884837,-0.247487,0.394732
-0.350819,-0.296606,0.837755,0.976818,0.120571,0.176888
0.218926,-0.669403,0.609786,0.497727,0.350343,0.793428
