0.230428,-0.319307,0.828222,-0.568189,0.372481,-0.733770
0.302716,-0.056944,-0.494683,-0.141400,-0.981663,0.127844
-0.117839,0.246298,0.717691,-0.156337,-0.537288,0.828782
-0.564715,-0.623063,0.236286,0.418169,0.019658,-0.908157
-0.564375,-0.365045,0.692365,0.244508,-0.777727,0.579099
-0.064442,-0.706306,0.660685,0.049035,0.863798,0.501447
0.597451,0.487565,0.721719,-0.518406,0.834740,0.185648
-0.186510,0.246813,0.592931,0.180145,-0.983626,0.005300
0.051146,0.608541,0.694174,-0.074496,0.997060,0.017948
0.268481,-0.120576,0.708783,-0.557372,-0.790157,-0.254928
-0.628476,-0.732377,0.341269,0.789517,-0.448044,0.419428
-0.265684,0.446172,0.743336,0.634681,-0.660316,0.401451
0.221837,0.497342,0.521484,-0.251575,-0.261027,0.931974
-0.671711,-0.273455,0.515327,-0.160224,0.437981,0.884591
-0.322285,0.496198,0.431490,0.323768,0.281281,-0.903358
0.145799,-0.730833,0.405769,0.010773,0.439706,0.898077
-0.043847,0.545366,0.819162,-0.530598,0.784479,-0.321028
-0.807761,-0.289520,0.156371,-0.393554,-0.413733,-0.820939
0.527960,0.340861,0.580892,-0.632380,0.242549,0.735707
-0.189715,0.171403,0.850675,-0.287514,-0.915371,-0.281837
0.348746,-0.125550,0.659864,0.901300,-0.269125,0.339454
0.836813,0.182037,-0.976438,-0.182891,-0.160585,0.969929
0.144913,-0.020011,0.955763,0.403971,0.279936,-0.870887
-0.773867,-0.089531,0.508882,-0.198106,0.256354,0.946064
-0.225517,0.315477,0.721917,0.971934,0.229632,0.051130
-0.341652,0.505174,0.606537,0.265904,-0.941877,0.205337
-0.342879,0.415186,0.740478,0.805940,-0.398861,0.437460
-0.688487,-0.285689,0.258101,0.175568,-0.623283,0.762033
0.140686,0.330113,0.791814,0.631479,0.487439,-0.603024
0.033621,-0.138872,0.901311,0.316048,-0.917010,0.243325
0.595678,0.539878,0.613104,0.307327,0.726277,0.614875
-0.417280,-0.730147,0.533493,-0.150902,0.083749,0.984995
-0.490997,-0.119718,0.151598,-0.257330,0.256450,-0.931673
-0.732882,-0.464296,0.335294,-0.378941,0.753472,-0.537292
0.020187,0.487393,0.341755,0.593149,0.099637,0.798903
0.263231,-0.182665,0.916300,0.148396,0.467808,0.871283
0.606248,0.333543,0.713206,0.901733,-0.399839,-0.164339
-0.717675,-0.375222,0.530057,0.830242,0.505565,0.234738
0.139868,-0.302785,0.837677,0.549350,0.569476,0.611484
-0.235951,0.490023,0.636423,-0.175387,-0.531408,0.828761
0.702537,0.265279,-0.979417,-0.048479,0.117428,0.991897
0.070173,-0.501000,0.716140,0.761977,0.458869,0.456979
-0.739906,-0.244297,0.404203,0.578066,0.288628,0.763239
0.964609,0.564576,0.404887,0.380967,0.661439,0.646037
-0.237860,0.248414,0.585650,0.827854,0.557382,-0.063119
0.109248,-0.789892,0.409022,-0.538448,-0.107724,0.835744
-0.031300,0.022583,0.853776,0.755852,-0.610878,-0.235617
0.461949,0.745698,0.499457,-0.165140,-0.367078,0.915414
0.211540,0.305300,0.830532,0.896985,-0.066913,0.436967
0.497750,0.306157,0.430776,0.800101,-0.049569,-0.597814
0.290098,-0.005317,0.266081,0.968664,0.235049,-0.080262
-0.608156,-0.463667,0.512910,0.949373,0.285615,-0.130828
0.041190,0.018981,0.865663,0.897694,-0.113970,0.425625
-0.320376,-0.159911,0.680295,0.667768,0.581615,-0.464553
-0.553258,-0.423703,0.310592,-0.197763,0.966680,0.162539
-0.062055,0.432737,0.640756,0.346043,0.317626,-0.882818
-0.075899,0.178892,0.850720,0.201828,-0.868106,-0.453495
-0.438351,-0.644617,0.364755,0.737659,-0.617481,-0.273087
-0.170007,-0.129381,0.602630,-0.570505,-0.785530,-0.239724
0.391709,-0.055285,-0.590651,0.557595,-0.830024,0.012161
-0.178055,0.763421,0.536929,0.032560,-0.007534,0.999441
-0.780550,-0.536276,0.332284,0.810615,-0.160298,-0.563212
-0.768003,-0.813675,0.338791,-0.788151,0.563495,-0.247571
-0.103178,-0.048940,0.698020,0.448617,-0.088824,0.889299
0.367772,0.307129,0.532915,0.657610,-0.557399,-0.506809
-0.175940,-0.104111,0.873887,-0.255088,0.875728,-0.409915
-0.412164,-0.022469,0.153194,-0.215388,0.472058,0.854850
-0.141774,0.335087,0.768799,-0.727865,0.337571,0.596874
-0.415438,-0.555257,0.447345,0.783398,0.438679,-0.440282
0.110543,-0.013436,0.787238,-0.495746,0.867455,0.041927
0.082448,-0.349723,0.837875,0.187541,0.854636,0.484176
-0.540097,-0.056429,0.137187,0.792513,0.061454,-0.606751
0.138844,0.184952,0.741284,0.907577,0.186335,-0.376275
-0.512751,-0.668743,0.229689,-0.174008,-0.215719,0.960826
-0.293030,0.475444,0.440231,-0.768432,0.480600,0.422536
-0.602837,-0.652107,0.394170,0.795691,0.014432,-0.605530
-0.017184,0.396948,0.755756,-0.517830,0.661727,-0.542189
0.038122,-0.694814,0.651457,0.840586,0.452554,0.297673
-0.423417,-0.082156,0.618303,0.958380,0.282056,0.044181
-0.395798,-0.458007,0.603329,0.569407,-0.747874,0.341262
0.896960,0.606541,0.414966,-0.454983,-0.797090,-0.397036
-0.552850,-0.222172,0.372857,0.062779,0.768442,0.636832
-0.463310,-0.224230,0.308296,-0.676351,-0.515390,0.526235
-0.641094,-0.466640,0.324729,-0.268763,0.838770,-0.473530
-0.367770,0.210509,0.436157,0.431309,0.257853,-0.864572
0.273801,-0.030359,0.258754,0.926783,0.242011,-0.287234
-0.279459,-0.381453,0.573504,0.911810,-0.212019,0.351640
0.030074,0.133612,0.839638,0.729378,-0.160365,0.665049
0.345200,0.197016,-0.993509,-0.076253,-0.051457,0.995760
0.345882,0.281974,0.851115,0.438144,-0.636026,0.635217
-0.141980,0.467841,0.707582,-0.020625,0.959919,0.279516
0.277755,0.633297,0.480059,0.186545,0.331815,-0.924716
-0.448990,-0.787262,0.407639,-0.193205,0.613695,0.765539
-0.372544,-0.636328,0.603800,0.196255,0.939921,0.279342
0.307556,-0.010176,-0.205837,-0.148431,-0.987552,0.052049
-0.112110,-0.775370,0.423312,-0.589599,0.668003,0.454032
0.164417,0.537934,0.440109,-0.171927,-0.018340,0.984939
-0.289553,0.615002,0.432433,-0.010914,-0.928104,0.372161
0.547327,0.277743,0.446084,-0.134848,-0.138989,0.981070
-0.270456,0.067006,0.455402,0.641168,0.085072,-0.762671
-0.120566,-0.113315,0.679383,-0.221635,0.861680,0.456493
0.310285,-0.017037,-0.299464,0.232837,0.947542,0.218976
0.482748,-0.033331,-0.714787,0.723692,0.689964,0.014816
0.040372,0.524099,0.630388,0.800040,0.145775,-0.581967
-0.276935,0.225830,0.521377,0.903034,-0.429181,-0.018246
-0.255250,-0.800298,0.410269,-0.121340,-0.365214,-0.922982
0.011798,-0.274199,0.651594,0.663124,-0.484201,-0.570804
0.052580,0.155052,0.758294,0.158857,-0.248786,0.955442
-0.720539,-0.444972,0.331023,-0.168346,0.906279,-0.387707
-0.043167,0.405351,0.763645,0.551632,-0.112765,0.826430
-0.700013,-0.385799,0.218668,0.730243,0.549890,-0.405421
0.011525,0.086330,0.873492,0.569228,-0.802275,0.179818
-0.296984,0.621177,0.440277,0.003783,0.994563,0.104070
-0.627385,-0.459379,0.311382,0.338072,0.768399,0.543388
-0.318466,0.556286,0.423813,0.866573,-0.145303,0.477429
-0.346084,-0.554628,0.560050,0.950460,0.156158,0.268776
-0.099153,-0.513521,-0.981196,0.123163,-0.030931,0.991904
0.139800,0.202676,0.878037,0.442583,0.525835,-0.726373
-0.633388,-0.566577,0.501114,-0.639543,0.007424,-0.768719
0.126364,0.514093,0.649922,-0.014447,-0.562305,0.826803
-0.045485,-0.495855,-0.980679,0.054208,-0.024321,0.998233
-0.382023,-0.415128,0.377084,-0.410753,0.214593,-0.886133
0.393551,0.002516,-0.543328,0.481717,-0.874409,-0.057947
-0.329514,-0.231376,0.320427,0.386084,-0.052784,-0.920952
0.132366,-0.339603,0.846373,0.001626,0.332899,0.942961
0.052373,0.057744,0.856162,-0.842517,0.252177,-0.475995
0.206970,0.556400,0.350298,0.118214,-0.237636,0.964134
-0.448854,-0.065976,0.306062,-0.512201,0.505044,0.694681
0.539144,0.875708,0.546065,0.538743,0.050445,-0.840958
0.369955,0.253845,0.651777,-0.175205,0.180554,0.967834
-0.201172,0.492425,0.766898,0.931061,0.364769,-0.008263
-0.230087,-0.144074,0.817429,0.831505,-0.082775,0.549315
-0.612520,-0.120920,0.674442,-0.587712,-0.609349,-0.532248
-0.317238,-0.280201,0.544225,-0.657404,0.212063,0.723083
-0.549645,-0.147962,0.154395,-0.058581,-0.722663,0.688713
-0.068194,0.205877,0.838802,0.720637,0.693311,-0.001271
-0.159029,-0.285689,0.564215,0.898155,0.199579,-0.391772
0.033758,0.361729,0.777114,-0.181760,0.536904,-0.823831
-0.502318,-0.054257,0.156280,-0.508292,0.143759,0.849101
-0.519298,-0.431994,0.337468,-0.420695,-0.340537,0.840863
-0.161210,-0.031674,0.698704,-0.420127,-0.441540,0.792803
-0.160461,0.525528,0.649192,-0.043982,-0.773583,0.632167
0.116545,0.369219,0.333029,-0.426646,0.431102,-0.795062
0.151460,-0.033331,0.911922,0.725081,0.682200,-0.094132
-0.182419,0.426219,0.538920,0.699842,-0.227688,-0.677037
-0.142867,0.245783,0.831064,0.788974,0.503980,-0.351461
0.340971,0.005718,-0.663117,0.692001,-0.617446,0.374025
-0.248363,0.499686,0.692563,0.376732,-0.317880,0.870072
0.365453,-0.737236,0.418614,-0.041424,-0.025322,0.998821
0.876775,0.524612,0.429712,0.132987,0.186616,-0.973390
0.487590,0.521126,0.497450,-0.650870,-0.511266,-0.561227
-0.183646,0.334058,0.587596,-0.703601,0.248782,-0.665622
-0.582242,-0.304442,0.251761,-0.138458,-0.489841,0.860747
0.194764,-0.793837,0.431840,-0.023192,-0.251493,0.967581
0.031371,-0.187697,0.618333,0.002275,-0.753987,0.656886
0.240249,0.312847,0.776521,-0.112519,-0.787768,0.605608
-0.174985,-0.770625,0.393273,-0.177033,0.364753,0.914119
-0.203763,0.327711,0.760483,0.618218,-0.124869,0.776025
0.232066,0.280602,0.709862,0.359861,-0.759673,0.541662
0.387072,0.117146,0.659438,-0.034202,0.417154,0.908192
0.058648,-0.704305,0.642899,0.503690,0.060070,0.861793
0.017800,0.631525,0.543055,0.454670,0.388222,0.801598
0.096699,0.452804,0.498955,0.898669,0.223282,-0.377542
-0.159505,-0.164027,0.807502,0.191629,0.534758,0.822990
-0.582104,-0.101366,0.725793,0.750206,-0.511635,0.418832
0.452265,-0.042879,-0.846616,0.980268,0.096052,0.172770
0.852155,0.491739,0.434819,0.539307,0.559317,0.629534
0.130047,-0.000229,0.788910,-0.331716,0.942093,0.049237
-0.481586,0.421074,0.616691,-0.457324,0.812433,0.361673
-0.138638,0.162483,0.699707,-0.402876,0.889953,-0.213718
0.123979,0.021097,0.916847,0.959833,-0.279426,-0.025343
-0.514593,0.038591,0.282955,-0.072206,0.947469,0.311589
-0.066284,0.349266,0.768145,-0.021012,0.404041,0.914500
-0.574604,-0.343548,0.572348,0.987118,-0.054527,0.150418
-0.391366,0.098679,0.730156,0.532563,-0.006209,0.846367
0.596154,0.186611,0.717600,0.253288,0.065853,-0.965147
-0.506204,-0.080098,0.170311,0.935444,0.298805,-0.188839
-0.133184,0.091933,0.686284,0.867094,0.434563,0.243521
-0.004978,0.386370,0.799400,-0.136891,0.453243,-0.880813
-0.254773,0.430279,0.799932,0.764997,-0.573837,0.292387
0.102497,-0.140415,0.816349,0.405285,-0.095361,0.909203
-0.700354,-0.370762,0.556934,0.488196,-0.827582,-0.277080
-0.023800,0.086216,0.394672,-0.481284,0.113773,-0.869150
-0.107677,0.338517,0.275522,0.294439,-0.820626,0.489775
-0.273457,-0.386256,0.366230,0.725706,-0.142441,-0.673098
-0.084219,0.018753,0.824254,-0.695362,0.550875,-0.461528
0.499796,0.348980,0.435701,0.843774,-0.082295,-0.530351
-0.262342,0.406952,0.591381,0.656286,0.218530,0.722173
-0.046986,0.135498,0.792848,-0.384240,0.714128,0.585133
-0.461878,0.332228,0.363995,0.928776,-0.370250,0.017032
0.028574,0.528044,0.775624,0.142327,0.679895,0.719365
-0.437123,0.469099,0.374438,0.034550,-0.620282,0.783617
0.608225,0.585158,0.572713,-0.547496,0.316580,0.774613
0.150438,-0.391001,0.636712,-0.047430,0.312602,0.948699
0.041462,0.390887,0.793593,-0.445229,0.549081,-0.707305
0.456698,0.370820,0.804492,0.039880,0.591428,0.805371
0.223952,0.258133,0.828055,-0.383522,0.362370,0.849470
0.288666,-0.067863,-0.144909,0.936492,-0.337527,0.095171
-0.039962,-0.742268,0.672116,0.063596,0.763371,0.642821
-0.751023,-0.513693,0.335233,0.684930,0.092855,-0.722668
-0.420553,0.589560,0.442907,0.945750,-0.320529,-0.053088
-0.020934,0.248128,0.560233,0.225715,-0.799486,0.556664
-0.465630,0.088789,0.740767,0.980451,0.110958,-0.162492
-0.086061,0.002745,-0.221389,0.093979,-0.967690,-0.233975
-0.308920,-0.029558,0.702976,0.041332,0.319002,0.946852
-0.456765,-0.412155,0.479710,0.939328,0.204278,0.275560
-0.165574,-0.084272,0.021761,0.067556,-0.976889,0.202789
0.201923,0.941513,0.511466,0.139599,-0.810183,0.569311
0.309330,0.011378,-0.298354,0.232837,0.947542,0.218976
-0.045893,-0.500029,0.732756,0.625336,-0.775507,0.086848
-0.568398,-0.284146,0.484377,0.864727,0.496691,-0.074460
0.561308,0.435710,0.704298,0.037252,-0.743847,0.667311
0.256615,-0.035847,0.196549,0.485245,-0.867602,0.108646
-0.261320,-0.025613,0.692821,0.016779,-0.482774,0.875584
0.779120,0.122521,-0.981940,-0.013503,-0.124967,0.992069
0.126025,0.574810,0.519705,-0.521778,-0.405214,0.750699
0.021209,0.405923,0.624505,-0.680182,0.696769,0.227739
-0.500681,-0.038591,0.689811,-0.103844,0.994336,-0.022643
0.075559,-0.037390,0.909277,0.843539,-0.453500,-0.287714
-0.510978,0.129838,0.678212,0.438133,-0.891764,0.113121
-0.472993,-0.370247,0.639159,0.929734,-0.202714,0.307412
0.636116,0.525070,0.578733,-0.364872,0.327332,0.871620
0.255728,0.618775,0.504564,0.882295,0.127919,0.452981
-0.073921,0.137614,0.822096,0.824239,-0.092195,0.558686
-0.459424,-0.657138,0.394049,0.346635,0.273803,-0.897149
0.209221,0.008461,0.893254,-0.337491,0.891975,-0.300799
0.128070,0.769139,0.522897,0.188081,0.693486,0.695487
-0.550804,-0.251158,0.263923,0.051198,0.192639,0.979933
-0.413733,0.397919,0.451754,0.465495,-0.884568,0.029227
0.224087,-0.037047,0.953711,0.794886,0.529244,-0.296744
0.033621,0.329312,0.782830,-0.402127,0.672680,-0.621124
-0.489089,-0.376308,0.544317,0.502032,0.618107,-0.604903
-0.059874,0.138929,0.849124,0.252072,0.963448,-0.090704
-0.516025,-0.294437,0.675552,-0.592331,-0.763642,-0.256894
-0.390683,0.627695,0.380686,0.566144,-0.106478,-0.817401
-0.001773,0.179464,0.184859,0.072952,0.993771,-0.084249
-0.621862,-0.724030,0.347608,0.872277,-0.381554,0.305860
0.004025,0.631067,0.679170,0.127574,-0.041793,0.990948
-0.549577,-0.226345,0.264850,0.147415,-0.051687,0.987723
0.063695,-0.104397,0.913290,0.159579,-0.789570,0.592549
0.617022,0.338632,0.725155,0.164193,0.925796,0.340502
-0.285938,0.349665,0.744476,0.822456,0.397620,0.406773
-0.381751,-0.064547,0.659666,-0.220189,0.970017,0.102881
-0.271070,0.322738,0.751165,0.763847,-0.331620,0.553684
-0.643957,-0.583728,0.495352,-0.172000,0.738226,0.652257
-0.387001,0.078898,0.314666,0.686698,-0.218865,-0.693213
-0.257705,0.559259,0.395128,-0.619159,0.765587,0.174697
-0.335718,-0.479218,0.613529,0.931964,-0.008777,0.362446
0.057558,0.504603,0.451267,-0.592916,0.493450,0.636363
-0.401322,-0.597679,0.367613,-0.630350,0.744194,0.220984
0.006071,-0.236693,0.332148,0.469907,-0.869397,0.152762
-0.488065,-0.132983,0.158424,-0.675070,0.636727,-0.372638
0.025573,-0.650391,0.652005,-0.761882,-0.162020,0.627125
0.073514,0.400949,0.104549,0.299752,0.181692,0.936556
-0.486156,-0.405008,0.298719,-0.170628,0.925062,0.339331
-0.202741,-0.042651,0.126166,-0.575722,0.069925,-0.814650
-0.227562,0.096736,0.711808,0.255599,0.103352,0.961243
0.266094,-0.004974,-0.495838,-0.158985,-0.979091,0.126902
-0.257501,0.417987,0.555642,-0.062345,0.926791,0.370366
-0.106041,0.458065,0.703842,-0.317333,-0.892671,-0.320061
-0.028844,-0.757418,0.410953,0.546795,0.433984,0.716012
0.240794,-0.112972,0.934101,0.673089,0.188404,-0.715161
-0.190874,0.077926,0.450918,0.778655,-0.237094,-0.580933
0.227771,-0.216340,0.921408,-0.099204,-0.853351,-0.511811
0.343631,0.020011,-0.046920,0.930821,-0.362513,0.046450
-0.251295,0.148190,0.485213,-0.535052,-0.844240,0.031289
-0.168234,0.158710,0.443940,0.955008,0.295743,-0.022268
-0.881137,-0.229146,0.164565,0.064654,0.238400,0.969012
0.062602,0.664971,0.356485,-0.185131,0.095295,0.978082
0.351337,0.419473,0.728758,-0.521549,0.641430,-0.562631
-0.239498,-0.566806,0.585133,-0.741750,0.583246,-0.331106
-0.411756,-0.786748,0.419831,-0.246079,-0.562037,-0.789658
-0.752182,-0.623406,0.340220,-0.699553,0.621727,-0.352252
0.017255,0.680979,0.551598,-0.715567,-0.492138,0.495746
-0.024549,-0.013950,0.848455,0.745436,-0.142503,0.651167
0.321469,0.022183,-0.993387,-0.056470,0.088091,0.994511
0.146209,-0.238923,-0.092373,-0.835904,0.547715,-0.035665
0.777892,0.520667,0.662433,0.286076,-0.807502,0.515850
0.349429,0.065920,0.428541,0.883461,-0.452054,0.123060
0.200560,0.282031,0.836841,0.704249,0.576738,0.414012
-0.629227,-0.606484,0.216874,0.812109,-0.025764,-0.582936
-0.163324,-0.077697,0.020484,0.067556,-0.976889,0.202789
-0.756546,-0.548911,0.312598,0.372877,-0.238268,0.896767
-0.017935,-0.023212,0.769088,-0.690982,-0.634731,0.345918
-0.000545,0.057630,0.876685,0.692184,-0.704830,0.155228
-0.457379,-0.038534,0.580086,-0.641400,0.101201,0.760503
-0.284300,0.016866,0.507650,-0.114328,0.584136,0.803563
0.462494,0.698931,0.497237,0.289992,0.719001,-0.631619
-0.562942,-0.240409,0.489560,0.053186,-0.853775,0.517919
-0.261183,0.418558,0.426504,0.420111,-0.407897,0.810633
-0.008797,0.718542,0.556873,0.818084,0.573689,0.040237
-0.039962,0.148420,0.712036,-0.062036,-0.830485,0.553576
-0.051553,-0.377680,0.578474,-0.192586,-0.569730,0.798949
-0.304963,0.543537,0.625219,-0.330700,0.465721,-0.820818
-0.152140,-0.031788,0.879892,0.706755,0.707187,-0.019587
-0.560419,0.253502,0.416547,-0.699270,-0.483310,-0.526719
-0.338378,0.435139,0.430396,0.921939,-0.028616,-0.386277
0.534984,0.208393,0.717615,-0.164921,-0.441479,0.881985
-0.295349,0.361901,0.573777,-0.311360,0.950065,-0.020779
0.183307,0.531817,0.527078,-0.584362,-0.650202,0.485549
-0.455945,-0.018524,0.670049,0.344501,-0.310627,0.885906
-0.507842,-0.124635,0.152039,0.702865,-0.183481,0.687252
-0.019775,0.338974,0.763052,0.886414,0.412537,0.209961
-0.868384,-0.319879,0.102451,-0.782519,0.576710,-0.234669
0.126638,-0.221885,-0.993235,0.178411,-0.095449,-0.979316
-0.599359,-0.381511,0.714316,-0.726485,-0.654596,-0.209100
-0.646753,-0.614945,0.542568,0.880945,0.448407,-0.151220
0.144367,-0.029616,0.822567,0.291835,0.809515,0.509429
0.418031,-0.042250,-0.931973,-0.440021,-0.890756,-0.113734
-0.030345,0.657024,0.544119,0.416742,0.869241,-0.265981
-0.393411,-0.276313,0.469099,0.525505,-0.749776,0.402095
-0.500681,-0.083986,0.677559,-0.110315,-0.764765,0.634796
0.270527,0.609114,0.490229,0.974745,0.152624,0.163028
0.814035,0.555314,0.588690,-0.758781,0.453850,0.467196
-0.295211,0.281402,0.759222,0.792850,0.210452,-0.571925
-0.380727,0.311532,0.587854,-0.742471,0.664426,-0.085295
-0.324537,0.065291,0.656079,0.406341,0.185238,0.894748
-0.117226,0.079527,0.486383,0.833339,0.437588,0.337732
-0.414757,0.122120,0.696819,0.240254,-0.250930,-0.937716
-0.881205,-0.233606,0.150686,-0.244276,-0.199367,-0.948990
0.176691,-0.160197,0.925254,0.940537,-0.281384,-0.190298
-0.198308,0.463782,0.760255,0.930235,0.245769,-0.272509
-0.160255,0.482306,0.355649,0.386387,-0.592158,-0.707145
0.333812,-0.044594,-0.802409,-0.792602,-0.609093,0.028069
0.619681,0.896347,0.547798,-0.328890,-0.109939,0.937947
0.407733,0.388085,0.699099,0.619260,-0.345106,0.705280
0.694013,0.505346,0.436567,0.812168,-0.318259,-0.488974
0.178123,-0.302841,0.836841,0.782510,-0.244573,0.572593
0.172669,-0.007146,0.875408,0.218644,0.974256,-0.054949
0.036349,-0.080441,0.909520,-0.600961,0.775376,-0.194003
0.113475,0.362816,0.770562,-0.701793,-0.082679,0.707567
-0.237997,0.407124,0.421792,-0.687712,0.123759,-0.715358
0.432557,0.347093,0.695421,-0.564204,0.739190,-0.367792
-0.023117,0.201247,0.851571,-0.519716,0.683644,-0.512373
0.378411,0.651136,0.109368,-0.049278,-0.009925,0.998736
0.314853,0.280544,0.772097,-0.198374,0.473840,0.857977
0.248363,0.560060,0.655364,0.161716,-0.904378,0.394902
-0.412164,0.600995,0.376308,-0.065932,0.351258,0.933954
-0.071944,0.435367,0.767096,-0.535979,0.595317,-0.598601
-0.159709,0.517523,0.351606,0.286680,-0.148849,-0.946392
-0.436101,0.237494,0.396785,0.700273,0.713856,0.005328
-0.000408,-0.050998,-0.158652,0.019983,0.945818,0.324081
-0.699399,-0.519295,0.581834,0.851964,-0.514721,0.096016
-0.411550,0.516265,0.379866,-0.451325,0.318511,-0.833580
0.242636,-0.098565,0.928613,-0.554737,-0.295723,0.777699
0.540713,0.227374,0.713906,-0.111992,-0.386652,0.915400
0.318399,0.019096,-0.438209,0.328863,0.944371,0.003482
-0.635365,-0.412383,0.229294,-0.268913,-0.646846,0.713636
-0.169938,0.227889,0.872504,-0.280956,0.827998,-0.485266
-0.051485,0.445543,0.834150,-0.511965,-0.524844,0.680022
-0.355291,0.146190,0.743549,-0.004212,-0.509647,0.860373
0.365318,-0.372363,0.651351,0.228467,-0.528048,0.817905
-0.014389,-0.572752,0.631893,0.909260,0.351812,-0.222429
-0.249316,0.137900,0.340949,0.612250,0.634439,-0.471844
-0.322557,0.291978,0.596640,-0.570050,0.669413,-0.476372
-0.384206,0.286376,0.433725,0.711645,0.627503,-0.315914
-0.690602,-0.473672,0.390111,-0.409063,0.139909,-0.901717
-0.132228,0.122978,0.695633,0.857588,0.514324,0.003646
0.039281,0.565948,0.666355,-0.440050,0.506554,0.741457
0.468017,0.416214,0.545776,0.817618,-0.532483,-0.219004
-0.237860,0.474301,0.761882,0.484334,0.397885,-0.779171
-0.719175,-0.287805,0.268590,0.055475,-0.458596,0.886911
0.267732,-0.003258,-0.479877,0.171746,0.983703,0.053208
0.471018,0.636613,0.472230,0.055363,0.177789,0.982510
-0.266706,0.109313,0.391084,-0.314523,-0.314834,0.895519
0.409985,0.003145,-0.651305,0.926758,0.319096,0.198238
-0.339265,-0.604254,0.618896,0.896680,0.425251,0.122987
0.179079,0.048539,0.873386,-0.875719,0.467666,-0.120019
0.341858,0.090961,0.102056,0.807223,-0.270886,0.524415
-0.075081,-0.350123,0.444776,0.219582,0.970293,-0.101564
-0.399959,0.197645,0.674093,0.500063,0.250120,0.829082
0.044191,0.267166,0.703994,-0.093081,-0.299497,0.949546
-0.508524,-0.426620,0.321613,0.906247,-0.397519,-0.143857
-0.314443,-0.477617,0.320442,-0.610338,-0.595469,0.522403
0.445583,0.103654,-0.989997,0.154334,-0.307917,-0.938812
-0.009477,-0.058545,0.835427,-0.490553,-0.607128,0.625102
-0.447354,-0.093077,0.690237,0.807359,-0.524249,-0.270803
-0.068944,0.295695,0.707947,-0.609423,0.119034,0.783859
-0.375613,-0.028758,0.588371,-0.668252,0.456617,0.587317
-0.165780,-0.240867,0.604469,-0.589771,0.785232,-0.188630
-0.413119,-0.683609,0.535408,-0.487275,0.680922,-0.546724
-0.425873,-0.038877,-0.231255,0.146627,-0.862195,0.484893
0.436921,-0.035733,-0.519827,-0.380829,0.918202,0.108969
0.018890,-0.291293,0.846008,0.463547,-0.411487,-0.784731
0.139254,0.054257,0.966526,0.009236,0.882826,0.469609
-0.238066,0.111143,0.674138,-0.204586,0.955654,0.211826
0.322901,-0.217540,-0.984631,-0.167912,0.002198,0.985800
-0.427167,-0.503859,0.240923,0.604883,0.112111,0.788383
-0.519094,-0.063404,0.705712,0.644463,0.359540,0.674832
0.155893,-0.392545,0.436674,-0.497756,0.484350,-0.719475
0.272300,0.953862,0.523004,0.429803,0.895149,-0.118225
-0.813284,-0.579441,0.546658,-0.384873,0.887339,-0.253973
0.796169,0.582586,0.652613,-0.330564,0.858253,-0.392593
-0.022230,-0.130810,0.907589,-0.667057,0.744821,-0.016637
-0.262546,0.333943,0.700483,-0.399961,-0.690567,0.602619
-0.027140,0.239494,0.773298,-0.672145,0.616441,-0.410148
0.124251,-0.158424,0.702003,-0.522631,0.307103,-0.795326
-0.291530,-0.311703,0.229385,-0.620342,0.219629,-0.752953
-0.143206,-0.340347,0.761213,-0.600556,0.744000,0.292909
0.288600,0.481505,0.328925,-0.184102,-0.411182,0.892769
-0.496999,-0.139786,0.362840,-0.051509,0.006462,0.998652
-0.509274,-0.110113,-0.143100,0.008165,0.955823,0.293830
-0.296712,-0.037791,0.378999,0.395340,-0.671719,0.626498
0.117294,0.112916,0.948558,0.894398,-0.422881,-0.145686
-0.133046,-0.607970,0.391814,-0.321017,0.272762,0.906945
-0.417007,0.494655,0.595926,-0.368060,-0.519638,0.771043
-0.234041,0.094792,0.304663,0.493841,0.864050,-0.097665
-0.536961,-0.830713,0.385399,0.321336,0.802987,0.501951
-0.738543,-0.066034,0.517972,-0.393040,0.733811,-0.554113
0.444082,0.347436,0.578429,0.192393,-0.976939,-0.092601
0.058648,0.517066,0.780626,-0.052346,0.817941,0.572915
0.356588,-0.146533,0.851693,0.978883,0.197969,0.050950
-0.336266,0.667144,0.395113,-0.635919,0.358888,0.683233
-0.501091,-0.166771,0.650044,-0.619365,0.389262,-0.681808
-0.614566,0.020296,0.134542,0.584814,0.022549,-0.810854
0.197559,0.041679,0.801573,-0.685864,-0.674840,-0.272362
-0.487316,-0.158996,0.153818,0.706170,0.362140,0.608423
-0.669530,-0.818993,0.346939,0.125166,0.966599,0.223650
-0.694489,-0.551483,0.306229,-0.517338,0.214085,-0.828571
-0.437056,0.573381,0.386767,0.035295,0.345303,0.937827
-0.280619,0.477503,0.700027,0.932225,-0.312171,0.183045
0.407665,0.398891,0.716080,0.804186,-0.411321,0.429068
0.230497,0.647820,0.476046,0.805973,0.032363,-0.591066
-0.078013,0.095421,0.820499,-0.148526,-0.450493,0.880339
0.001159,0.686524,0.527169,0.870576,0.491763,0.016320
-0.359314,-0.470070,0.494698,0.600750,0.134986,0.787958
0.475724,-0.024698,-0.734261,-0.050943,0.960134,-0.274860
-0.021821,-0.405637,0.779014,-0.613811,0.730570,-0.299170
-0.073990,0.464639,0.787801,0.977410,-0.039280,-0.207668
0.586267,-0.514722,0.387101,-0.592390,-0.051793,-0.803985
0.056671,0.154365,0.771383,0.993731,0.060841,-0.093788
-0.224495,-0.290092,0.617299,0.360354,-0.899201,0.248157
0.620772,0.504603,0.583901,0.550082,-0.257204,-0.794516
-0.412370,-0.852210,0.298066,0.219171,0.518315,0.826628
0.161553,0.077468,0.936974,0.336031,0.938042,0.084621
-0.209082,0.163284,0.845658,0.483132,-0.746424,0.457640
0.166939,0.009376,0.821944,-0.177954,0.943764,0.278643
-0.404187,-0.644845,0.548102,-0.657684,0.738792,-0.147098
0.631683,0.066263,-0.975875,-0.196169,-0.170683,-0.965601
0.119546,-0.332856,0.447300,0.371427,-0.718781,0.587704
-0.231587,0.352468,0.764497,-0.426799,-0.558554,-0.711238
0.353997,0.183237,-0.995303,-0.132781,0.029646,0.990702
0.305101,-0.011835,-0.215186,0.938083,0.335657,0.085647
0.136594,0.068492,0.923505,0.943868,-0.318902,-0.086105
0.196058,-0.240924,0.630464,0.583985,-0.273093,-0.764449
-0.145730,0.208564,0.858184,0.939578,0.030885,0.340939
-0.066829,0.248871,0.767339,0.846495,0.532374,-0.004948
-0.228110,0.249271,0.732087,-0.302127,0.751449,-0.586553
-0.162028,0.513121,0.522913,0.167818,-0.961461,-0.217786
-0.302576,0.129838,0.699829,0.739062,-0.448454,-0.502669
-0.388706,-0.654279,0.390248,-0.702777,0.365176,0.610533
-0.455333,-0.496141,0.316870,-0.217254,-0.190732,0.957299
0.217336,0.938769,0.508182,0.065421,-0.636909,0.768158
0.145119,0.165057,0.641561,-0.351345,0.844026,0.405187
0.232953,-0.143217,0.673044,-0.115376,-0.884755,0.451550
-0.452126,-0.357784,0.340463,0.322343,0.276986,-0.905193
0.039689,0.580241,0.705940,-0.321703,0.781974,-0.533876
-0.507911,-0.790120,0.413263,-0.601958,-0.485051,-0.634328
0.299987,-0.589504,0.366838,0.221519,-0.395209,0.891481
-0.032869,-0.098279,0.751940,0.608993,0.206090,-0.765934
-0.154731,0.432051,0.557831,-0.877960,0.032113,-0.477655
-0.372067,-0.404780,0.502770,0.233526,-0.502357,0.832528
-0.425735,0.389343,0.455265,-0.517287,-0.807828,-0.282540
-0.366610,-0.149905,0.627652,0.931872,0.311919,0.185263
-0.702810,-0.750843,0.359039,0.074834,0.324929,0.942773
-0.093630,0.240467,0.719530,0.065233,-0.363137,0.929449
-0.529458,-0.360128,0.120450,-0.215009,-0.809436,0.546429
0.474633,0.330341,0.672481,-0.393685,0.768547,-0.504329
0.392664,0.014636,-0.965538,-0.534608,0.724925,0.434371
-0.611906,0.226231,0.515327,-0.152065,0.136702,0.978871
0.140345,0.018809,0.886322,0.372428,-0.918158,-0.135218
-0.727017,-0.523126,0.619640,0.735435,0.160612,0.658286
0.198104,0.202275,0.888010,0.111383,0.862625,-0.493430
-0.108223,0.179807,0.838194,-0.643686,-0.016718,-0.765107
-0.773936,-0.501000,0.326584,-0.971831,0.198537,0.126993
0.082720,-0.172831,0.710865,0.123614,0.230335,0.965228
0.432353,0.596879,0.494470,0.004420,0.362749,0.931877
0.119750,-0.410268,-0.989070,-0.032095,0.229182,0.972854
-0.292348,0.242926,0.429134,0.678807,0.429123,-0.595882
-0.458059,-0.285461,0.514491,0.781184,-0.198216,-0.591999
-0.182556,0.466183,0.528309,0.216309,-0.767249,-0.603770
-0.388978,-0.614888,0.556463,0.752389,-0.658367,0.021510
-0.363064,-0.851695,0.425303,-0.130523,-0.644902,-0.753038
0.343972,0.168087,0.662099,0.335003,0.161020,0.928357
0.174577,0.081299,0.707187,0.405370,0.512178,0.757198
-0.065535,-0.204334,0.655516,0.802026,0.522450,0.289484
-0.445922,0.326282,0.363767,0.929374,-0.300315,-0.214651
0.210108,0.035390,0.926880,0.266819,0.905221,0.330731
-0.133933,0.339946,0.654011,-0.648896,0.201515,-0.733707
-0.027891,0.031273,0.859066,0.992012,-0.078068,-0.099080
-0.423076,-0.578812,0.436309,-0.100256,-0.796197,0.596673
-0.207788,0.500772,0.585589,0.326036,0.825022,-0.461562
-0.416938,0.398090,0.419527,-0.421202,-0.112833,-0.899921
0.513640,0.827283,0.502923,0.285914,0.848507,-0.445297
0.565603,0.469842,0.581895,-0.053120,0.464713,0.883867
-0.049235,0.215025,0.405055,-0.526626,-0.302299,-0.794532
0.133866,0.121777,0.342363,0.871736,0.432173,0.230873
0.005319,0.064605,0.787162,-0.226492,-0.713710,0.662812
-0.439851,0.140072,0.419329,0.390898,0.537058,-0.747508
-0.236224,0.406438,0.769027,0.907964,0.325335,-0.264119
0.208402,-0.080499,0.354388,0.884683,0.465549,-0.024484
0.320990,0.399006,0.756637,0.863240,-0.469529,-0.185360
0.623365,0.240981,0.713830,-0.462676,-0.022747,0.886235
-0.122408,-0.499800,-0.978733,0.123163,-0.030931,0.991904
0.353179,0.227889,0.450994,-0.079856,0.259464,0.962446
-0.022640,-0.233205,0.739140,0.814098,0.428788,-0.391645
-0.440330,0.043222,0.132201,-0.445625,0.137495,0.884598
-0.319148,-0.286262,0.317174,0.731515,-0.383190,-0.563960
-0.097107,-0.045909,0.847300,0.793001,0.303285,-0.528363
0.080947,0.208336,0.753932,0.374448,-0.085026,0.923341
-0.005658,-0.113887,0.894394,-0.253688,0.882120,0.396870
-0.746863,-0.267566,0.106480,0.035262,0.789208,0.613112
-0.026936,-0.395403,0.535013,-0.439559,0.876412,0.196700
-0.594926,-0.181464,0.406940,-0.629490,0.676956,0.381410
0.474565,0.049912,-0.984966,0.258396,-0.586275,-0.767797
-0.304281,0.378480,0.757109,0.963734,0.072161,-0.256922
-0.373634,0.625064,0.453867,-0.001498,0.632061,0.774917
0.613681,0.482877,0.619397,-0.253918,-0.580186,-0.773893
-0.454240,-0.287691,0.646061,-0.009039,-0.996011,-0.088769
-0.622953,-0.484363,0.224596,0.587782,-0.169937,-0.790970
-0.375955,0.648619,0.384988,-0.525903,-0.115835,0.842620
0.134070,-0.307358,0.653570,-0.190293,0.916065,-0.353006
-0.783755,-0.083071,0.507863,0.184342,-0.050237,-0.981577
-0.047735,0.297010,0.558849,0.318450,0.264717,0.910228
0.060898,0.174204,0.164474,-0.359004,-0.925728,0.118932
-0.270594,0.415070,0.727724,0.865063,-0.351750,-0.357685
-0.672463,-0.574410,0.185574,0.950205,-0.068500,-0.304003
-0.742430,-0.569150,0.538844,-0.142876,0.772137,-0.619186
-0.262683,0.251558,0.561692,0.987734,0.043460,-0.149979
0.534370,0.889715,0.540987,0.682113,0.209611,-0.700560
-0.535664,0.203705,0.785992,0.260870,-0.963573,-0.058941
-0.188487,0.223029,0.716900,0.169312,-0.868961,0.465016
-0.166598,0.512549,0.476168,0.172666,0.981055,-0.087850
0.380321,-0.257218,0.816289,0.013960,0.986132,0.165373
-0.154051,-0.051913,0.886338,0.878747,-0.125709,0.460436
-0.469722,-0.583900,0.224718,-0.158937,0.043932,0.986311
-0.274003,0.618890,0.441234,-0.519323,0.820020,-0.240565
-0.060419,-0.340118,0.752898,-0.381571,-0.920749,0.081395
0.518004,0.791608,0.501934,-0.741442,0.094088,0.664388
-0.748636,-0.564348,0.573230,0.213759,-0.891015,0.400498
-0.114020,0.406209,0.734382,0.722145,0.672002,0.164076
-0.169530,0.244240,0.748261,-0.211710,-0.865527,0.453919
-0.428667,-0.539991,0.585984,0.208092,0.729695,0.651339
0.162099,0.333715,0.834652,-0.151882,0.817839,0.555042
0.327675,0.594477,0.637350,0.809154,-0.191379,0.555558
0.030826,0.076440,0.730931,0.931365,-0.338542,0.133974
0.046167,-0.861872,0.408004,-0.408000,0.195803,0.891738
-0.353381,-0.628380,0.544225,0.507864,0.247202,-0.825206
-0.339947,0.184037,0.479664,-0.759258,-0.648639,0.052867
0.608839,0.523584,0.582746,0.894275,-0.143907,-0.423749
-0.532118,0.448745,0.451070,0.488832,0.284905,0.824544
-0.430441,-0.593219,0.625736,0.537539,-0.740408,0.403544
-0.593426,-0.794809,0.330217,-0.618504,0.718572,0.317973
-0.328763,0.616375,0.387679,0.458392,0.091915,-0.883984
-0.253477,-0.077468,0.843211,0.855764,-0.163843,-0.490738
-0.141570,0.490653,0.361563,0.030563,0.505402,0.862343
-0.549645,-0.544623,0.229430,-0.338828,0.098818,0.935644
0.305034,-0.079698,0.663224,0.724944,-0.003442,0.688799
-0.479951,-0.317535,0.563349,0.186236,-0.125003,-0.974521
0.632570,0.612315,0.570220,-0.547496,0.316580,0.774613
0.239090,0.003087,0.688838,-0.196407,-0.976055,-0.093495
0.164417,0.284146,0.429195,0.280076,-0.113785,0.953211
0.210585,0.299183,0.708692,0.252401,-0.723792,0.642198
0.451787,0.221371,-0.991502,0.018999,0.119211,-0.992687
-0.459560,-0.682351,0.393821,-0.287327,-0.166893,0.943181
-0.266365,-0.780630,0.289826,-0.556766,0.261000,0.788600
0.046713,0.398891,0.794246,-0.492619,0.722012,-0.485824
0.258457,-0.098451,0.897237,-0.482112,-0.426336,0.765380
0.611022,0.381854,0.434667,-0.042508,0.871098,0.489266
-0.670962,-0.574123,0.210671,0.895816,-0.277106,-0.347455
0.255321,0.289692,0.698111,0.126634,-0.807616,0.575951
-0.015411,-0.434452,0.704861,-0.551433,0.495391,0.671200
-0.478791,0.011092,0.580785,-0.623302,0.570770,-0.534524
0.558376,0.415528,0.700771,0.255098,-0.729685,0.634417
-0.396275,0.214224,0.751165,0.821256,-0.359688,0.442902
0.305783,-0.045280,-0.638232,0.958538,0.275245,0.073788
-0.058032,0.676406,0.715578,0.442751,-0.487117,0.752787
-0.238746,0.490252,0.683898,-0.399516,0.360475,-0.842879
0.555647,0.476131,0.701182,-0.213996,0.365140,-0.906023
-0.546372,-0.018066,0.137977,0.406081,0.367787,-0.836559
-0.174508,0.411297,0.405556,0.926609,0.284829,0.245495
-0.489907,-0.648676,0.428708,0.234135,-0.610738,0.756426
0.088516,-0.150191,0.841113,0.840719,0.504556,-0.196505
0.734657,0.088960,-0.979828,0.105370,0.010777,0.994375
-0.147845,0.443085,0.716809,0.258697,0.885475,0.386017
0.626638,0.460866,0.735112,-0.471142,-0.875939,-0.103709
-0.022299,0.372764,0.616631,-0.633430,0.507644,0.584007
0.205810,-0.590875,0.631802,0.320570,-0.766095,0.557076
0.719927,0.561832,0.671569,-0.249091,0.964856,0.083711
0.473064,-0.548339,0.409159,-0.233991,0.020241,0.972028
-0.008864,-0.361901,0.678075,-0.366540,0.760822,0.535536
-0.308441,0.365845,0.441614,0.214099,0.730728,0.648227
0.534645,0.496142,0.696804,-0.321187,0.384138,-0.865608
-0.172190,-0.812818,0.399324,-0.196593,0.689613,0.696983
-0.271139,0.113830,0.407213,0.012494,-0.077899,0.996883
-0.285801,0.201303,0.535074,0.135768,0.981007,0.138535
0.357406,0.020754,0.685904,-0.270696,0.897276,0.348740
0.026528,-0.061803,0.909307,-0.592582,0.546396,-0.591860
0.132434,-0.268024,0.848957,-0.217255,0.389612,0.894988
-0.505592,-0.463610,0.313070,-0.496925,-0.153398,0.854128
0.374115,0.348980,0.790461,-0.388843,0.915833,0.100254
0.227974,-0.062089,0.320214,0.986311,-0.119912,0.113187
-0.330333,-0.080727,0.676434,0.565915,0.821146,-0.073886
0.442513,0.538677,0.516011,0.975514,0.219827,0.007012
-0.363678,-0.264536,0.615430,-0.517800,0.489406,-0.701688
-0.503409,-0.132354,0.697898,0.290193,-0.191692,0.937573
-0.262342,0.502201,0.446829,0.989736,0.126973,0.065584
0.011321,0.016866,0.808703,0.786713,0.081456,0.611922
-0.344039,-0.051055,0.685813,0.316148,-0.843916,0.433424
-0.366338,0.318793,0.394535,0.878579,-0.375142,-0.295580
-0.053668,-0.576353,0.463474,0.020746,-0.076128,0.996882
-0.260569,0.418215,0.773010,0.831596,-0.305064,-0.464095
-0.049304,0.421531,0.621206,-0.205218,0.899790,-0.385051
0.185761,0.110457,0.741329,0.790896,0.599036,-0.125061
0.185353,0.132296,0.288838,0.925537,0.378349,-0.015253
0.685830,0.059974,-0.976848,0.104136,0.041092,0.993714
-0.106314,0.381397,0.690374,-0.814111,0.579612,-0.035670
0.092608,0.705906,0.525193,-0.073765,-0.204321,-0.976121
0.210585,-0.663598,0.387010,-0.849170,0.337952,-0.405832
-0.193261,-0.260305,0.574461,-0.136726,0.990555,-0.010353
-0.857472,-0.184666,0.541428,0.931107,-0.254076,0.261696
0.348336,0.127608,0.565234,0.826436,-0.199338,-0.526563
-0.437464,0.175233,0.686512,-0.202809,0.856759,0.474165
-0.354336,-0.194614,0.624870,0.956580,0.008096,-0.291358
-0.693671,-0.439998,0.608361,0.705215,0.148390,0.693291
-0.260638,-0.348236,0.365150,-0.324983,-0.226200,-0.918270
-0.475859,0.005774,0.553985,-0.614672,0.489326,-0.618658
0.424713,0.755417,0.532459,-0.014038,-0.269293,0.962956
-0.168440,0.393917,0.392392,0.952097,0.111258,0.284840
-0.414485,0.356297,0.796511,-0.500194,0.732080,-0.462455
0.104884,-0.547653,0.691696,-0.220994,0.962755,-0.155768
0.243319,-0.185067,0.918656,-0.707776,-0.333859,-0.622568
-0.351062,0.464582,0.608346,0.765019,-0.092561,-0.637321
-0.489361,0.194557,0.779972,-0.501890,0.738426,-0.450371
-0.019843,0.237723,0.591548,0.930882,-0.362937,-0.041661
0.650369,0.498370,0.613453,-0.115043,-0.453628,-0.883735
0.077811,0.002172,0.848592,0.668883,0.230910,0.706595
-0.079786,-0.061003,0.726265,0.817005,-0.369045,-0.443068
0.606724,0.464811,0.697670,-0.654270,0.676203,0.338645
0.063695,-0.407981,-0.086003,0.509565,-0.664111,-0.547083
-0.479882,0.052370,0.704253,-0.495823,0.798662,0.341026
0.809192,0.129667,-0.977912,0.017396,-0.269426,0.962864
0.251705,-0.297296,-0.986607,0.155217,0.011641,-0.987812
0.235475,0.492997,0.332330,-0.010364,-0.408608,0.912651
-0.016501,0.399863,0.556478,0.932827,0.183990,-0.309809
-0.085309,-0.087073,0.766822,-0.094235,-0.042402,0.994647
0.022847,-0.530272,0.397895,0.441897,0.219142,-0.869887
0.392799,-0.116117,-0.981712,-0.224347,-0.107367,0.968577
-0.650163,-0.069007,0.574872,-0.019939,-0.969720,0.243406
0.265618,-0.014064,0.108122,-0.193308,0.954908,0.225349
0.033007,0.730204,0.562437,-0.002479,0.972774,0.231743
0.122272,-0.352352,0.850386,-0.552695,-0.156362,0.818583
-0.288325,0.576868,0.628108,0.192294,-0.305064,0.932716
0.125138,-0.003258,0.838589,0.934774,0.338581,-0.107518
-0.810759,-0.605626,0.540212,-0.217601,-0.821498,0.527059
-0.198718,-0.071122,0.528264,0.745137,0.036100,-0.665933
-0.339402,-0.042422,-0.210337,0.146627,-0.862195,0.484893
-0.792962,-0.719742,0.346620,0.822965,0.464327,0.327307
0.194013,0.081928,0.877946,0.474104,-0.314224,0.822489
0.411076,-0.030416,-0.599529,-0.405460,0.895112,-0.185411
0.164827,0.250129,0.761958,0.594751,0.318625,-0.738071
0.141300,0.164142,0.735522,0.839408,-0.055642,0.540647
-0.122680,0.472701,0.368890,0.153285,0.481292,0.863054
-0.748840,-0.087931,0.513077,0.453876,0.142796,-0.879549
-0.156163,0.145160,0.825972,-0.273559,-0.934739,0.226780
0.235544,0.003888,0.994011,0.022498,0.928728,-0.370080
-0.268685,0.384140,0.603010,-0.567576,0.509477,-0.646754
-0.766365,-0.455777,0.334200,-0.540162,0.537692,-0.647389
0.087699,-0.495912,0.656535,0.278657,0.250743,0.927081
-0.082922,-0.430850,0.694448,0.702156,-0.428872,-0.568370
-0.186375,-0.493968,0.593281,0.803799,-0.410029,-0.431025
-0.661755,-0.123721,0.093650,0.837924,-0.006673,-0.545745
-0.074673,0.185238,0.754372,0.614194,-0.423520,0.665880
-0.627385,-0.189526,0.150656,-0.169445,-0.958855,0.227785
-0.214607,0.124121,0.407456,-0.274997,-0.606401,0.746093
-0.497679,-0.043622,0.564079,-0.396461,-0.871769,0.287816
0.109043,0.259505,0.618956,0.181841,0.164388,-0.969490
-0.269776,0.150706,0.491400,0.828596,0.321296,-0.458473
-0.392183,-0.012292,0.561768,0.560192,0.209106,0.801536
-0.190670,0.442628,0.723163,-0.074597,0.924452,0.373929
0.640072,-0.037448,-0.978672,-0.258059,-0.090759,-0.961857
0.533758,0.478417,0.710592,0.854474,-0.281710,-0.436479
-0.018616,-0.413928,0.644678,-0.054727,0.282794,0.957618
0.036963,-0.085815,0.216752,-0.439966,0.788247,-0.430229
-0.358496,0.280430,0.581439,0.002202,0.163971,0.986463
-0.246863,0.177692,0.712081,-0.621455,0.129554,-0.772664
0.044191,0.487908,0.342439,0.587424,-0.030723,0.808696
-0.331288,0.326625,0.578216,0.508915,-0.771679,-0.381467
-0.110543,0.222800,0.835488,-0.703260,-0.602470,0.377433
0.096633,-0.349151,0.644206,-0.495653,0.390367,-0.775849
0.228861,0.005203,0.958986,-0.231512,-0.245196,0.941425
-0.005182,-0.276028,0.893893,0.703774,-0.197719,0.682356
0.333743,-0.181178,0.260335,0.995874,-0.047614,-0.077251
0.794737,0.482134,0.640360,-0.305470,-0.936241,0.173610
0.305715,0.894575,0.510934,-0.708730,0.183524,0.681190
-0.261387,0.210680,0.443621,-0.520816,-0.568098,0.637194
0.282666,0.578927,0.509824,0.077037,-0.656234,0.750614
-0.065397,0.307358,0.785475,-0.665557,0.305645,-0.680892
0.142936,-0.239609,0.844244,-0.115399,0.832662,0.541624
0.527687,0.407981,0.551431,0.722307,-0.502924,-0.474700
0.282870,0.040364,-0.984449,-0.036062,0.204619,0.978177
-0.100450,0.063633,0.833254,-0.114765,0.397403,0.910439
-0.058783,0.036876,0.698172,0.178705,-0.195446,0.964295
-0.139729,0.503059,0.653707,0.385687,-0.920690,-0.059806
-0.597925,-0.405980,0.563227,-0.235253,0.889256,0.392274
-0.751158,0.187639,0.524706,0.789789,0.204647,0.578233
-0.550190,-0.688068,0.363873,-0.604644,0.778742,0.167231
-0.275776,0.454120,0.799764,0.797209,-0.601015,0.056910
0.445242,-0.053971,-0.803017,-0.781266,-0.624151,-0.007694
0.354542,0.441942,0.730825,0.240871,-0.815233,0.526665
-0.516570,0.022754,0.286543,-0.508627,0.637163,0.579070
-0.134615,0.793323,0.549014,-0.052742,0.055723,0.997052
0.114227,0.012007,0.112028,-0.003303,-0.981041,0.193773
-0.490317,0.158253,0.770319,0.643525,-0.625614,0.441001
0.554284,0.301298,0.708524,0.019819,0.089517,0.995788
-0.236565,0.650792,0.541991,0.193663,-0.658688,0.727066
-0.114156,0.158253,0.716642,-0.690955,0.440021,-0.573553
-0.208606,-0.148991,0.369316,0.008633,-0.149596,0.988709
-0.013365,-0.012978,0.777585,0.870855,0.488766,0.052140
0.156097,0.026071,0.798396,-0.533339,-0.789887,0.302701
0.027279,0.450689,0.781218,-0.041145,-0.031101,0.998669
-0.010705,0.354526,0.779029,-0.422095,0.790951,0.442982
0.613748,-0.068550,-0.955991,-0.434341,0.188737,0.880753
-0.382158,0.360242,0.444290,0.789939,0.574369,0.214701
-0.323444,-0.423818,0.618622,-0.322494,-0.773229,0.545999
0.233567,-0.178778,0.728302,0.217552,-0.921758,-0.320988
-0.643206,-0.182494,0.152328,-0.174998,-0.937346,0.301260
0.327196,-0.008176,0.160643,-0.734421,0.644107,-0.213897
0.830060,0.263392,-0.974568,-0.166549,0.129168,0.977536
-0.572217,-0.037734,0.545016,0.229054,0.970945,-0.069289
0.375137,0.026356,-0.610778,-0.342685,-0.918458,0.197490
0.600724,0.337316,0.739794,0.292128,-0.394618,0.871170
0.180169,0.638329,0.672770,0.738499,-0.463892,0.489308
-0.015342,0.710366,0.715897,-0.277060,0.960577,-0.022996
0.315604,-0.054656,-0.510751,-0.013215,0.993987,-0.108693
-0.338651,-0.146132,-0.118337,-0.114464,0.990652,0.074200
0.659712,0.431593,0.417550,-0.710321,0.473797,0.520539
-0.308306,0.244126,0.651883,-0.134260,0.434136,-0.890786
0.513436,0.030015,-0.967833,-0.181808,0.842417,0.507227
-0.238066,0.253902,0.750526,0.160378,-0.931550,0.326333
0.307556,0.713395,0.489560,0.187449,-0.306233,0.933319
-0.108087,-0.441141,0.666902,0.578230,0.769529,-0.271064
0.088516,-0.304042,0.845020,-0.455249,0.094169,0.885370
-0.140684,0.366017,0.756136,0.736819,-0.336518,0.586390
-0.581969,-0.034246,0.720990,-0.735483,-0.470944,-0.487111
0.382229,-0.030987,-0.915950,-0.256179,0.964907,0.057674
0.530143,0.269453,0.809813,-0.093836,-0.529240,-0.843267
0.087289,-0.561832,0.689978,0.280585,-0.952300,0.119989
-0.845608,-0.757875,0.258420,-0.290109,0.042175,-0.956064
0.229883,0.373164,0.790446,-0.712115,0.251868,0.655328
0.568535,0.369219,0.418493,-0.052870,0.929657,0.364612
0.192991,0.329884,0.812807,0.930097,-0.362800,-0.057416
-0.051281,-0.400320,0.780017,0.723501,-0.363503,0.586867
-0.097586,0.252816,0.790051,0.792145,-0.444625,0.418107
-0.080331,-0.461666,0.659438,-0.720948,0.426522,0.546180
0.358361,0.743640,0.497419,0.652730,-0.308388,0.691983
0.010570,-0.741581,0.414130,-0.199636,0.096990,0.975058
0.680579,0.457378,0.431779,-0.790270,0.393604,0.469627
0.101474,0.573209,0.662676,-0.133550,0.721307,0.679618
-0.047121,0.069578,0.838118,0.316644,0.863409,0.392761
0.077197,-0.098336,0.896872,-0.041791,0.951431,0.305012
-0.548621,-0.158081,0.395097,-0.112757,-0.887655,0.446491
-0.165507,0.591390,0.514582,0.962427,0.228956,0.145994
-0.122339,0.251844,0.476882,0.652750,-0.721659,0.230491
0.396346,0.212853,0.656048,-0.202210,-0.026749,-0.978977
0.048147,-0.646676,0.650393,-0.487215,0.062153,-0.871067
-0.165439,-0.067120,0.763448,-0.673352,0.725689,-0.141327
-0.145593,-0.058316,0.796101,-0.568479,0.770288,0.288942
0.442923,-0.047167,-0.803823,-0.781266,-0.624151,-0.007694
0.322083,-0.050198,-0.317037,0.475989,0.879447,-0.002792
0.042827,-0.025441,0.936275,-0.498105,0.862538,-0.088990
-0.170076,-0.762106,0.333455,0.376295,-0.869567,-0.319774
-0.230222,-0.399120,0.580208,-0.550618,-0.511516,0.659675
-0.094926,-0.396718,0.772873,0.732590,-0.199579,-0.650753
-0.402142,-0.032016,0.634660,0.955256,0.284740,0.080064
0.485611,-0.646562,0.397150,0.604288,0.405526,-0.685846
0.471836,0.722429,0.511420,-0.300592,-0.758846,0.577751
0.128070,0.203819,0.757990,-0.035457,-0.141104,0.989360
0.017596,0.704477,0.536153,-0.692507,-0.557272,0.458128
-0.373909,-0.508833,0.597933,0.907247,0.400882,-0.127263
-0.461129,0.027729,0.694615,0.713274,0.166655,-0.680783
0.027960,0.651649,0.541915,0.454670,0.388222,0.801598
0.213927,0.308730,0.793425,-0.200501,-0.812796,0.546957
-0.495361,-0.284203,0.495823,0.824940,0.304632,0.476101
0.267664,0.210680,0.888542,0.002013,-0.824154,0.566363
-0.264660,-0.154251,0.327785,0.696612,0.307657,-0.648135
-0.244817,0.477617,0.742165,0.768478,0.606096,-0.205156
-0.605769,-0.335773,0.462152,-0.369234,-0.422832,0.827574
-0.644434,-0.320336,0.379227,0.894305,-0.362469,0.262364
0.245364,0.088217,0.960825,0.657356,-0.695098,-0.291069
0.437604,-0.015608,-0.293566,0.059048,0.933907,0.352607
0.233498,0.379852,0.736191,0.323091,-0.453131,-0.830834
-0.312125,-0.590990,0.585133,0.165496,-0.966842,0.194492
0.131479,-0.193413,0.729427,-0.430943,0.853834,0.291985
-0.350517,0.439369,0.436309,-0.307276,0.756076,0.577867
0.170486,0.454977,0.523870,-0.417082,-0.233518,0.878357
-0.649618,-0.532959,0.555125,-0.325528,-0.944495,0.044284
0.508662,0.689212,0.464523,-0.102652,-0.988224,0.113468
-0.403367,0.046138,0.718010,0.987213,0.010867,0.159034
-0.026526,-0.705449,0.406271,0.477755,-0.243317,-0.844125
-0.200764,0.412956,0.768175,0.833634,0.173608,0.524322
-0.684465,0.018753,0.587565,0.436152,0.113395,0.892700
-0.377932,0.453890,0.609075,0.484087,0.306309,-0.819655
0.506002,0.241724,0.446418,0.379020,-0.013470,-0.925290
-0.346426,-0.379281,0.620492,0.953016,0.182555,-0.241732
-0.078082,0.019153,0.846251,0.303685,-0.928501,-0.213684
-0.072762,-0.513635,-0.081534,-0.202790,0.463310,0.862682
-0.433987,-0.060774,0.529617,0.994185,0.102299,-0.033619
0.079447,0.609056,0.683670,-0.158867,-0.838863,0.520644
0.299032,-0.099480,0.924509,0.662787,-0.431442,0.612022
0.146892,0.552627,0.667328,-0.574381,0.523239,-0.629530
-0.390616,-0.058945,0.668650,-0.108556,0.713054,0.692654
-0.534097,-0.856955,0.219929,-0.415363,0.484839,-0.769678
0.764390,0.476988,0.625843,-0.741338,0.552053,0.381648
-0.465766,-0.597965,0.340372,0.952804,-0.024343,-0.302608
0.143753,0.204448,0.324136,0.901132,-0.045676,0.431133
0.173624,0.053856,0.949196,0.743515,0.605795,-0.283192
-0.685078,-0.344806,0.520693,-0.254586,-0.543321,-0.799993
-0.771549,-0.761020,0.244024,0.264829,0.148248,0.952832
-0.571741,-0.418444,0.584008,0.395943,0.676572,0.620870
0.670692,0.245555,0.727085,0.464520,0.136829,-0.874928
0.106110,0.057286,0.806164,-0.338661,0.814621,0.470852
-0.497340,-0.479218,0.509444,0.220207,-0.918811,0.327560
0.150505,0.744383,0.700908,0.645248,0.562814,0.516619
-0.093495,0.443943,0.669958,-0.462813,0.812880,0.353595
-0.485064,-0.803670,0.366488,0.605862,0.004760,0.795555
-0.025573,-0.162769,0.906997,-0.468895,0.880191,-0.073494
0.217746,0.269053,0.861118,-0.336537,0.554145,0.761358
0.015889,-0.118118,0.908578,0.328352,-0.716154,0.615879
-0.274823,0.186667,0.560780,0.303508,0.658078,-0.689070
-0.222108,0.214568,0.484073,-0.519565,0.806201,-0.283005
0.101611,-0.254874,0.678364,0.851637,-0.522129,0.045772
-0.189170,-0.370076,0.544423,0.214213,0.931740,0.293212
-0.435215,0.179521,0.571816,0.678037,0.060923,-0.732498
0.392050,0.946602,0.495930,-0.141810,-0.568301,0.810508
-0.280619,0.067977,0.723984,0.464474,0.552337,0.692234
0.211606,-0.021726,0.883024,-0.402687,-0.913874,-0.051746
-0.440124,0.133326,0.378437,0.602081,-0.616551,-0.507310
0.007571,0.361901,0.772477,-0.126476,0.958481,0.255574
-0.171507,0.019782,0.145092,0.582117,-0.225136,0.781315
0.882298,0.434510,0.442526,0.381930,-0.668552,-0.638096
0.070718,0.102967,0.904808,0.933716,-0.193280,-0.301358
-0.406506,0.292036,0.427735,-0.149217,-0.583745,0.798108
-0.304418,0.342862,0.554745,0.844107,-0.333737,-0.419647
0.253616,0.007261,0.726082,0.966445,0.256046,-0.020619
0.030826,0.539878,0.779151,0.013961,0.760883,0.648738
0.253820,0.009319,0.934253,0.695515,0.357004,0.623544
-0.269297,-0.024070,0.661658,-0.468457,0.777245,-0.420045
0.235747,-0.043280,0.961677,0.613948,0.144817,-0.775948
0.410393,0.007318,-0.730186,-0.404293,0.896982,-0.178804
-0.191692,0.457664,0.757078,-0.702502,-0.609315,0.367730
