0.520232,-0.225107,0.632150,0.369403,-0.448519,-0.813862
-0.251009,-0.025470,0.207579,-0.273949,-0.883509,-0.379952
0.128647,-0.544994,0.695868,-0.587502,0.801284,0.113074
0.179079,-0.188547,0.390691,-0.519633,-0.361025,-0.774366
0.595852,0.380195,0.390058,-0.807191,0.234256,0.541818
0.308241,-0.670344,0.792202,0.149434,0.987792,-0.043997
0.389511,0.252020,-0.961524,0.223638,0.274003,-0.935365
-0.163400,-0.557406,0.655197,-0.395263,-0.690553,-0.605726
-0.015041,-0.172817,0.830265,0.670290,0.730826,0.128854
0.738907,0.176442,0.521343,0.977063,-0.194515,-0.086674
0.064555,0.510337,0.555391,0.973411,0.107586,0.202229
0.497985,-0.276783,0.809387,0.831670,-0.247512,-0.497053
-0.426453,0.158991,0.415197,-0.198564,-0.474211,-0.857727
0.408244,-0.302529,0.811853,-0.185970,0.786958,0.588313
-0.300865,0.011889,0.703331,0.207103,-0.034107,0.977724
0.071471,0.456327,-0.971039,0.321108,0.089835,-0.942772
0.273256,-0.053919,0.652382,0.641374,0.309016,0.702245
-0.519018,0.010353,0.393738,0.697702,0.350353,0.624872
-0.305244,0.402930,0.673183,-0.169439,-0.385322,0.907093
0.175273,-0.083843,-0.197598,0.973566,-0.198092,-0.113710
0.191645,-0.469170,0.417289,0.967178,-0.201291,0.155079
0.290951,0.598636,0.660116,-0.168500,0.498200,0.850532
-0.158732,0.018402,0.730291,-0.455571,-0.756171,-0.469746
0.404382,0.667455,0.672524,0.373885,-0.892270,0.253108
0.669510,0.255338,0.360865,-0.195357,0.575265,0.794296
0.669453,-0.071001,0.340723,-0.263568,0.673290,0.690806
0.505074,0.703277,0.502118,0.206697,0.081129,0.975036
0.908243,-0.269286,0.470329,-0.334674,-0.864445,0.375138
-0.078039,0.642877,0.426314,-0.513615,0.633605,-0.578571
0.181155,0.037943,-0.571052,0.683450,-0.729634,0.023014
-0.220516,-0.023750,0.399109,0.644192,0.324323,-0.692699
-0.310085,0.036100,0.624597,0.790373,-0.535441,-0.297679
-0.064724,0.052013,-0.994551,-0.209848,-0.318761,0.924313
0.513372,0.390826,0.458735,0.360145,-0.601444,0.713134
0.507839,0.321146,0.708263,-0.092489,0.187624,0.977877
0.245476,0.799625,-0.961795,-0.173371,-0.004625,0.984846
0.949740,-0.189408,0.639303,0.963599,-0.128760,-0.234302
-0.193833,-0.043227,0.586714,0.529731,0.051236,0.846617
0.666052,-0.403669,0.628573,-0.245378,0.531451,0.810771
0.624150,-0.494977,0.655688,0.453845,0.261244,-0.851925
0.303172,0.161633,0.628018,0.415899,0.094529,0.904485
0.133660,0.064241,0.827579,0.995485,-0.094336,0.010526
0.043690,0.756613,0.542531,0.765628,0.408168,-0.497205
0.201558,-0.071185,0.931763,-0.869657,0.476674,0.128370
0.281210,0.345909,-0.966043,-0.307046,0.002680,0.951691
0.026284,0.394635,-0.968974,0.180380,0.084659,-0.979947
0.245764,-0.113153,0.382079,-0.568749,0.138785,-0.810718
0.429337,0.124089,0.608612,-0.278242,-0.121195,0.952834
0.338502,0.230022,0.685229,-0.741722,0.367679,0.560946
0.989108,0.014716,0.435326,0.233292,0.728356,-0.644261
-0.754695,0.215705,0.438799,-0.695503,-0.692967,-0.189927
-0.319193,-0.110019,0.699561,0.931604,-0.054764,0.359327
0.015850,0.101232,0.180788,0.027216,0.992368,0.120275
0.245648,0.784878,0.555533,0.636447,0.065748,0.768513
0.797177,-0.325633,0.578089,-0.343630,0.203477,0.916796
0.221614,-0.270331,0.751788,-0.172194,0.874270,-0.453874
-0.456253,0.668807,0.317147,0.734005,-0.463152,0.496716
0.659019,-0.589174,0.328470,-0.252175,-0.036696,0.966986
-0.347378,0.173615,0.711014,0.958797,0.283175,0.022823
0.260806,-0.615657,0.373828,-0.172492,0.322271,-0.930800
0.476083,-0.376633,0.358593,0.258714,-0.924897,0.278625
-0.390894,0.202187,0.408083,-0.183267,-0.152759,-0.971122
-0.269855,0.022581,0.713015,0.789711,-0.594023,0.153275
-0.099136,0.430704,0.439316,0.160052,-0.242923,0.956751
0.341383,0.398261,0.645785,0.837702,-0.275495,0.471548
-0.014640,0.115302,-0.991130,-0.247606,-0.188764,0.950294
-0.107318,0.706718,0.628057,0.275374,-0.859134,0.431344
0.081500,-0.142155,0.807527,0.628716,0.586121,0.511056
0.556023,0.337737,0.383589,0.791402,-0.167745,-0.587831
-0.459194,-0.132324,0.362828,0.921851,0.074115,-0.380391
0.859886,0.132323,0.540246,0.387374,0.673052,-0.630034
0.142363,0.624750,0.692576,0.890005,-0.428267,-0.156458
-0.334467,-0.157763,0.701937,0.867924,-0.257105,0.424977
0.747262,0.764171,0.418231,0.899464,0.382536,-0.211261
0.938099,0.316661,0.677715,0.822638,0.062815,-0.565086
-0.192219,-0.535101,0.601446,-0.294792,0.720995,0.627108
0.058733,0.244462,0.720839,-0.295523,0.068971,-0.952843
0.585074,-0.110880,0.388922,-0.174841,0.935598,0.306735
-0.562823,0.299210,0.571440,0.870544,-0.259370,0.418186
-0.038329,-0.070878,0.076191,-0.380758,0.889511,-0.252573
-0.179424,-0.286983,0.640542,0.966246,0.151229,0.208565
0.076656,-0.533749,0.659897,0.847425,0.507637,0.155485
0.706110,0.242127,0.371595,-0.091888,0.934042,0.345140
0.246225,-0.022704,0.232085,-0.641005,-0.394240,-0.658550
0.208415,0.764171,0.681149,-0.116764,-0.887461,0.445847
0.048935,0.373682,0.774461,0.959190,0.231623,0.162187
0.808357,-0.135273,0.602260,-0.406461,0.798786,0.443542
0.071699,0.071922,0.657237,-0.479596,0.811308,-0.334316
0.312104,-0.010661,0.745901,0.914294,0.320109,-0.248187
0.058849,0.373130,0.760258,0.767086,0.297640,0.568322
0.123170,-0.492458,0.482854,0.763319,-0.501135,-0.407686
-0.028416,0.087406,0.381950,0.487140,0.526688,0.696631
0.795390,-0.446927,0.031892,0.822996,-0.422427,-0.379780
0.346513,-0.111555,0.789619,0.977259,0.193552,0.086617
-0.255906,0.290239,0.650613,-0.111203,-0.053770,0.992342
0.109109,-0.330671,0.757353,-0.604340,-0.723714,-0.333183
0.315678,-0.008203,0.916604,-0.198189,0.924840,-0.324642
0.288242,0.005192,0.720826,-0.263910,0.421473,0.867590
-0.116542,0.489754,0.568677,0.318380,0.331827,0.887989
0.334872,0.755384,0.537909,-0.165664,-0.121825,-0.978629
0.710261,-0.405267,0.545242,0.964747,0.016705,-0.262648
-0.639309,0.190266,0.416746,0.520035,0.533527,0.667018
-0.444035,0.245875,0.515145,-0.127774,-0.982446,-0.135921
0.426284,0.034870,0.825888,-0.124119,-0.992017,-0.022280
-0.485764,0.028111,0.312421,0.295967,0.918125,-0.263534
-0.482190,0.479123,0.396372,0.539081,-0.084172,-0.838038
-0.049104,-0.379275,0.458877,-0.597689,-0.441640,0.669120
0.029049,-0.372454,0.533402,-0.635572,0.244649,-0.732253
0.240463,-0.224185,0.240219,-0.160167,0.179515,0.970629
0.833889,0.162678,0.654203,-0.269325,0.676041,-0.685881
0.956600,-0.076347,0.274526,0.222451,0.281173,0.933519
-0.001268,-0.353959,0.551375,0.881250,-0.420467,0.215883
0.823459,0.172570,0.640232,0.560865,-0.211038,-0.800558
0.218560,-0.009310,0.893932,0.664219,0.446278,-0.599707
0.801901,-0.076347,0.761833,0.590567,-0.243469,-0.769385
0.129741,-0.464868,0.359045,0.136557,0.138536,0.980897
0.772393,0.159237,0.538309,-0.514707,0.853858,-0.077477
0.841382,-0.583275,0.185720,-0.381428,0.199878,-0.902531
-0.346513,0.654367,0.461201,0.329444,0.941779,-0.067223
0.974063,-0.187440,0.653415,0.963599,-0.128760,-0.234302
0.538099,-0.100249,0.344248,-0.078405,0.781975,0.618358
0.372277,0.675381,0.518670,-0.638355,0.723401,-0.263047
0.502882,0.404897,0.691375,-0.592283,0.521718,0.614012
-0.220115,-0.303512,0.754332,0.906795,-0.172509,0.384659
0.799192,-0.440536,0.699729,-0.166347,0.882855,0.439199
-0.082419,-0.825679,0.463641,0.635499,0.292590,-0.714516
0.285822,-0.487604,0.637069,-0.545307,-0.542461,-0.639043
-0.022650,0.741129,0.413661,0.891443,0.438906,-0.112652
0.817176,-0.007343,0.763344,-0.325010,0.157281,0.932540
0.844323,-0.430336,0.584597,-0.369197,-0.187052,0.910333
0.160923,0.585547,0.640078,0.565586,0.740293,-0.363427
-0.629568,0.185904,0.503809,0.483712,0.755042,0.442645
0.647495,0.483977,0.396940,0.469288,-0.022785,-0.882751
-0.286568,0.259700,0.622698,-0.433737,-0.818753,-0.376186
0.217755,-0.301914,0.858670,-0.552734,-0.526509,-0.645967
0.620980,0.339703,0.564997,-0.666235,0.690443,-0.281816
-0.090028,-0.013365,0.731711,0.273004,0.821891,0.499964
0.272623,0.037943,0.801175,-0.578073,0.407297,-0.707065
0.063517,0.586776,0.391917,0.854856,-0.055433,0.515896
0.849336,-0.445452,0.066417,-0.411232,-0.447743,-0.793986
0.248244,-0.327537,0.354022,-0.001893,0.478091,0.878308
0.441270,0.695413,-0.949968,0.345709,-0.152462,-0.925873
0.738963,0.654674,0.458928,0.797435,-0.589291,0.129745
-0.254467,0.146763,0.644816,0.830169,-0.266687,0.489589
-0.028184,-0.496144,0.635197,0.006659,0.573444,0.819218
0.908648,0.243786,0.657495,-0.352986,-0.094076,0.930887
-0.222940,0.046238,0.700943,-0.015746,0.164512,0.986249
0.400114,0.408338,0.838283,-0.359389,0.862586,-0.356069
0.307552,0.039294,0.729283,-0.402198,-0.757240,-0.514612
-0.071816,-0.248087,0.729258,-0.352936,0.840574,0.410939
0.698215,0.651540,-0.944984,0.196241,0.277374,0.940507
0.004093,0.284033,0.852085,0.893264,-0.138630,0.427624
0.320864,-0.359489,0.036294,0.304208,-0.094150,-0.947942
0.572852,0.324341,0.685320,0.486753,-0.110663,-0.866502
0.383573,0.278933,0.780491,0.907890,0.419157,-0.006529
0.476772,0.385787,0.363163,-0.562998,0.288183,0.774586
0.273777,-0.058711,0.220594,0.878854,-0.459682,0.127703
0.768475,0.684229,-0.942944,0.230651,0.304136,0.924284
0.257637,0.768717,0.551504,0.585711,-0.228069,0.777771
0.671585,-0.253434,0.561098,0.832003,0.222518,-0.508191
0.406802,-0.344127,0.688406,0.531426,0.554243,0.640625
0.505475,0.055270,0.635120,0.910130,-0.063115,0.409487
0.407435,0.165626,0.780930,0.949986,0.215183,-0.226322
0.529973,0.324157,0.528702,-0.711454,0.645217,0.278439
-0.496772,0.072844,0.625268,0.888114,-0.241236,0.391227
0.158443,-0.133737,0.874048,0.116897,-0.962767,-0.243752
0.624150,0.157209,0.625513,-0.412788,0.641602,0.646493
0.568934,-0.486190,0.581007,-0.407717,0.786900,-0.463200
0.290318,0.391625,0.715391,0.207946,0.828062,0.520646
-0.512046,0.612953,0.291750,-0.619960,0.539391,0.569831
0.242077,0.668622,0.620155,0.552151,0.833252,0.028651
0.674065,0.053427,0.511311,-0.355058,0.400369,-0.844771
-0.095329,0.246551,0.524209,0.557441,-0.184197,0.809525
0.026111,0.654798,0.741291,0.991201,0.047100,0.123699
0.129051,0.164890,-0.973467,-0.320983,0.027619,0.946682
-0.224263,0.760730,0.481601,0.924633,0.223490,0.308392
-0.236484,-0.147809,0.583925,0.495594,0.199649,0.845297
-0.292506,0.886755,0.499083,0.521053,-0.697924,0.491331
0.191240,-0.724969,0.565074,0.033161,0.765304,0.642814
0.266051,-0.017420,0.854242,-0.340952,0.205187,-0.917415
0.268648,-0.131586,0.916385,0.911330,0.077620,-0.404294
0.284267,-0.412025,0.719871,0.839676,0.234001,-0.490089
0.341904,-0.223878,0.804429,-0.590147,-0.334101,-0.734917
-0.079133,0.500015,0.563990,0.097107,-0.898761,-0.427550
0.752679,0.419214,0.567205,-0.805532,0.525586,-0.273638
0.207954,0.647423,0.488845,-0.365281,-0.928504,-0.066706
0.711932,-0.108852,0.415804,0.033950,-0.901999,0.430400
0.856369,-0.193770,0.621162,0.640090,-0.251683,-0.725906
0.713086,0.091461,0.576243,-0.430765,0.747996,-0.504919
0.690606,-0.420997,0.573028,0.864488,-0.501235,0.037729
0.729510,0.560908,0.467140,-0.477040,0.571060,-0.668074
0.166397,0.708070,0.655249,0.721692,0.402257,-0.563338
-0.353372,-0.172141,0.279354,0.014115,0.501395,0.865104
0.102766,0.155796,0.904674,0.727228,-0.449570,0.518677
0.217062,-0.383146,0.711491,0.791239,0.453817,0.409868
-0.457347,0.701311,0.296010,0.889037,-0.117478,-0.442506
-0.416022,0.181480,0.364506,-0.524953,-0.571136,0.631053
0.368186,-0.799441,0.702996,-0.046496,0.975190,0.216432
-0.175966,-0.066392,0.403163,-0.596256,-0.341324,0.726620
0.060692,0.590034,0.699845,0.633974,-0.631080,0.447007
0.416082,-0.450245,0.739380,0.802584,0.027457,0.595906
0.570548,-0.331408,0.308870,-0.492295,-0.802366,0.337422
0.323400,0.350149,0.726843,-0.413742,0.799433,-0.435575
0.359711,0.566684,0.748018,0.448741,0.567675,-0.690201
0.595276,-0.062399,0.424377,-0.105587,-0.957553,0.268223
0.339308,0.479676,0.747011,-0.382935,-0.878491,0.285682
0.406745,-0.590710,0.764971,-0.708592,-0.565831,0.421584
0.297751,-0.531906,0.601963,-0.305713,0.838940,0.450242
0.035909,0.792989,0.597043,-0.545201,-0.114818,-0.830405
0.525361,0.283357,0.519200,-0.122078,-0.577679,0.807083
-0.538845,0.213125,0.500026,-0.306707,0.734515,0.605325
-0.336483,0.833974,0.517017,0.801209,-0.589819,0.100884
-0.413486,0.864204,0.288044,-0.667868,0.224479,-0.709621
0.681903,0.149466,0.762763,0.493863,0.445690,-0.746632
-0.137751,-0.346094,0.623951,0.276264,0.360896,0.890748
0.847725,0.152416,0.640413,0.615981,0.194686,-0.763325
-0.335850,0.446680,0.681175,0.179597,-0.025194,0.983418
0.163460,-0.287905,0.811905,-0.604017,-0.421953,-0.676105
-0.798560,0.135887,0.429529,0.997846,-0.012790,0.064339
0.715562,-0.107500,0.745307,0.611702,0.706025,-0.356861
0.118445,-0.548497,0.695003,-0.472359,0.807206,0.353972
-0.295560,0.442317,0.674952,-0.364880,-0.490206,0.791556
0.572103,0.033641,0.672718,-0.413944,0.853194,-0.317347
0.957694,-0.204031,0.326856,0.004596,-0.164067,0.986438
0.361558,0.146640,0.371169,0.076867,-0.169033,0.982608
0.498847,0.482196,0.697844,-0.641571,-0.658280,0.393769
0.278790,-0.490430,0.740491,0.995151,-0.008667,0.097974
0.199423,0.000153,0.474797,0.952936,0.265787,-0.145841
-0.690315,0.186519,0.399238,0.506041,0.857075,-0.096675
0.237754,-0.033949,0.520568,0.065985,-0.919525,0.387454
0.282308,-0.559188,0.640620,0.466447,0.384154,0.796777
-0.734292,0.185474,0.429619,0.811221,0.056105,0.582041
0.261615,-0.643123,0.307205,0.086451,0.275769,0.957328
0.389279,0.378291,0.720478,-0.457463,-0.888084,-0.045106
0.143401,-0.135089,0.902195,0.891656,0.223412,-0.393747
0.584381,-0.157824,0.581240,0.705527,0.538106,-0.461166
-0.015966,0.100617,0.840814,-0.553379,-0.419006,-0.719865
0.317982,-0.537498,0.370316,0.464457,0.087103,-0.881302
0.503054,0.199176,0.787837,0.611293,-0.253555,0.749687
0.429798,0.561522,0.700090,0.849284,0.490401,-0.195511
0.504901,-0.103014,0.570433,0.429150,0.862897,0.266906
0.172624,-0.816461,0.575868,0.169352,-0.561760,-0.809781
0.093373,-0.061723,0.803163,0.901386,0.252702,0.351631
0.036774,-0.013365,-0.989877,0.260259,0.271315,-0.926636
0.270086,0.030446,0.415610,-0.008361,0.934532,0.355782
-0.217234,0.838397,0.461562,0.592534,0.783329,0.187879
0.464956,0.465482,0.356772,0.001262,0.625168,0.780489
0.686111,-0.043104,0.746172,0.844775,-0.253087,-0.471490
0.018674,-0.618360,0.310820,0.302594,0.205865,0.930621
0.235734,0.025838,-0.755145,0.342656,0.939441,0.006126
0.273604,0.567790,0.662544,-0.201282,0.674049,0.710735
0.226630,-0.029095,0.097340,0.976238,-0.200587,0.081999
-0.107434,0.824941,0.420000,-0.438070,-0.734782,-0.517870
-0.099825,0.224124,0.627101,0.640921,0.540257,0.545292
0.788762,-0.315617,0.522027,-0.578010,0.524689,0.624985
-0.171066,0.406618,-0.981343,0.404988,0.125531,-0.905664
-0.004494,-0.338660,0.756734,0.711283,0.367739,-0.599037
0.293832,0.108237,-0.875429,-0.313653,0.949487,-0.009832
-0.165588,0.545853,-0.980452,0.435927,0.051542,-0.898505
0.211760,0.135396,0.898257,0.762230,0.526228,-0.376949
0.291183,0.221911,0.721537,0.177658,-0.156945,0.971497
0.124095,0.428123,0.754500,-0.074379,0.312257,-0.947081
0.574812,0.400718,0.725281,0.480105,-0.812217,-0.331364
0.693660,-0.066024,0.408251,0.095411,-0.973785,0.206493
0.157233,-0.020677,0.832705,0.113533,-0.973054,-0.200691
-0.075330,-0.514578,0.312395,0.658383,0.631635,0.409352
-0.249395,0.892961,0.452641,-0.340528,-0.801462,0.491629
0.558155,-0.722327,0.315726,-0.030743,0.815810,0.577502
0.910203,-0.481767,0.070226,-0.657653,-0.313378,-0.685045
-0.495101,0.263141,0.477147,0.311258,0.199690,-0.929108
0.249338,-0.050539,0.837624,-0.124796,0.980586,0.151255
0.402767,-0.779349,0.652666,0.622762,0.704856,-0.339626
0.763402,-0.392608,0.655688,0.665081,0.605634,-0.436892
0.717117,-0.143998,0.564842,0.821817,-0.454874,-0.343085
-0.541266,0.080463,0.536798,-0.217955,-0.232713,-0.947808
0.292682,0.057974,0.802053,0.291916,-0.939979,0.176707
0.101731,0.246735,0.811582,-0.726199,-0.582338,0.365402
0.115504,0.644044,0.702234,-0.565731,0.713028,-0.414175
0.316255,-0.159053,0.688431,0.980062,0.093763,0.175176
-0.551928,0.233525,0.493506,0.078134,0.594488,0.800299
0.208647,-0.041507,-0.415894,0.916153,-0.395603,0.064514
0.149339,-0.847860,0.410136,0.233178,0.972434,-0.000315
-0.655734,0.036714,0.397728,0.023811,-0.609413,0.792496
-0.110259,0.272604,0.560297,-0.426449,-0.878374,-0.215873
0.170204,0.179022,0.423163,0.309111,0.057510,0.949286
0.138272,0.017173,0.829877,-0.366583,-0.271915,0.889763
0.279711,-0.045317,0.092679,0.999397,-0.012254,0.032483
-0.371757,0.559556,0.428987,-0.049568,-0.590743,0.805335
-0.290951,0.376816,0.672537,-0.138387,-0.449703,0.882393
0.352795,0.048327,0.817456,0.947930,-0.290385,0.130788
-0.388646,-0.202925,0.733144,0.886052,0.257516,0.385483
0.413489,0.215951,0.534603,-0.830692,0.537929,0.143467
0.580462,0.001997,0.491517,0.192397,0.359644,-0.913038
-0.212622,0.811791,0.445836,0.777183,0.627945,0.040890
0.113545,0.327660,0.728470,0.978099,-0.096850,0.184237
0.365650,0.195674,0.812938,-0.393781,0.353900,-0.848346
-0.463918,0.449691,0.585229,-0.571388,0.659420,-0.488551
0.916313,0.292266,0.664184,0.618891,0.079519,-0.781441
0.389972,-0.063750,0.697379,0.758030,-0.636225,-0.143560
0.455391,0.012933,0.753054,0.194202,-0.938265,0.286259
-0.213600,-0.187810,0.660284,0.886839,0.436172,-0.152548
-0.263343,0.850932,0.507192,-0.771860,0.630699,0.080316
0.484497,-0.023873,0.331465,0.293203,0.707409,-0.643120
0.093778,-0.395005,0.838102,-0.254197,-0.874484,-0.413113
0.379426,0.307567,0.825655,0.852336,-0.067247,0.518654
-0.146915,-0.670221,0.569490,-0.727951,0.268885,0.630705
-0.308125,0.858490,0.516075,0.765210,-0.600882,0.231075
0.081729,-0.368276,0.772331,0.719228,0.411612,0.559720
0.123746,0.865188,0.587476,-0.272717,0.391260,-0.878943
0.709800,0.781682,0.416062,0.898826,0.199090,-0.390481
-0.207205,-0.663400,0.212511,-0.273018,-0.854178,0.442540
0.547380,-0.485576,0.701459,0.232233,0.705821,0.669242
0.476544,0.599926,0.486482,0.211739,0.818955,-0.533367
0.159942,-0.329073,0.643809,-0.604558,0.588054,-0.537310
-0.231756,-0.043289,0.390549,0.628705,0.499021,-0.596412
0.050550,0.223263,0.800000,0.131041,0.039715,0.990581
-0.122709,-0.535962,0.646185,0.939519,-0.198951,-0.278787
0.849336,0.489631,0.534758,0.935414,0.310030,-0.169948
0.182593,-0.598636,0.720697,0.078494,0.937973,0.337707
-0.600806,0.224553,0.397689,0.062821,-0.922798,-0.380128
0.385304,0.755875,0.530226,0.296982,-0.954639,-0.021587
0.474985,0.431564,0.680633,0.996630,-0.039275,-0.072012
0.787320,-0.085011,0.783318,-0.548464,0.752880,0.363812
0.603574,0.120403,0.778722,0.378321,-0.843240,0.381863
-0.265820,0.076100,0.696501,0.714757,0.253458,0.651830
0.167840,-0.152478,0.494603,-0.586388,-0.402141,-0.703158
-0.493774,0.622723,0.292408,-0.567377,0.472480,0.674423
0.086285,-0.334235,0.659910,0.212887,0.346784,0.913466
0.899480,0.002673,0.273002,-0.283140,-0.176086,0.942775
0.196081,0.531476,0.629464,0.097836,0.994626,-0.033859
0.181499,0.168023,-0.846817,-0.275880,0.960690,-0.031059
0.389916,-0.272666,0.734680,-0.159015,0.473219,0.866474
-0.212506,-0.559864,0.654216,-0.751212,-0.235797,-0.616506
0.665651,0.519370,0.544764,-0.697255,0.632532,0.337253
0.248705,0.634398,0.537857,0.448727,-0.370282,0.813348
0.008072,-0.148791,0.821162,0.681085,0.678763,0.274597
-0.058096,-0.233772,0.649103,0.730128,0.658012,0.184211
0.185995,-0.248764,0.462079,0.946352,-0.322708,0.016668
-0.180807,-0.439369,0.622208,0.530634,0.034561,-0.846896
-0.022710,-0.673907,0.524016,-0.250749,-0.609768,-0.751869
-0.575618,0.115241,0.402905,0.703363,-0.171752,0.689769
0.071988,-0.561585,0.508715,-0.772723,0.259189,-0.579414
0.217118,0.127530,0.789735,-0.539957,-0.776687,0.324353
-0.178098,0.242741,0.631285,0.649564,0.106158,0.752859
0.053027,-0.050048,0.239406,-0.241802,-0.214393,-0.946344
0.053371,-0.627209,0.310536,0.117192,0.170199,0.978416
0.776717,-0.066147,0.514978,0.988970,0.145167,0.029406
0.495389,0.059571,0.635571,0.910130,-0.063115,0.409487
-0.480230,0.062213,0.222092,-0.281652,-0.271671,-0.920254
0.589397,-0.313159,0.660981,0.253190,-0.694066,-0.673919
0.740001,-0.388553,0.682505,-0.343087,0.544343,0.765494
0.617983,0.799625,0.520658,-0.122551,-0.532475,0.837527
-0.137347,-0.576577,0.665423,0.039351,0.925585,0.376489
-0.187951,0.521337,0.570381,0.086705,0.527821,-0.844919
-0.610202,0.082921,0.407954,0.270855,-0.141074,0.952227
0.753316,-0.267628,0.571801,0.039258,-0.591536,0.805322
0.199135,-0.104182,0.417030,0.970304,0.063842,-0.233312
0.751356,0.181910,0.638464,0.722310,-0.609495,-0.326778
-0.059595,-0.427510,0.366004,-0.146987,0.447579,0.882081
0.216080,0.032474,-0.220568,0.980073,0.195061,0.037512
-0.640519,0.163906,0.402518,-0.243864,0.021978,0.969560
0.315333,-0.474700,0.757650,0.857630,-0.014372,-0.514066
0.464382,-0.787336,0.411233,0.601650,-0.694415,-0.394722
0.337925,-0.672556,0.293764,0.091510,0.349441,0.932479
0.268532,0.019324,-0.408625,0.957282,-0.259779,0.126986
-0.292738,0.436234,0.683164,0.020609,-0.146309,0.989024
-0.356310,0.482257,0.424790,0.936364,-0.216107,-0.276624
0.073891,-0.613383,0.694655,0.341976,-0.649173,-0.679431
0.341904,-0.061661,0.279651,0.810902,0.572091,-0.123085
0.683979,-0.464193,0.670587,-0.459060,-0.084345,0.884392
-0.331987,-0.308060,0.382892,0.166416,-0.750218,0.639905
0.203574,-0.024302,-0.983861,-0.412742,-0.381035,0.827319
0.606860,-0.082552,0.437160,0.406964,0.886589,0.219864
0.174238,0.077514,-0.949413,0.894365,0.293045,-0.337987
0.489282,-0.628560,0.726275,0.382371,-0.830210,-0.405641
0.200809,0.023749,-0.283538,0.696638,0.714120,0.068759
0.054008,-0.269656,0.336591,-0.070862,0.709955,0.700673
0.565475,-0.607361,0.730458,0.002690,0.910472,0.413562
-0.267723,0.679253,0.490329,-0.449078,0.719031,-0.530399
-0.182362,0.249562,0.584313,0.403884,0.877754,-0.257733
0.530145,0.193032,0.791401,0.582693,0.025710,0.812286
0.659656,0.396909,0.729258,-0.477190,0.847925,0.230897
0.146342,-0.022028,0.714577,-0.026861,-0.889274,0.456586
0.439712,0.748748,0.528444,-0.129436,-0.846311,0.516725
0.502998,-0.003411,0.876695,-0.236852,0.938933,0.249610
-0.029394,-0.391011,0.622066,0.113015,0.009360,0.993549
0.170376,0.491843,0.659639,0.906962,0.336889,0.252835
0.537639,0.405143,-0.943396,0.187187,0.193872,-0.963003
0.855852,-0.078805,0.793802,0.769828,-0.514443,-0.377774
-0.159249,0.292512,0.536901,0.736364,0.385592,0.555957
0.515620,-0.157210,0.533144,0.887592,0.453393,-0.081328
0.881268,-0.442379,0.586159,-0.290257,-0.072871,0.954170
0.347205,0.149160,0.836669,0.841793,0.218890,0.493428
0.329511,0.707394,0.539445,0.112570,-0.726678,0.677692
0.089394,-0.015146,0.387127,0.226354,0.396611,0.889642
0.762941,0.605579,0.609077,0.346665,-0.800641,0.488670
-0.297234,-0.030632,0.321601,0.800912,0.588616,-0.109874
0.210261,0.338781,0.516462,0.865300,-0.131343,0.483740
-0.230374,0.050293,0.729477,0.450618,-0.610596,0.651242
-0.457174,0.692033,0.272950,-0.818330,0.549662,0.167955
0.589742,-0.254232,0.251311,-0.151691,0.612838,0.775512
0.870721,-0.047590,0.280400,-0.399133,-0.329833,0.855513
0.511181,0.370487,0.729219,-0.159904,0.704054,0.691910
0.167495,0.108667,-0.788212,0.294372,0.949705,-0.106800
0.418386,0.658668,0.650833,0.844592,0.485639,-0.225430
0.319020,0.249193,0.699509,0.913536,-0.174208,0.367565
0.782363,-0.262344,0.034629,-0.733319,0.520208,0.437752
-0.174407,-0.531230,0.648754,0.184978,0.772136,0.607938
0.531584,-0.055394,0.231982,-0.071294,0.453083,0.888613
0.233659,0.045008,0.925242,0.944394,0.189787,0.268515
0.266688,0.680359,0.539639,0.577789,-0.503339,0.642503
-0.970721,0.287105,0.265139,0.112064,-0.539748,0.834334
0.209452,-0.915021,0.407708,-0.227259,-0.969585,-0.090875
-0.369164,-0.388000,0.353673,0.033181,-0.969413,0.243182
-0.003516,0.090786,0.851091,-0.543775,-0.091005,-0.834283
0.129741,0.724599,0.651556,-0.664100,-0.500448,0.555449
0.426973,0.412516,0.837289,0.130384,-0.903283,0.408753
0.336947,-0.218225,0.801343,-0.590147,-0.334101,-0.734917
0.329743,0.264924,0.848741,0.857244,0.228363,0.461500
-0.138156,-0.235307,0.771621,-0.595806,-0.389124,-0.702565
0.296601,-0.146334,0.647837,-0.276631,0.319008,0.906482
-0.319481,0.074749,0.588276,0.909739,0.100018,0.402953
-0.340923,0.798335,0.519277,-0.147285,-0.395883,0.906412
0.421844,-0.034871,0.874564,-0.355777,0.927502,-0.114732
0.319653,0.125564,0.699225,0.897343,0.379790,0.224801
0.444439,0.104120,0.706043,0.426045,0.128547,-0.895523
0.226514,0.009923,-0.056062,-0.642218,-0.766515,0.003323
0.847609,0.062951,0.521562,0.261457,0.613447,-0.745200
0.359828,-0.404099,0.670910,-0.123573,0.156331,0.979944
0.926515,0.160957,0.559187,-0.028175,-0.276183,0.960692
-0.347490,0.236535,0.477728,0.242264,0.744035,0.622671
-0.130258,0.320900,0.439987,-0.059597,0.328424,0.942648
0.753316,-0.293189,0.509012,0.897902,-0.205842,-0.389103
0.545476,-0.613752,0.725810,0.242481,-0.970002,-0.017307
0.791299,0.582598,0.582285,-0.628699,0.760405,-0.162856
-0.246858,-0.097545,0.681691,0.460528,0.310690,0.831496
-0.442536,0.030446,0.527592,-0.630700,-0.416392,-0.654855
0.106973,-0.575533,0.700917,-0.612406,0.776921,0.146124
0.468646,0.312421,0.700426,0.354467,0.824271,0.441509
-0.701670,0.108728,0.400465,0.566602,0.278320,0.775564
0.936773,-0.437218,0.571517,-0.827601,0.379806,-0.413308
-0.161036,-0.304557,0.627269,0.962168,0.261462,-0.076612
0.147091,-0.457065,0.698167,0.142837,-0.374074,0.916333
0.060924,-0.094350,0.821795,-0.520334,0.591353,-0.616080
0.284151,0.305724,0.727954,-0.707696,0.668347,-0.229080
-0.475562,0.158744,0.527592,0.434666,-0.088438,-0.896239
0.366339,0.054103,0.563370,-0.243888,0.558899,0.792559
0.207032,-0.015393,0.848186,-0.653771,0.756683,-0.003753
-0.422305,0.774063,0.442673,-0.404257,0.544102,-0.735207
0.419484,-0.240161,0.776772,0.380539,0.804871,-0.455382
-0.213255,-0.262466,0.805100,0.647673,-0.514800,0.561695
0.353084,-0.568712,0.749710,-0.102502,-0.155198,0.982551
0.412451,0.061108,0.854991,-0.572560,0.718095,0.395619
-0.842937,0.263264,0.455662,-0.874485,0.374521,-0.308237
0.239080,0.057359,0.909025,0.880512,0.473916,0.010159
0.437463,-0.280900,0.812163,0.148065,0.659556,0.736927
-0.396252,0.078190,0.614074,0.616045,-0.493686,0.613810
0.104613,0.342345,0.545578,0.598420,0.037588,0.800300
0.307263,-0.809211,0.180439,0.279239,0.089857,-0.956008
0.206110,-0.319488,0.464842,0.943674,0.032128,0.329313
0.418041,0.119296,0.771104,0.808630,0.075451,0.583459
0.506512,0.267627,0.727721,-0.676923,0.266744,0.686020
0.714123,-0.066331,0.408754,0.155625,-0.987637,0.018841
0.238042,0.015883,0.440516,0.074173,0.983397,-0.165615
0.117984,-0.433716,0.479509,-0.334191,0.497337,0.800608
-0.284208,-0.383022,0.625139,-0.758985,0.627876,-0.172379
-0.109337,0.176134,0.631246,0.514051,0.492448,0.702315
0.263631,-0.060432,-0.031375,-0.664735,-0.739581,-0.105583
-0.562767,-0.149775,0.262105,-0.346185,0.522522,0.779183
0.201442,0.629973,0.498076,-0.374308,0.457918,0.806353
0.424381,0.126793,0.760258,0.460045,0.273848,0.844610
0.520116,-0.592185,0.602905,-0.150850,0.787860,0.597094
0.263459,0.055701,-0.628638,0.863841,-0.503710,0.007375
-0.017693,-0.538481,0.400865,0.209482,0.862044,0.461517
0.590146,0.335156,0.378877,-0.346936,-0.114782,0.930839
-0.260462,0.416941,0.545720,-0.288769,0.917741,-0.272698
0.319541,0.008571,0.880207,0.939909,0.315998,0.129291
0.119078,1.000000,0.618528,0.016765,-0.907406,0.419920
0.171874,-0.024179,0.060581,-0.807476,-0.563303,-0.175136
0.171874,-0.231067,0.836656,0.714587,0.699207,-0.021816
0.114642,-0.435314,0.476708,-0.259690,0.621938,0.738752
0.304034,0.078190,0.897715,0.803400,0.545778,0.238067
0.271357,-0.043657,-0.149219,0.990114,-0.139824,-0.011135
0.472565,0.011582,0.861098,0.163206,-0.984186,0.068854
0.253834,-0.186335,0.900000,0.730503,-0.678275,0.079422
0.832106,-0.520784,0.192266,-0.381428,0.199878,-0.902531
0.782247,-0.000707,0.759096,-0.249876,-0.043616,0.967295
0.747723,0.776214,0.422066,0.868162,0.322143,-0.377516
0.675909,-0.110941,0.359690,0.375660,0.895339,0.239264
0.091298,-0.495162,0.546533,0.284501,0.293597,0.912612
-0.108644,-0.438262,0.628444,-0.822141,-0.064874,-0.565575
0.349453,-0.299948,0.354874,-0.120852,0.326303,0.937508
0.269971,0.011643,0.541640,0.313474,-0.942807,-0.113352
0.168128,-0.564534,0.467579,-0.760894,0.475557,-0.441458
-0.388470,-0.101171,0.701485,0.757772,0.319968,0.568685
0.113200,-0.171035,0.530729,0.910931,-0.311669,0.270311
0.010031,0.154136,0.811039,0.947996,0.135523,-0.287988
0.315678,-0.183939,-0.097805,-0.692725,-0.485415,0.533390
0.260057,0.297858,0.730187,-0.448065,-0.402037,0.798501
0.307608,-0.606624,0.755662,0.997840,0.056205,-0.034010
0.305821,0.085133,0.909710,-0.066586,-0.996783,0.044607
0.247723,-0.007896,0.143086,-0.607315,0.299390,0.735890
0.594526,0.397893,0.389258,-0.790088,0.162679,0.591014
-0.230145,-0.433531,0.341291,-0.358589,-0.142724,0.922520
-0.222476,0.026698,0.177921,-0.110798,0.797357,0.593251
0.196025,0.784202,-0.952937,-0.277441,0.038663,0.959964
-0.188472,0.276291,0.433957,-0.685326,0.563149,0.461726
0.101616,0.358751,0.735571,-0.256792,0.716101,-0.649044
0.031469,0.307751,0.842750,0.938840,0.138567,0.315243
0.519712,0.423700,0.708186,0.914504,0.261311,-0.308869
0.619886,0.568220,0.382828,0.607104,-0.141627,-0.781899
0.450145,0.376571,0.506133,-0.576133,0.242433,0.780575
0.363458,-0.345357,0.676979,0.358278,0.556552,-0.749591
0.769741,0.540385,0.577999,0.830230,-0.513316,0.217313
0.320807,0.103198,0.804455,-0.155873,0.782402,0.602951
0.055968,-0.541615,0.513196,-0.718640,0.680467,-0.143249
0.316371,-0.770562,0.678954,0.043615,0.852201,0.521394
0.801152,-0.445943,0.713015,-0.643017,0.749474,0.157536
-0.624611,0.240468,0.375649,0.038660,0.989385,0.140081
-0.745647,0.137853,0.429374,0.565365,-0.517641,0.642192
-0.121611,-0.554887,0.447837,-0.559435,0.784569,-0.267364
0.118385,-0.100495,0.396708,0.122225,0.170076,0.977822
0.164381,0.181726,0.893234,-0.365073,0.881362,-0.299870
0.244554,0.021720,-0.142285,0.986593,0.142764,0.079069
-0.082190,-0.764110,0.615107,0.846311,0.530865,-0.044050
0.592623,-0.196473,0.736475,0.566826,-0.293091,-0.769939
0.355275,0.035116,0.683938,0.667784,0.587078,-0.457606
0.495044,0.675074,-0.943447,-0.396267,0.232249,0.888275
-0.964783,0.186519,0.434099,-0.522037,-0.006275,0.852900
0.417464,0.135396,0.814384,-0.747188,-0.290040,0.597986
0.616428,-0.794956,0.166159,-0.083153,0.108841,0.990575
-0.336138,0.440229,0.297870,-0.146961,0.095808,0.984491
-0.214177,-0.787889,0.550110,-0.594377,-0.803750,0.026501
0.108704,0.245937,0.426688,0.374281,-0.189863,0.907670
0.067840,-0.060063,0.741407,0.362161,-0.027969,0.931696
-0.764320,0.124703,0.417741,0.563045,0.498353,0.659260
0.358850,-0.733080,0.534978,0.742658,0.443479,0.501782
0.485071,-0.660574,0.375481,0.478745,0.511953,0.713237
0.585014,-0.311992,0.317521,0.469648,0.872816,-0.132752
0.518385,-0.015270,0.521562,0.599369,-0.528192,-0.601473
-0.341211,0.431380,0.568651,0.656232,-0.505886,0.559856
-0.472737,0.033518,0.533286,0.441173,0.249219,0.862123
0.078443,-0.095518,0.845255,0.277461,0.885615,-0.372427
0.360577,-0.304249,0.813635,0.672538,0.687294,0.274443
0.249855,0.420565,0.627566,-0.090989,-0.574343,0.813542
0.756426,0.288765,0.383783,0.334362,0.278704,0.900292
-0.074753,-0.059388,0.752628,0.559130,0.678162,0.476939
-0.011815,-0.535654,0.268664,-0.293406,0.552331,0.780285
0.202709,-0.094658,0.408883,0.991234,-0.121781,-0.051227
-0.082362,-0.178470,0.411156,0.886973,-0.350772,0.300395
-0.032335,0.135027,0.694125,0.087700,0.976669,-0.196026
0.191068,-0.384620,0.704106,-0.746781,0.481240,-0.459050
-0.304379,-0.043166,0.349503,-0.138249,0.987489,0.075852
0.687954,-0.450490,0.331298,-0.539955,0.231937,0.809107
0.246225,0.064364,-0.351930,0.939905,-0.333351,0.073862
-0.005187,-0.692157,0.517379,-0.274583,-0.787838,-0.551285
0.335966,0.246797,0.871879,0.933575,0.349505,0.079270
0.874120,-0.123599,0.598063,0.012290,0.894486,0.446928
0.646802,-0.425973,0.652795,0.826197,-0.230048,-0.514272
-0.711123,0.085502,0.415584,-0.627018,0.061867,-0.776544
-0.109105,-0.840610,0.468341,0.635499,0.292590,-0.714516
-0.212967,-0.163293,0.401227,0.611411,0.789296,-0.056466
0.542708,0.126424,0.775494,-0.470000,0.490052,-0.734131
0.242827,0.657132,0.651026,-0.002953,-0.823149,0.567818
0.266224,0.144244,0.876708,0.791523,-0.013092,0.610999
-0.581901,0.032904,0.406662,0.552465,-0.175584,0.814833
-0.229279,-0.005992,0.341007,0.938797,0.128283,0.319693
-0.288876,-0.027436,0.584287,-0.647992,0.195219,-0.736204
0.348183,-0.025961,0.364958,-0.598303,0.796350,-0.088657
-0.461382,-0.008818,0.358477,0.934658,-0.143171,0.325448
0.190720,-0.000461,0.528986,-0.238792,-0.430981,0.870192
-0.035156,0.760607,0.400723,0.613991,0.625345,0.481620
0.171642,-0.001752,0.658425,0.315006,0.940899,-0.124420
0.134525,0.714891,0.609413,0.614466,0.729073,0.301470
0.843746,0.651110,0.593183,0.542319,-0.831401,0.121092
-0.215792,0.879873,0.514900,0.803550,0.541099,-0.248032
0.034815,-0.425912,0.273996,-0.178397,0.587634,0.789215
0.070778,-0.235184,-0.994022,-0.247156,-0.102456,0.963544
0.163576,0.459399,0.749593,0.468387,-0.738454,0.485077
0.387724,0.604350,0.476720,-0.289251,-0.785429,0.547206
0.684207,0.178223,0.762350,-0.531780,-0.292921,0.794612
0.747378,0.106025,0.655804,-0.818434,0.187267,-0.543228
0.598100,-0.484531,0.195481,0.521073,0.801813,-0.292539
-0.294582,0.019632,0.674952,-0.520585,0.222216,-0.824385
0.218215,-0.602876,0.723176,0.768936,0.221754,0.599635
0.242710,-0.455406,0.687838,-0.407544,-0.250993,-0.878015
-0.243228,-0.020185,0.686365,0.911565,0.132456,-0.389235
0.291123,0.095948,0.847734,0.893752,-0.234369,0.382463
0.565880,-0.001813,0.741549,0.263268,0.591552,-0.762074
0.176370,-0.263326,0.768522,0.526721,-0.808326,-0.263010
0.232276,0.016191,-0.968535,0.336331,0.633374,-0.696936
0.005303,-0.523549,0.090536,0.869912,-0.424502,-0.251100
-0.372563,0.836431,0.505513,0.707234,-0.669558,0.226965
-0.412853,-0.309964,0.516863,-0.766563,-0.554054,0.324661
0.229051,-0.418477,0.366391,-0.367964,0.429760,0.824566
0.837752,-0.151310,0.590613,-0.171534,0.210729,0.962377
0.304671,-0.282498,0.831930,0.782949,0.408077,0.469536
0.488993,0.481950,0.465526,0.513708,0.329706,-0.792085
0.821383,-0.243972,0.360155,-0.698610,-0.713973,-0.046765
-0.145417,0.461488,0.563990,-0.126488,-0.625096,0.770231
0.189337,-0.468126,0.420297,0.967178,-0.201291,0.155079
0.088589,0.075731,0.501110,0.328877,0.822496,0.464048
-0.162651,0.330240,0.449309,0.017411,0.410419,0.911731
0.739368,-0.142708,0.550794,0.865141,-0.479313,0.147616
0.225705,-0.260684,0.214965,0.880289,0.469142,-0.070686
0.317005,0.588988,0.757766,-0.642739,-0.717235,0.269184
-0.379078,-0.093798,0.712240,0.957873,0.257539,0.127096
0.284900,-0.335955,0.740904,-0.579554,0.787580,0.209366
0.255677,-0.207042,0.615701,0.945158,-0.237304,0.224417
0.726802,0.626470,0.416579,-0.172948,-0.400453,0.899848
0.592567,0.512980,0.686094,-0.427608,0.886204,-0.178308
0.232392,-0.146702,0.388677,-0.549478,0.124995,-0.826105
0.171815,-0.724416,0.783525,-0.328674,0.803269,0.496722
-0.400459,0.359120,0.552860,-0.619570,0.510832,-0.595973
0.348820,0.156349,0.819961,0.966227,-0.037747,0.254911
-0.313371,0.564779,0.298709,0.207578,-0.165607,0.964099
0.373371,-0.050539,0.699948,-0.761095,0.648359,-0.019100
0.295968,0.375587,0.740129,0.086145,-0.951022,0.296876
0.653834,-0.223202,0.657598,0.651612,-0.185256,-0.735583
0.530029,0.312236,0.566792,-0.557515,0.712553,-0.425963
0.241440,-0.762635,0.564442,-0.063532,0.599492,0.797855
0.162190,0.004331,0.629271,-0.401451,-0.900251,-0.168481
0.065476,-0.383699,0.845216,-0.206538,-0.949409,-0.236570
0.827434,-0.210852,0.573286,-0.633963,0.533407,-0.559971
0.683402,-0.312299,0.651711,0.581258,0.797157,-0.163340
0.172163,0.032166,0.097702,0.355984,-0.772656,0.525621
0.652392,0.623890,0.499238,-0.108501,0.977579,-0.180461
-0.826168,0.370364,0.268896,-0.350567,0.579569,-0.735665
-0.483055,-0.155673,0.364351,-0.982653,0.175209,0.060784
0.132161,-0.893699,0.446972,-0.421619,0.864046,-0.275067
-0.254119,-0.045132,0.679329,0.650473,0.363927,0.666665
-0.240920,0.402869,0.553467,0.235811,-0.816256,0.527370
0.315045,-0.023995,0.635920,0.573283,0.738137,0.355669
0.064150,0.429967,0.751711,0.272262,-0.374821,0.886218
0.100462,-0.902118,0.345281,0.669382,-0.011233,-0.742833
0.310950,0.610925,-0.956824,-0.034489,-0.040625,0.998579
0.424208,0.121079,0.894978,-0.427571,-0.871507,-0.240123
0.552565,0.424990,0.711995,-0.683580,-0.711538,0.162577
-0.000920,-0.104304,0.751698,0.427802,0.415763,0.802575
-0.198674,0.675074,0.413376,0.892817,0.392162,0.221555
-0.656022,0.084518,0.409426,0.564293,-0.393210,0.725920
0.338214,0.017972,0.896372,-0.701857,0.680401,-0.210835
-0.024208,-0.238134,0.645668,0.642238,0.763027,0.072942
-0.288876,0.385419,0.407463,-0.636426,-0.463122,0.616831
-0.207433,0.564718,0.582105,0.025759,-0.764993,0.643523
0.146975,0.055025,0.806172,0.787024,0.613986,0.060126
0.456080,0.385848,0.810691,-0.468453,0.719517,-0.512686
0.240579,-0.195859,-0.143654,0.946237,-0.124527,-0.298544
0.117003,-0.679130,0.502828,0.583943,0.400009,0.706401
-0.646053,0.229838,0.518941,0.818355,0.500815,-0.281921
0.440577,0.672371,0.657973,-0.617650,0.776280,-0.126089
0.158443,-0.911027,0.518373,0.265721,-0.820389,0.506315
0.200000,-0.022643,0.845410,-0.457489,0.823482,0.335530
-0.249335,-0.057790,0.384429,0.738185,0.481687,-0.472293
-0.746108,0.308980,0.432731,0.899547,0.013128,0.436627
0.118962,-0.327414,0.756230,0.782716,-0.112751,0.612081
0.340117,0.323174,0.834448,0.836937,0.547294,-0.002119
0.378388,0.559433,0.757715,0.655100,-0.258206,0.710051
0.443979,-0.567545,0.720504,0.411127,0.713902,0.566850
0.123690,0.746781,0.639199,-0.246531,-0.659607,0.710029
-0.187491,-0.299395,0.626624,0.942287,0.323032,-0.088006
0.262882,0.150019,0.598489,0.866306,0.048010,-0.497201
0.031240,-0.086117,0.718928,0.498157,-0.700985,0.510353
0.016831,-0.404468,0.650807,0.890638,-0.345282,-0.295879
0.716484,0.151371,0.624545,-0.704798,0.399081,0.586510
0.686687,-0.562691,0.329064,-0.327344,-0.109153,0.938579
0.490605,0.040708,0.759742,-0.383066,0.893855,-0.232989
0.270836,-0.700391,0.555481,-0.573082,-0.309185,-0.758935
0.275504,-0.016375,0.897560,0.836672,-0.538911,0.097755
-0.090028,0.009493,0.550626,-0.621350,0.032013,-0.782879
0.738214,-0.393346,0.678205,0.094968,0.991545,0.088425
0.566746,-0.318320,0.256333,0.043916,0.685198,0.727032
0.123979,-0.836862,0.485449,0.903753,0.302081,-0.303280
0.855218,0.192294,0.658941,0.339726,0.472769,-0.813066
-0.081381,-0.574857,0.569064,0.780358,-0.248496,0.573839
0.150317,-0.621740,0.478257,0.977329,-0.150785,0.148632
0.342249,0.075240,0.966533,-0.341624,0.933521,-0.108776
0.090492,-0.917540,0.507450,0.112604,0.931818,-0.345014
0.009799,0.045501,0.539355,-0.344805,-0.673071,-0.654282
-0.068241,-0.168454,0.390136,-0.321756,-0.003384,0.946816
-0.178847,-0.226520,0.321098,0.481122,0.721193,0.498399
0.550894,0.255583,0.557250,0.358344,-0.884307,0.299316
0.319886,-0.825556,0.582776,-0.152945,0.714290,0.682933
-0.241441,0.137485,0.715442,0.170136,0.972793,-0.157248
0.729971,-0.288581,0.666288,-0.047575,0.985161,-0.164907
-0.153659,-0.431811,0.635262,0.200296,0.517122,0.832146
0.472853,0.402193,0.461562,-0.692862,0.531777,-0.486985
-0.076945,0.119604,0.454603,-0.475898,-0.660251,-0.581025
0.360116,0.276598,0.596785,0.838505,0.116955,-0.532194
0.351240,-0.141295,0.842724,0.929774,-0.134956,-0.342502
-0.419712,-0.357154,0.365384,-0.008874,-0.954118,0.299299
-0.137407,-0.045009,0.666727,-0.498559,0.548271,-0.671444
-0.063112,-0.229285,0.763254,-0.556323,-0.154439,-0.816488
0.870662,-0.274632,0.315262,-0.116733,-0.388943,0.913836
-0.343860,0.288212,0.553170,-0.148575,0.313461,0.937906
0.376369,0.427324,0.474874,0.759984,-0.099991,0.642204
0.268876,-0.208394,0.810226,0.700229,-0.278039,0.657551
0.309856,0.056069,0.541343,-0.219176,0.926506,0.305857
0.318964,0.623153,0.522995,-0.629881,0.273409,-0.726978
0.086686,0.321392,0.431233,0.238096,-0.123110,0.963408
-0.326338,-0.031000,0.711052,-0.682665,0.378697,-0.624945
-0.144379,-0.098467,0.784067,0.835944,-0.541474,0.089468
-0.080230,-0.262344,0.771194,0.504137,0.393415,0.768811
0.268415,-0.047590,0.964545,0.993483,-0.103513,-0.047705
0.765590,-0.378168,0.681730,0.120685,0.723422,0.679776
0.750030,0.509539,0.591453,-0.796809,0.455185,-0.397368
-0.209220,0.078927,0.742931,-0.631127,-0.575410,-0.520175
0.188300,-0.038128,0.846662,-0.082963,0.887489,0.453299
0.472160,-0.157701,0.802647,0.501798,0.348576,-0.791640
0.245535,0.434083,0.628690,0.055147,-0.538264,0.840970
0.214930,-0.049802,-0.137702,0.985421,0.148288,0.083401
0.198100,-0.066331,0.524907,0.062301,-0.520539,0.851562
-0.159770,-0.041691,0.668664,-0.398562,0.521255,-0.754613
0.252508,0.630526,0.540155,0.448819,-0.567912,0.689954
-0.136253,-0.403915,0.609839,-0.025777,-0.476853,0.878605
-0.156656,0.146087,0.664390,0.471044,0.427895,-0.771378
0.316255,0.757289,0.698851,-0.442083,-0.665102,0.601833
0.757119,-0.406802,0.682724,0.357641,-0.161888,-0.919720
0.868590,0.162984,0.659174,0.466511,0.383040,-0.797275
0.376080,-0.079235,0.595210,0.244669,0.280355,-0.928191
0.827610,-0.038312,0.427825,-0.309362,0.946588,-0.090915
0.413546,-0.441765,0.850575,-0.355204,-0.829561,-0.430881
-0.304034,-0.020493,0.677211,0.528892,0.124417,0.839520
0.338386,-0.030570,0.806185,-0.687215,0.404058,0.603715
0.617178,-0.071984,0.340413,-0.304427,0.650660,0.695677
0.305705,-0.263941,0.758025,0.989784,0.140329,-0.025219
0.146454,0.079910,0.899083,0.105675,-0.165703,0.980498
0.281210,-0.155673,0.823460,0.957903,0.228425,-0.173909
-0.094868,0.196411,0.493157,-0.153657,0.856030,-0.493561
0.961901,-0.208148,0.622169,0.722231,-0.641742,0.257974
-0.215503,0.017849,0.750394,0.684980,0.643975,0.340733
0.662998,0.027190,0.553067,-0.007286,-0.177385,0.984115
-0.165993,0.764847,0.469697,-0.701672,-0.404749,-0.586374
0.803805,-0.146211,0.767670,0.792055,-0.535152,-0.293702
0.598100,0.419275,-0.942414,-0.270938,-0.316287,0.909151
0.440693,0.466589,0.731982,-0.538481,0.329288,-0.775634
0.130318,-0.314388,0.789787,0.044293,0.989604,0.136830
0.589281,0.813204,0.530756,0.224300,-0.584387,0.779860
-0.067260,-0.403116,0.364313,-0.102684,0.579617,0.808393
0.328244,0.365941,0.834397,0.121398,0.695642,-0.708057
0.272106,0.674522,0.681110,0.406151,0.482830,-0.775832
0.229568,-0.017174,0.720878,-0.468495,0.116669,0.875729
-0.327375,-0.056193,0.700181,0.789347,-0.409183,0.457712
0.233430,0.022335,-0.262143,0.712597,0.700726,0.034485
0.613776,0.183815,0.755223,-0.374853,0.919973,0.114608
-0.166686,0.502105,0.560607,-0.393096,-0.085167,-0.915545
0.085187,0.403422,0.559961,0.977572,0.203574,0.053947
0.815216,-0.581862,0.280826,-0.661403,-0.022573,-0.749691
0.623285,0.015392,0.240129,0.291234,0.193180,-0.936944
0.249106,-0.045132,-0.284571,0.696638,0.714120,0.068759
0.355965,-0.517037,0.691078,0.405888,0.812386,-0.418670
0.314408,-0.020738,0.423112,0.295421,0.942736,-0.154842
0.134469,-0.267812,0.654732,-0.433171,0.322907,0.841484
0.021211,-0.319242,0.628961,0.953649,-0.031678,-0.299249
0.187438,0.294049,-0.965281,0.514060,0.142234,-0.845879
0.596542,0.380073,0.729439,-0.428078,0.830887,0.355494
0.600288,0.774923,-0.949128,-0.165241,0.268371,0.949038
0.904437,0.229776,0.660697,0.048191,-0.181594,0.982192
0.140288,-0.638576,0.425203,0.937973,-0.062086,0.341103
0.238848,-0.563244,0.179406,0.889632,-0.012703,-0.456501
0.539366,-0.324403,0.667050,0.266515,-0.639018,-0.721544
0.482190,0.015822,0.747889,0.399114,-0.834713,0.379424
0.303345,-0.324649,0.767889,0.938925,-0.194864,0.283633
0.366110,0.637469,0.668728,0.448128,-0.632097,0.632166
0.716716,0.085502,0.664119,-0.383730,-0.742371,-0.549214
0.312393,0.833974,0.538399,0.267624,0.594216,0.758475
-0.078559,-0.360350,0.468457,-0.597689,-0.441640,0.669120
0.306282,0.690435,0.651117,0.080519,0.994964,-0.059695
0.330893,0.531107,0.755210,0.222694,0.596244,-0.771298
-0.550430,0.386156,0.559303,0.377328,0.173271,-0.909726
0.629800,-0.053121,0.344287,-0.309467,0.672002,0.672788
0.243287,0.004331,0.917663,0.896063,-0.015634,0.443652
-0.164955,-0.526191,0.582660,-0.224006,0.766080,-0.602447
0.523342,0.280961,0.544803,0.933820,-0.249554,-0.256326
0.367032,-0.716182,0.788264,-0.084143,0.988080,0.128913
0.536946,0.747335,-0.947966,-0.201377,0.274386,0.940298
0.148702,-0.903346,0.476604,0.561264,0.804726,0.193386
0.972624,0.199238,0.114138,-0.437699,0.866527,0.239896
0.097869,0.537005,0.567734,0.991813,0.124001,0.030515
0.231759,0.001443,-0.035765,0.501958,0.863760,0.044231
-0.231988,-0.526622,0.588677,-0.597865,0.425749,-0.679187
0.256254,-0.902547,0.356411,0.081533,-0.967835,0.238010
0.212566,0.568527,-0.941627,0.249606,-0.247487,-0.936187
0.026861,0.677655,-0.973428,0.260303,-0.175907,-0.949368
0.474236,0.306891,0.689723,0.913923,0.302154,-0.271012
0.469568,0.339580,0.678141,0.799669,0.362913,0.478354
0.168068,-0.496084,0.601666,-0.307611,0.930707,-0.197891
0.354466,-0.240531,0.309710,0.744834,0.185562,0.640929
-0.533083,0.108420,0.506391,0.384579,0.342137,0.857345
0.169627,0.016621,0.331943,0.129123,-0.964665,0.229671
0.172796,-0.031430,0.629141,-0.676514,0.355814,-0.644767
0.456717,-0.630527,0.741717,-0.222584,-0.838932,-0.496638
0.600232,0.455713,-0.943899,-0.270658,-0.256639,0.927836
0.232625,-0.035117,-0.003215,0.488378,-0.872078,0.031112
0.915852,-0.044334,0.440103,-0.344035,0.636578,-0.690223
0.498502,0.081385,0.624803,0.911968,0.251980,0.323759
0.358157,-0.330487,0.746753,0.061631,0.484792,0.872455
-0.342245,0.033887,0.558347,0.734213,0.491395,-0.468468
0.233026,0.054963,0.801562,0.952663,0.043571,0.300890
0.029281,0.424805,-0.964532,-0.045180,-0.071355,0.996427
-0.525069,0.223509,0.520917,0.771332,-0.448928,0.451121
0.358273,0.210360,0.705526,0.749616,-0.661774,0.011461
0.435275,0.411840,0.834384,-0.201847,0.939444,-0.276954
0.339944,0.727303,0.534797,0.266691,-0.941479,-0.206138
0.231066,-0.221789,0.834151,0.234589,0.890815,0.389124
0.084726,0.348121,0.739148,-0.016585,-0.789940,0.612960
0.737637,0.544932,0.552744,0.205805,-0.857438,0.471641
0.223805,0.178162,0.857741,0.820937,-0.567468,-0.063589
-0.019712,-0.091279,0.831608,0.916850,0.381679,0.117082
0.735044,0.577314,0.565139,-0.618809,0.782220,0.072156
0.235217,-0.030632,0.408961,0.022534,-0.910270,0.413401
-0.621726,0.364158,0.572085,-0.352720,-0.022381,0.935461
-0.377234,0.449384,0.569658,0.606705,-0.504986,0.613920
0.255677,0.750714,-0.957637,-0.082183,-0.147915,0.985580
0.301441,0.705060,0.690742,-0.376480,-0.733142,0.566361
0.195103,0.077391,0.953170,-0.178099,0.922755,0.341767
0.629452,0.075548,0.669864,-0.067185,0.449999,0.890498
0.187205,-0.150451,0.396720,-0.820964,-0.064464,-0.567329
-0.719193,0.174782,0.393958,-0.707336,-0.350865,-0.613653
0.454008,-0.339704,0.791737,0.533609,-0.598980,-0.597063
0.285073,-0.243787,0.343719,0.967868,0.221166,0.119656
0.128126,-0.113645,0.319638,0.818320,-0.492338,-0.296573
0.138733,0.115057,0.839871,0.993004,-0.091310,-0.074876
-0.143514,0.506344,0.473015,0.744790,-0.069857,0.663632
-0.203687,-0.467388,0.599600,-0.037107,-0.695100,0.717954
0.229223,-0.526314,0.530872,-0.094698,0.534884,0.839602
-0.162651,0.303819,0.436927,-0.174673,0.431541,0.885021
0.298560,-0.844727,0.584261,-0.144604,0.719826,0.678926
0.024208,-0.185413,0.720245,0.498959,-0.666901,-0.553429
0.512451,-0.066024,0.590032,-0.291509,-0.943507,0.157537
0.443170,0.347875,0.710833,-0.659203,-0.560752,-0.501007
0.654295,-0.569265,0.567850,-0.178087,-0.770928,0.611519
0.444267,0.605947,-0.943228,-0.424242,-0.003408,0.905543
0.346456,-0.060801,0.756023,0.989514,-0.113696,-0.089076
-0.255273,0.723186,0.482569,-0.489559,-0.540489,0.684254
-0.364897,0.283111,0.506133,-0.520735,0.850579,-0.073147
-0.019997,-0.138530,0.815094,0.883693,-0.215261,0.415632
0.069568,-0.645642,0.729710,-0.627408,0.438193,0.643697
0.197752,0.495038,0.372937,0.475708,0.198145,0.856995
-0.155735,0.014347,0.668767,0.208163,0.487148,-0.848148
0.311126,-0.643615,0.668638,-0.327380,0.265378,0.906861
0.841731,0.620572,0.568199,-0.689553,0.714447,0.118671
0.503343,-0.313589,-0.023176,0.590352,0.798234,0.119611
0.128070,-0.289748,0.428251,0.991221,0.090342,-0.096531
-0.543169,0.293926,0.481756,-0.323497,0.924854,-0.199986
0.133431,-0.199177,0.391788,0.087420,0.396946,0.913669
0.299021,0.227072,0.858567,-0.519360,0.790142,-0.325486
0.397522,-0.070202,0.855946,-0.434016,0.863726,0.256142
0.247147,0.890564,0.533660,-0.070110,-0.997438,-0.014217
0.115103,0.034379,0.528509,0.270389,0.808880,0.522114
-0.411009,-0.196473,0.290265,-0.035375,0.599747,0.799407
0.523342,0.405449,0.708509,0.966979,-0.029517,-0.253143
0.873430,-0.244954,0.334112,-0.264719,-0.177874,0.947779
-0.070778,0.113706,-0.985074,-0.185546,-0.246269,0.951275
-0.350776,0.729208,0.495404,-0.552524,0.293161,-0.780240
