0.248496,-0.259407,0.526022,-0.356099,-0.892045,0.278297
0.174649,-0.068847,0.657098,0.690409,0.679931,0.247043
-0.075827,-0.236732,0.835866,0.296677,0.789032,-0.537970
-0.349646,0.534046,0.505333,0.728608,0.427768,0.534925
0.197370,-0.572708,0.434990,0.553486,-0.371596,-0.745366
-0.076838,0.005720,0.786719,-0.421001,0.793250,0.439901
-0.499670,0.104756,0.326922,0.171838,-0.805315,0.567397
0.110924,-0.077120,0.849430,0.597460,0.596910,-0.535481
-0.727188,0.221917,0.191165,0.217769,-0.199579,0.955377
0.812784,0.494556,0.533366,0.423019,0.836241,0.348936
-0.525345,-0.251549,0.551968,0.816703,-0.057944,-0.574142
-0.627359,-0.371054,0.418036,-0.041765,-0.956757,-0.287874
-0.537094,-0.418952,0.442225,-0.462411,-0.799157,0.384090
0.860172,-0.452378,0.284722,-0.728620,0.496214,-0.472107
0.600516,0.548037,0.163420,-0.123264,-0.397003,0.909502
0.300082,0.070642,0.730873,0.177707,0.296829,-0.938250
-0.383261,-0.760992,0.318136,0.181161,-0.201153,0.962662
0.383887,-0.109097,0.220872,0.453513,0.131650,-0.881473
-0.126558,0.066919,0.863981,0.959357,0.108150,-0.260649
0.268100,-0.682701,0.647997,-0.639439,-0.768754,-0.011628
0.332842,0.515094,0.307250,-0.440618,-0.077633,-0.894332
0.002142,-0.065472,0.938402,0.406967,0.902427,0.141436
0.413998,-0.186699,0.575196,-0.413801,0.338898,0.844936
-0.415708,0.630531,0.387134,0.464306,0.668693,0.580748
0.251996,0.036803,0.793707,0.876951,-0.066490,0.475958
0.209043,0.865611,0.281290,0.514673,-0.446977,-0.731658
-0.333227,0.203859,0.679008,0.366061,0.592323,-0.717741
0.767656,-0.219502,0.269744,0.498371,0.722555,0.479104
-0.258920,-0.032874,0.712272,0.811611,-0.552312,-0.190364
0.368092,-0.107374,0.842236,-0.229596,-0.965552,-0.122458
0.338522,0.101102,0.289650,-0.065308,-0.408684,0.910336
-0.323814,-0.354996,0.741087,-0.784016,0.572257,-0.240503
-0.087111,0.079532,0.774405,0.748692,-0.258900,-0.610272
0.037467,-0.189662,0.700026,0.991893,0.102911,-0.074554
-0.091780,-0.040248,0.799720,-0.741882,0.361129,0.564975
0.412208,0.490972,0.540230,0.570306,0.455015,-0.683895
0.738477,-0.271124,0.283349,-0.295490,-0.680864,-0.670157
-0.234409,0.153620,0.187595,-0.051796,-0.047142,0.997544
-0.397110,-0.302550,0.613511,0.374744,0.658987,-0.652153
0.399603,-0.680772,0.467828,-0.307657,0.645142,0.699384
-0.567907,-0.463060,0.612289,-0.186206,-0.895027,-0.405282
-0.529472,-0.388077,0.616806,-0.667822,0.375328,-0.642762
-0.053106,-0.509372,0.674478,-0.134162,0.960863,0.242369
0.216590,0.474845,0.653625,0.818125,0.316028,0.480414
0.362255,-0.009579,0.497042,-0.081984,-0.821307,0.564564
-0.366843,-0.286423,0.624864,0.990334,0.115165,0.077303
-0.677003,0.274847,0.350452,0.723722,0.653778,-0.220908
0.325372,-0.293108,0.439397,0.578058,-0.661615,0.477613
0.764076,-0.216539,0.415428,0.027315,-0.653019,0.756849
-0.521222,-0.239628,0.365389,0.727645,-0.479116,-0.490898
0.095826,0.012957,0.870955,-0.310014,0.045790,0.949629
-0.014666,-0.498966,0.685433,-0.337565,0.935766,0.101944
0.013113,-0.016677,0.661834,0.376657,0.849773,0.368802
0.328563,-0.429565,0.350741,0.952047,0.112636,-0.284463
-0.004317,-0.316954,0.744725,0.909538,0.248993,0.332781
-0.105315,-0.664025,0.250937,0.811743,0.053857,-0.581526
-0.819162,0.206341,0.184891,0.441026,-0.117049,-0.889829
-0.082751,0.150036,-0.076864,-0.139762,-0.891923,0.430046
-0.173557,-0.521571,0.333265,-0.327657,-0.210192,0.921119
0.043850,0.017367,0.967615,-0.659150,0.726151,0.195512
0.264444,-0.507718,0.453468,0.034337,-0.664016,0.746929
0.427771,-0.090490,-0.803729,0.145631,0.989256,-0.012794
-0.335251,0.311649,0.513117,0.663294,0.497267,0.559255
0.746023,-0.865058,0.492154,0.465898,-0.384738,0.796816
0.125395,0.303997,0.654682,0.040148,-0.848028,0.528429
0.752635,-0.802343,0.462680,0.952151,0.305341,0.013251
0.686420,0.399035,0.609887,0.732217,0.608841,-0.305240
-0.148348,-0.217368,-0.159315,-0.511678,0.628929,0.585349
0.733182,-0.403239,0.656247,0.813702,-0.503786,0.289981
-0.253003,0.088492,0.814313,-0.226683,-0.900868,0.370205
-0.331907,-0.866091,0.494831,0.479071,0.800498,0.360131
-0.186010,0.071952,0.787928,0.574262,0.763111,-0.296455
0.667119,0.161751,0.083412,0.709188,0.080391,0.700421
-0.268723,-0.281392,0.623588,-0.499175,0.429457,-0.752590
-0.269659,-0.151964,0.296089,0.768801,-0.274930,-0.577372
0.716920,-0.179462,0.420919,0.187884,0.595945,-0.780736
0.355720,0.958167,0.467952,-0.365494,0.553550,0.748329
0.199474,0.890904,0.476779,0.066346,0.617742,0.783577
-0.509629,-0.849758,0.505896,0.698702,-0.575656,-0.424778
0.666345,-0.728808,0.527298,0.080184,0.647746,0.757625
0.169359,-0.641764,0.562909,0.746838,0.433022,0.504704
-0.147959,-0.990765,0.312274,0.760151,0.561551,-0.326851
-0.529937,0.283116,0.358113,0.163917,0.704138,-0.690884
-0.303350,0.521297,0.568112,0.910759,0.316369,-0.265383
-0.376104,-0.188421,-0.891479,-0.368473,0.875724,-0.311986
-0.260554,-0.124053,0.642889,0.876814,0.449562,0.170563
-0.364900,0.276981,0.664086,-0.278884,0.485454,-0.828588
0.196282,0.015920,0.733427,0.633875,-0.118243,0.764344
-0.205695,-0.352032,0.273465,-0.266188,0.400808,-0.876640
0.735908,-0.221019,0.413080,0.217164,-0.600517,0.769557
-0.079484,0.207031,0.768845,-0.440394,-0.894891,0.072271
-0.583936,-0.341971,0.559821,-0.416029,0.883556,0.215054
-0.095826,-0.123638,-0.007248,-0.679124,0.699558,0.222281
0.110767,0.221227,0.408536,0.946255,-0.029347,0.322089
0.381551,0.684287,0.551556,0.751940,0.553566,-0.357983
0.326227,-0.596278,0.449158,0.342143,-0.350868,-0.871682
0.028206,0.065611,-0.522713,-0.793513,0.604677,0.068575
-0.600901,-0.058649,0.526790,0.048972,-0.545189,0.836881
-0.446445,-0.384838,0.648504,-0.478924,0.877579,-0.022044
0.002061,-0.102688,0.844899,0.426656,0.320394,-0.845762
-0.417109,0.516817,0.504194,-0.514516,0.681706,0.520144
0.461543,-0.689455,0.589020,-0.199856,0.913990,0.353101
-0.164377,-0.997725,0.314773,0.672920,0.672391,-0.308333
-0.362250,0.373674,0.487254,0.704019,0.705757,0.079146
-0.002451,0.497726,0.756861,0.585585,0.740424,-0.329945
-0.415632,-0.199724,0.526996,0.888525,0.384945,-0.249682
-0.642452,-0.440661,0.523908,0.977179,-0.202902,-0.062863
0.089447,0.249966,0.824088,-0.065354,0.995963,-0.061528
0.119249,-0.113370,0.886551,-0.263888,0.963008,0.054581
-0.293542,-0.111991,0.614239,0.402907,0.889065,-0.217321
-0.532036,0.293247,0.705366,-0.870906,-0.328484,0.365542
0.072407,-0.103790,0.842263,0.250317,-0.451157,0.856621
0.181498,-0.307649,0.767555,0.878277,-0.470927,-0.082806
0.896124,0.080909,-0.973505,0.149387,0.039666,-0.987983
-0.033886,0.742247,0.583858,0.553491,0.822545,-0.130641
-0.383417,-0.447277,0.568812,0.945508,0.054694,-0.320971
0.074896,-0.017437,-0.649067,0.995596,-0.081612,-0.046128
0.117383,0.475466,0.443955,-0.473002,0.388091,-0.790983
0.262031,0.750517,0.294057,0.348055,-0.221121,0.911023
-0.128116,0.060855,0.872617,0.561419,0.826765,0.035620
-0.032252,0.361957,0.783946,0.665083,-0.057371,-0.744562
0.021751,-0.227085,0.768090,0.874249,0.310127,-0.373511
-0.447300,-0.812267,0.504180,0.096812,0.655020,0.749384
0.391980,0.422881,0.293906,0.189802,0.746788,-0.637403
0.576081,-0.275947,0.597834,0.038786,0.914190,0.403427
-0.006340,-0.111991,0.864640,0.562618,0.788280,-0.249151
0.381708,-0.531978,0.445698,0.228570,0.776270,0.587503
0.138232,-0.323639,0.781256,0.699327,-0.682171,0.213502
-0.064856,-0.002481,0.803481,0.806185,-0.013048,0.591520
0.188888,-0.088973,0.787543,0.440634,-0.855455,0.272100
-0.166865,0.334046,0.625194,0.857899,0.498233,-0.125589
0.763762,-0.572571,0.204000,-0.657339,0.645879,-0.388260
0.553517,0.553688,0.159027,-0.061137,0.561620,0.825134
-0.795744,-0.336319,0.550952,-0.526796,0.458911,0.715463
-0.610238,-0.163749,0.635188,0.117464,0.637442,0.761492
-0.457340,0.352655,0.718971,-0.078877,0.991867,-0.099896
-0.032874,0.226603,0.815247,0.794569,0.581179,0.175757
0.307239,-0.103239,0.704886,0.779979,0.474370,-0.408175
-0.759326,-0.379876,0.523551,0.354380,-0.093943,0.930370
-0.349023,-0.055202,0.761103,0.913633,-0.400903,0.067462
0.119093,-0.306133,0.785264,0.945926,0.212594,-0.245005
0.754425,0.329566,0.617314,0.500908,0.699367,-0.509880
-0.401237,0.267815,0.386393,-0.031033,-0.432046,0.901318
-0.035287,-0.366850,0.678020,0.721422,-0.270983,-0.637274
0.654904,0.533565,0.159041,-0.157812,0.466616,-0.870267
-0.615842,0.285735,0.185838,-0.078671,0.331262,-0.940253
-0.631714,-0.441764,0.584229,0.626734,0.733910,0.261878
0.199474,0.096004,0.752495,-0.155360,-0.496724,0.853890
0.029844,0.006065,-0.080845,0.084826,-0.808039,0.582990
-0.090146,0.103515,0.830732,0.069865,0.848351,-0.524805
-0.620510,0.174639,0.346650,-0.158514,-0.351813,0.922551
-0.595453,0.290076,0.380888,-0.119721,-0.825177,0.552041
0.692723,-0.309510,0.383510,-0.029401,-0.951969,0.304781
0.159946,0.226672,0.367791,0.024282,-0.033603,0.999140
-0.526437,-0.224878,0.631660,0.947777,-0.046898,0.315467
-0.031706,0.118885,0.245487,0.401755,0.147973,0.903713
0.262421,-0.017092,0.814999,0.465958,0.001152,-0.884806
0.476327,-0.545899,0.569444,0.874512,-0.172470,0.453301
0.273006,0.127016,0.767898,0.910832,-0.149582,-0.384722
-0.289886,-0.692763,0.460868,-0.728739,-0.680966,0.072274
-0.205539,-0.144658,0.807696,0.885210,-0.456824,0.087834
-0.173324,0.327154,0.824801,0.748071,0.262750,0.609387
-0.154807,-0.038456,0.691885,0.223578,0.711786,0.665863
0.297826,-0.419986,0.466291,-0.654955,0.026343,0.755208
-0.252927,-0.058029,0.762640,-0.359831,0.920728,-0.150937
0.049606,0.017988,0.900306,-0.394482,0.340418,0.853522
0.087035,-0.079944,0.838269,0.079343,-0.983483,0.162680
0.170684,-0.594348,0.353020,0.043512,-0.893632,0.446686
0.303820,-0.506960,0.665884,0.958890,0.283765,0.002646
-0.125780,-0.452515,-0.147303,0.691525,-0.364501,-0.623644
0.104773,-0.138386,0.803701,0.973264,-0.227931,0.028379
0.712954,0.050863,-0.978378,0.171761,-0.025200,-0.984816
-0.222114,-0.232185,0.578655,0.814744,-0.505776,0.283519
0.005875,-0.048655,-0.680409,0.938466,-0.284538,-0.195755
0.001130,0.187525,0.821877,-0.460937,0.825123,0.326663
0.344981,0.022812,0.380833,-0.081211,-0.126483,0.988639
-0.307705,-0.046312,0.771605,0.812847,-0.409777,-0.413960
-0.201416,0.032737,0.525377,-0.688677,0.650705,0.319854
-0.236119,-0.276636,0.700218,-0.813262,0.203176,-0.545275
0.166091,-0.006685,0.879412,0.731200,0.393483,0.557241
0.355639,-0.056927,0.584819,0.838567,-0.544372,-0.021574
0.680194,-0.778429,0.420974,0.322961,0.300706,-0.897370
-0.466363,-0.433149,0.627102,0.743696,-0.526175,0.412378
0.465898,0.079532,0.304285,0.028451,-0.938924,0.342946
0.039333,-0.059269,0.943152,0.067585,0.434797,-0.897989
-0.164144,0.349622,0.505759,-0.433378,-0.761936,-0.481286
-0.565262,-0.304824,0.552531,0.757064,-0.528568,-0.384019
-0.753333,-0.407649,0.365553,-0.472007,0.256882,0.843339
-0.356418,0.234391,0.719493,0.830654,0.423427,0.361558
-0.440841,-0.146243,0.536579,-0.372933,0.777473,0.506415
0.067814,0.042591,-0.024848,0.932497,-0.240835,0.269161
0.771157,-0.883253,0.220529,0.558356,0.636290,-0.532329
0.770454,-0.222742,0.278942,0.395955,0.759548,0.516049
0.252927,-0.165816,0.552696,-0.220725,-0.736688,0.639196
-0.230363,-0.149137,0.659102,-0.232163,0.759541,0.607617
-0.640353,-0.425017,0.530305,0.875292,-0.376684,-0.303269
0.243281,-0.291040,0.456104,-0.715260,0.670921,-0.195623
0.433532,0.904756,0.496863,0.791798,0.190968,-0.580162
0.343500,-0.574706,0.594704,-0.130331,0.675139,-0.726086
0.727972,0.248933,0.055997,0.960667,-0.039479,0.274884
-0.184376,0.126051,-0.874456,0.244689,-0.969060,0.032398
-0.171068,-0.815161,0.256977,0.974053,0.212744,-0.077211
0.120650,-0.613921,0.571709,0.901310,0.377960,-0.211630
-0.091623,-0.139076,0.829441,0.319978,-0.909591,-0.265062
0.168271,-0.137560,-0.167827,-0.399592,0.905053,0.145618
-0.298448,-0.593797,0.251019,0.513767,0.340737,-0.787364
-0.651247,0.504549,0.398830,0.873291,-0.481941,-0.071380
-0.185620,-0.048793,0.765633,-0.271608,0.942384,-0.195297
0.323738,0.230462,0.799061,-0.102911,-0.950205,0.294142
0.525895,0.680773,0.303475,0.160751,0.616195,-0.771014
-0.243124,-0.021227,0.247615,-0.452739,0.891443,-0.018898
0.071472,0.317988,0.587977,0.271897,0.594016,0.757111
0.308018,-0.769676,0.362506,-0.248063,-0.053325,0.967275
-0.385749,-0.241212,0.732123,0.845772,0.312137,0.432713
0.055053,-0.013369,0.945843,0.939391,-0.309803,0.146855
-0.555768,-0.276430,0.586920,0.678551,-0.696921,0.232098
0.076064,0.120124,-0.094312,-0.454246,-0.876212,0.160975
-0.304903,0.557960,0.572588,-0.564650,-0.814313,0.134404
-0.001905,-0.037215,0.722362,0.937522,-0.272926,-0.215785
0.108041,-0.496140,0.589583,0.722403,0.504341,-0.473047
-0.257752,0.392765,0.653543,0.658832,-0.741843,-0.124938
-0.479514,-0.448035,0.752742,0.805580,-0.591009,0.041816
-0.716763,-0.539904,0.417048,-0.106374,0.833070,0.542844
-0.574989,-0.506133,0.391733,0.401085,0.912081,0.085079
0.041746,0.339352,0.721813,0.705381,0.697246,-0.127614
-0.013811,-0.275947,0.172165,0.609492,0.079095,-0.788837
-0.303972,0.190422,0.382810,-0.234164,-0.381493,0.894221
0.048205,0.071262,0.880647,-0.542845,-0.803066,0.245774
-0.202038,-0.367470,0.604135,-0.792206,0.494022,0.358261
0.046571,0.387457,0.575731,0.937580,-0.237063,0.254451
0.122203,0.230944,0.717777,0.902701,-0.267065,-0.337354
0.816678,-0.755754,0.250841,0.860090,-0.296809,-0.414909
0.442869,-0.546174,-1.000000,-0.095349,0.009576,0.995398
0.530949,-0.381874,0.317285,0.021079,-0.188955,0.981759
-0.428080,-0.150860,0.287577,0.336427,0.586164,0.737041
0.134964,0.094143,0.845778,0.346885,0.900080,-0.263680
-0.422713,-0.385527,0.436857,-0.565636,0.824655,0.000356
0.258687,-0.678773,0.550829,0.163440,0.899576,0.405031
-0.971129,-0.356168,0.371992,0.453595,-0.408531,0.792057
-0.554215,-0.498966,0.599920,0.880228,0.474551,-0.000558
-0.017311,0.188491,0.739495,0.511169,-0.856488,0.071656
-0.099872,-0.107511,0.818761,0.492078,0.765188,0.415146
-0.531728,-0.198208,0.499279,0.062123,-0.982497,0.175613
-0.251212,-0.250102,0.846643,-0.211609,-0.896625,-0.388955
-0.188185,0.149827,-0.128166,0.347759,0.877825,-0.329374
-0.041043,-0.075328,-0.137584,0.359433,-0.350468,-0.864858
-0.515076,-0.497449,0.592301,-0.696113,-0.654603,-0.294824
0.454694,0.673399,0.575937,-0.293161,-0.649878,0.701225
-0.702444,-0.526189,0.517304,0.963937,-0.182961,0.193264
0.013113,-0.386285,0.748445,0.626830,0.775568,-0.074686
-0.088199,-0.566574,0.737614,-0.372890,-0.748331,-0.548593
0.087035,-0.074913,0.882679,0.392342,0.725941,0.564869
-0.394155,-0.306961,0.607416,-0.234870,-0.432333,0.870589
0.219079,0.706823,0.471178,0.369401,0.804829,-0.464536
0.328639,-0.755686,-0.994989,0.108460,-0.033360,0.993541
0.216903,0.141145,0.751864,-0.621423,-0.602892,0.500354
-0.755826,-0.489868,0.404747,0.648820,0.759614,-0.044925
-0.040113,0.248037,0.817347,0.860154,0.393693,-0.324256
-0.182196,0.504549,0.451766,0.676244,0.696876,0.238866
0.026961,0.138458,0.686669,0.910258,0.324192,0.257548
0.648915,0.322606,0.590077,0.416090,0.674494,-0.609858
-0.344977,-0.313438,0.649630,0.679226,0.501944,0.535448
0.212387,-0.097380,0.814203,-0.250886,0.720967,0.645958
0.533129,-0.825017,0.408056,0.808156,-0.034680,-0.587946
0.628527,0.022123,0.217083,0.170127,0.601868,0.780264
0.483408,-0.300481,0.583049,-0.859999,0.216197,0.462235
-0.601447,-0.527360,0.641091,0.893905,0.004638,0.448233
-0.359761,-0.626395,0.229109,0.632698,0.441177,-0.636440
-0.557017,-0.035699,0.562058,0.239368,-0.938522,-0.248755
-0.224526,0.231013,0.658004,0.833947,0.551670,0.013893
-0.572965,-0.810751,0.448279,-0.067838,0.408608,0.910185
0.312767,-0.608269,0.692778,0.965458,-0.103499,-0.239121
-0.178382,0.042524,0.848935,0.818683,0.533825,0.211633
0.102750,0.089869,0.951471,0.861286,-0.455446,-0.225289
-0.194492,-0.168228,0.812185,-0.790466,-0.070620,0.608422
0.494066,0.314612,0.487116,-0.182981,-0.457425,0.870219
-0.283275,-0.070572,0.756669,-0.346574,0.700391,-0.623971
0.865933,0.666025,0.150914,-0.635639,-0.125534,-0.761712
-0.308873,-0.448656,0.156789,-0.039059,-0.847663,0.529095
0.614289,-0.467883,-0.987027,0.173617,0.089815,-0.980709
-0.072094,-0.559614,0.717502,-0.186552,-0.900978,-0.391712
-0.292844,-0.226258,0.844529,-0.201782,-0.877974,-0.434104
0.280862,0.337768,0.293288,0.169625,-0.559788,0.811088
0.881805,-0.430117,0.283500,-0.506972,0.556266,-0.658443
0.090692,0.689802,0.590970,-0.552442,-0.769411,0.320647
-0.121657,-0.049620,0.174059,0.758556,-0.310139,-0.573068
-0.297670,-0.266850,0.719245,-0.839601,0.399674,-0.367872
-0.556315,-0.412129,0.433823,0.504054,0.847567,-0.166012
-0.081118,0.220262,0.447840,0.889217,0.141933,0.434912
-0.248491,0.463681,0.457683,0.206270,0.950621,0.231889
0.561529,0.122399,0.292080,-0.087441,-0.929629,0.357973
-0.323890,-0.115505,0.156515,0.133315,0.683076,0.718077
0.786953,-0.640868,0.427934,-0.276282,0.106617,0.955145
0.086954,0.098347,0.278997,0.304222,-0.912970,0.271911
-0.431347,0.223985,0.190478,-0.251068,-0.231875,0.939787
0.212311,0.969194,0.264789,-0.210284,0.848756,0.485175
0.781895,0.248037,-0.976388,-0.357468,-0.178736,0.916663
0.380620,-0.536595,0.322804,0.326512,0.751994,0.572621
-0.199550,-0.251413,0.836814,-0.376071,-0.856971,-0.352379
0.253938,0.393592,0.434922,0.276800,0.296340,0.914092
-0.254171,0.450932,0.258831,0.076115,-0.405349,0.910988
-0.191220,-0.000207,0.370921,0.668392,0.680186,-0.300995
0.424271,0.200483,0.742076,-0.553045,-0.600866,0.577149
-0.349104,-0.230944,0.651360,-0.131112,0.692146,0.709749
-0.264601,-0.058304,0.770081,-0.228228,0.942649,0.243566
0.582697,0.087871,0.667175,-0.864207,0.319192,0.388924
0.528693,-0.585251,0.552092,-0.148087,0.903884,-0.401327
0.520989,-0.304410,0.591986,-0.650376,0.247474,0.718169
0.281408,0.675260,0.454567,-0.735423,-0.355940,0.576593
0.091860,-0.434665,0.677938,-0.589111,0.806112,0.055955
0.539744,-0.690833,0.485798,0.905699,0.078981,-0.416498
0.321093,0.171192,0.832160,-0.643101,0.727288,0.239734
-0.012643,0.196073,0.538954,-0.295174,0.044473,0.954408
-0.085397,0.246657,0.786184,-0.692412,-0.464624,0.551988
0.074582,0.758030,0.597463,-0.208866,-0.808336,0.550426
-0.523402,-0.407374,0.610367,-0.220284,-0.404940,0.887411
-0.644085,0.529430,0.419670,-0.600374,0.615773,-0.510269
-0.419522,0.454515,0.396098,0.297640,-0.141329,0.944159
-0.608447,-0.777946,0.469819,-0.625055,0.780565,0.004941
-0.062833,-0.179601,0.843142,-0.322811,-0.749917,0.577423
0.056222,-0.832598,0.402921,-0.266125,0.657380,0.705003
0.009299,0.598690,0.627061,-0.453036,-0.883515,-0.118991
-0.001126,-0.054651,0.950373,0.839584,-0.525393,-0.138064
0.162353,0.490903,0.695867,-0.909508,0.225461,-0.349231
0.074815,0.058374,-0.216548,0.018374,-0.999725,0.014584
0.444735,0.354308,0.162185,0.141717,-0.242487,0.959748
0.067658,0.083322,0.830773,0.597721,0.451130,-0.662730
-0.053572,0.803516,0.595692,0.429844,0.768397,-0.474131
0.671166,0.439974,0.426932,-0.628904,-0.181340,0.756039
0.343581,0.437767,0.513996,0.329132,0.083896,-0.940550
0.398283,-0.147346,0.652527,0.397895,0.917392,-0.008492
0.691630,-0.737147,0.427110,-0.327774,-0.525568,0.785075
-0.301635,-0.141007,0.420590,0.200669,0.969636,0.139782
0.408474,0.291868,0.484892,0.062297,-0.880719,0.469525
0.492043,-0.272020,0.217632,-0.433924,-0.181640,0.882449
0.142749,-0.247002,0.537128,-0.217121,-0.963474,-0.156767
0.657782,0.327982,0.331535,-0.328777,0.661609,0.673928
-0.012486,0.005377,0.413355,0.977639,-0.183201,-0.103240
0.398359,-0.740179,0.541329,-0.339342,0.855012,-0.392174
-0.197056,0.081738,0.849471,0.655594,-0.670817,-0.346699
0.022293,-0.439903,0.793048,-0.730446,0.552458,0.401545
-0.601447,-0.463956,0.606565,-0.639569,-0.751155,0.163452
-0.009608,0.057408,0.847137,0.307130,0.940381,0.146132
-0.262577,0.104066,0.619964,0.747266,0.513089,0.422295
0.846713,0.739765,0.138641,-0.504615,-0.269779,-0.820111
-0.588139,-0.238594,0.666735,0.146039,0.983214,-0.109375
0.025484,0.461544,0.738781,0.515147,0.727198,-0.453659
0.985605,-0.163128,-0.970951,-0.024028,-0.163495,0.986252
0.018636,0.058857,0.196244,0.973541,-0.061450,-0.220095
-0.240479,0.448380,0.257087,0.076115,-0.405349,0.910988
0.291681,-0.606409,0.666969,-0.568434,0.660700,0.490264
0.078629,0.470641,0.283349,0.054121,-0.250145,0.966695
-0.756605,-0.350103,0.559793,-0.685836,0.679877,0.259608
-0.580982,-0.296003,0.579768,0.755977,-0.594207,0.274621
0.667898,-0.388145,0.629477,0.818204,-0.066102,-0.571115
-0.119558,0.379395,0.572341,0.351691,0.302691,-0.885828
0.031630,0.727291,0.585012,-0.522998,-0.813197,0.255310
-0.486752,-0.160440,0.622723,0.826731,-0.550445,-0.116302
0.277908,0.203722,0.446906,0.241213,0.487855,-0.838936
0.426294,-0.652033,0.566987,-0.107906,0.948331,0.298369
0.069838,-0.788008,0.393559,0.159310,0.662898,0.731565
0.307709,-0.783528,0.579864,0.279421,-0.865462,0.415812
0.573127,0.382701,0.601197,-0.292378,-0.565567,0.771135
-0.620197,-0.411785,0.612811,-0.340849,0.865294,-0.367544
-0.076135,-0.096347,0.909545,-0.604672,0.707358,-0.366083
-0.652881,-0.622122,0.424557,0.515735,-0.670005,-0.533957
0.428317,0.534803,0.548934,0.591962,0.265134,-0.761108
0.038635,0.069470,0.835358,0.123820,-0.975648,0.181052
-0.146401,-0.895520,0.258995,0.861923,0.412781,-0.294451
-0.242498,-0.289455,0.696141,0.840610,-0.151139,0.520127
-0.020270,0.320745,0.796041,-0.112692,0.726849,0.677489
0.935652,-0.201861,-0.971185,0.068371,0.137465,-0.988144
0.565110,-0.002411,0.647640,-0.529622,0.484410,-0.696310
-0.537640,0.268850,0.682852,-0.730036,0.573898,-0.371065
-0.254793,-0.560716,0.460017,-0.708615,-0.090013,-0.699830
0.213247,-0.737285,-0.994481,0.180680,-0.175589,0.967741
0.013659,-0.309648,0.421290,0.474784,0.157821,0.865836
-0.388784,-0.203789,0.721360,0.149779,0.761569,0.630539
-0.026107,-0.032736,0.982497,0.776999,0.629368,-0.013005
0.040193,0.445762,0.746070,0.547173,0.708436,-0.445781
0.217445,0.661751,0.400903,0.551065,0.484471,0.679423
-0.112866,-0.240867,0.724545,0.290982,0.461008,-0.838332
0.418590,-0.166231,0.709581,-0.371145,-0.918834,-0.134150
-0.681515,-0.762233,0.432766,0.772908,0.191000,-0.605089
-0.534529,-0.476085,0.559134,-0.218378,0.446736,0.867605
0.835818,0.332738,-0.969702,0.410215,-0.153477,-0.898982
0.044391,0.220331,0.427893,-0.525070,0.644354,-0.555976
0.209666,-0.616333,0.648051,0.868284,0.454430,-0.198935
-0.434230,0.543557,0.529674,0.993495,0.113847,0.002525
0.426061,0.685667,0.587455,0.530541,0.711514,-0.460732
-0.013497,-0.013920,0.091375,0.337663,0.015135,-0.941145
-0.672643,-0.613645,0.407946,0.801285,0.203916,-0.562459
0.332610,-0.590282,0.497673,0.939109,-0.330379,-0.094467
-0.158773,-0.010269,0.545735,-0.352799,0.588852,0.727177
-0.135976,0.034805,0.158190,-0.535131,0.742991,0.401995
0.028752,-0.240316,0.697926,0.525804,0.833343,-0.170496
-0.103681,0.127222,-0.078552,-0.060064,-0.846967,0.528242
-0.368557,-0.033425,0.553451,-0.366832,-0.842239,-0.395054
-0.455549,-0.721778,0.490013,0.664481,-0.734547,-0.137498
0.514920,-0.187250,0.686806,0.892363,-0.408648,-0.191562
-0.376726,-0.159959,0.681466,-0.604479,0.671370,0.428798
0.706728,-0.963266,0.428428,-0.283473,-0.007643,0.958950
0.441311,0.965335,0.501256,0.868212,0.163166,-0.468599
-0.498188,-0.251827,0.617657,0.865438,0.027966,0.500235
0.727193,-0.355823,0.288909,0.166408,0.200093,0.965542
0.311989,0.162716,0.293577,-0.588162,-0.299520,0.751235
-0.431271,-0.337353,0.655437,0.789383,-0.319933,0.523944
0.474693,0.421089,0.264281,-0.647868,-0.053216,-0.759892
-0.771233,-0.624948,0.332798,-0.098182,0.450197,0.887515
-0.422480,0.377258,0.249674,-0.028505,-0.445191,0.894982
-0.698788,-0.407305,0.590476,-0.742937,0.669294,0.009509
-0.531960,0.133494,0.334514,0.262323,0.915854,-0.303971
-0.316111,-0.083322,0.772744,-0.555799,0.828610,0.067030
-0.897596,0.004205,0.161059,-0.664791,0.611073,-0.429702
-0.835970,-0.080909,0.389248,0.948699,0.143545,-0.281719
0.287867,0.578016,0.432272,0.513509,-0.655122,0.554188
-0.057310,-0.851482,0.388328,0.890136,-0.173588,-0.421338
0.342412,0.214129,0.455720,0.238446,-0.963848,0.118918
0.614830,-0.178841,0.463270,-0.908146,0.199296,0.368174
0.383185,0.906134,0.493321,-0.672903,0.709677,0.208713
0.562778,0.306134,0.303310,-0.100097,0.704553,0.702557
0.048518,0.430875,0.721758,0.513858,0.857874,-0.001292
0.871922,-0.073880,0.239213,-0.343318,-0.227665,-0.911209
-0.011631,0.178980,0.821136,-0.562033,-0.820690,-0.102893
0.145626,-0.880703,0.412531,0.293186,0.013615,0.955958
-0.343733,-0.091728,0.699916,0.912705,-0.182536,0.365583
-0.713263,-0.105031,0.333841,0.905475,0.217349,0.364520
0.491501,-0.214472,0.706822,0.610557,0.753960,-0.242413
-0.734269,-0.774293,0.373021,0.913897,0.182608,-0.362556
-0.517874,-0.401929,0.618865,-0.179747,-0.819846,0.543638
0.313309,-0.636388,0.668561,0.978276,0.049781,-0.201241
-0.706102,-0.476360,0.601650,0.277815,-0.959020,-0.055675
0.189358,-0.129428,0.822111,-0.171127,0.808102,0.563637
-0.414777,-0.706408,0.490109,-0.750812,0.659388,0.038586
-0.012334,-0.644314,0.327856,-0.319586,0.144614,0.936457
0.066727,0.482772,0.755488,-0.416939,-0.834454,0.360344
-0.159632,0.295382,0.772374,0.944441,0.325445,-0.046007
0.524884,0.872640,0.300756,-0.418365,-0.574965,0.703126
0.834417,-0.805375,0.396840,0.930485,-0.258814,0.259256
0.157300,0.732047,0.483766,0.574855,0.474645,-0.666524
-0.027194,0.661337,0.645759,-0.077838,-0.939322,0.334090
0.453061,-0.198001,0.462598,-0.617713,0.674191,0.404842
0.068437,-0.346312,0.775050,0.516773,0.662644,-0.542077
-0.005253,0.228877,0.813256,0.050497,0.647783,0.760149
-0.096990,-0.149964,0.774872,-0.377228,-0.755337,-0.535878
-0.422789,0.591455,0.482751,-0.700598,-0.682307,0.208855
-0.008440,0.426604,0.278078,-0.645775,-0.414933,0.640941
-0.638406,0.221158,0.183916,-0.028321,-0.122988,0.992004
0.948955,0.235424,-0.962234,-0.092702,-0.179423,0.979395
0.004398,0.237079,0.503425,-0.112904,0.892868,0.435935
-0.591017,-0.404411,0.417309,0.580968,0.790037,0.195749
-0.267008,0.414475,0.567673,0.852388,0.330136,-0.405518
0.200875,0.245486,0.623588,-0.793742,0.199912,0.574465
-0.686496,-0.917505,0.461115,0.945048,-0.312646,-0.095588
-0.070147,-0.137423,0.439795,0.811295,-0.202496,0.548448
0.089600,0.339560,0.279107,0.481145,-0.003855,-0.876633
0.438433,-0.582081,0.357550,0.118480,0.153590,0.981006
-0.422713,0.174155,0.729171,-0.786011,-0.576041,-0.224418
0.131232,-0.153756,0.917549,0.729802,0.641355,-0.236757
0.054740,-0.331426,0.764576,0.970577,0.178101,-0.162047
-0.160563,0.002550,0.368848,0.771179,0.447135,-0.453158
-0.141424,-0.646105,0.333704,0.382677,0.105574,-0.917830
-0.484183,-0.110337,0.530744,0.047843,0.186529,0.981284
0.305064,-0.041765,0.612935,-0.432580,0.857671,-0.277983
-0.085786,-0.369193,-0.134934,0.374914,0.080891,-0.923524
0.085477,-0.352515,0.765427,0.910039,0.377003,-0.172333
-0.047968,0.499173,0.555675,-0.213005,-0.903585,0.371702
-0.265612,0.022606,0.720536,0.568480,-0.820688,0.057467
-0.833714,-0.476705,0.590846,-0.505886,0.800481,0.321417
0.112087,0.704135,0.442349,0.945847,0.099654,-0.308938
0.006032,-0.035284,0.853699,0.711513,-0.346433,0.611338
0.163678,-0.557409,0.274096,-0.532005,0.777355,0.335693
0.032955,-0.031494,0.955068,0.908709,-0.413255,0.058891
0.712095,-0.927153,0.520283,-0.461040,-0.320843,0.827346
0.058478,0.068989,0.086103,0.523681,0.796654,0.301830
-0.512042,-0.317573,0.597683,-0.514502,0.163086,0.841837
0.765163,-0.878290,0.222588,-0.485936,-0.453757,0.746975
0.083611,0.009442,0.090304,-0.549070,-0.763866,-0.339161
0.698559,-0.245692,0.411858,-0.007689,-0.656393,0.754380
-0.163522,0.072503,0.790234,-0.106252,0.979600,-0.170568
-0.093100,-0.038387,0.880785,0.092968,0.969010,0.228861
0.007665,-0.595727,0.562717,-0.339274,0.797881,0.498276
-0.114733,0.018539,-0.154167,0.765133,0.470738,-0.439291
0.041357,0.097313,-0.111582,0.462507,0.744999,-0.480692
-0.222114,0.443694,0.612770,0.814748,0.499058,0.295173
0.000275,0.816402,0.284187,-0.145536,0.237346,0.960461
0.524727,-0.660579,0.521340,0.874241,-0.485211,-0.016555
-0.296425,0.530048,0.564914,-0.471523,0.685554,-0.554691
-0.664474,0.059821,0.191824,0.268334,-0.001186,-0.963325
-0.245613,-0.128255,0.583103,-0.420610,0.579209,-0.698287
-0.471891,-0.304135,0.664415,0.937277,0.304669,-0.169376
-0.157529,-0.743212,0.327266,0.917109,0.000345,-0.398637
0.612422,0.050585,0.270349,-0.801420,-0.502934,0.323702
0.563476,-0.844107,0.407534,-0.434731,0.207080,0.876428
-0.281484,0.527223,0.568689,0.836459,-0.410107,0.363523
0.300937,0.247486,0.768035,-0.703600,0.668006,-0.242311
-0.073181,-0.405444,0.697033,0.744289,0.581299,0.328825
-0.160487,-0.630807,0.153014,0.801019,-0.143443,-0.581199
-0.285687,-0.878911,0.497234,-0.513865,-0.855002,-0.070098
-0.105785,0.638044,0.617232,-0.115904,-0.972162,0.203636
0.367621,-0.087663,0.443763,0.224827,0.645800,0.729654
-0.004782,-0.617367,0.555290,-0.067018,0.731121,0.678948
0.656695,0.256582,-0.969771,0.124490,-0.213598,0.968957
-0.416487,-0.742798,0.481707,-0.623377,0.540398,-0.565129
-0.455236,0.242592,0.559065,-0.247131,0.919061,-0.307006
0.093883,0.011510,-0.787557,-0.097052,0.995278,-0.001601
0.136836,-0.140454,0.909724,0.724986,0.620154,-0.299675
0.024705,-0.300826,0.722911,0.962185,0.227976,0.149090
0.766645,-0.751757,0.467320,0.762430,0.609038,-0.218571
-0.346611,0.160373,0.707055,0.497168,-0.118076,0.859582
0.727117,-0.021708,0.442898,-0.823513,0.545099,0.157142
-0.022991,-0.389455,0.531142,0.725993,0.137467,-0.673823
-0.030305,-0.016402,-0.717063,0.912486,-0.408185,-0.027469
0.606737,-0.454445,-0.989347,-0.220178,-0.041290,0.974585
0.075518,-0.974914,0.407218,0.337700,0.060817,0.939287
-0.480136,-0.321778,0.706369,-0.601042,0.798946,0.020849
-0.194102,-0.013990,0.041253,0.963035,-0.063004,-0.261905
0.103686,0.095451,-0.042887,0.826642,0.439332,0.351639
-0.789907,-0.444245,0.550458,-0.201577,0.953425,0.224382
0.387701,-0.034458,0.385185,0.622599,-0.292356,-0.725877
0.261333,-0.064437,0.774804,-0.627464,0.721096,-0.293784
0.635765,-0.912060,0.508024,0.999790,-0.018688,0.008389
-0.520600,-0.258166,0.578916,0.631426,-0.651758,0.420135
-0.190678,-0.082771,0.725492,0.385878,0.744351,-0.545013
0.356109,-0.668367,0.363796,0.020244,0.467306,0.883864
-0.025637,-0.263060,0.683360,0.752149,-0.522560,-0.401500
0.782128,0.308409,0.621034,0.543912,0.621358,-0.563981
-0.399522,-0.807718,0.492992,-0.432199,-0.887004,0.162569
0.093494,0.293523,0.278119,0.582074,0.027212,-0.812680
0.191300,0.446658,0.277995,-0.125218,-0.199632,0.971837
-0.176126,-0.185252,0.543374,0.364874,-0.301428,0.880914
0.218067,-0.380771,0.456544,0.947777,0.210144,-0.239912
0.668758,-0.922812,0.415936,0.320661,-0.103198,-0.941556
-0.059409,0.044728,0.412915,0.984403,-0.023344,0.174371
0.626347,-0.219711,0.403676,-0.316462,-0.748221,0.583110
-0.316733,-0.205926,0.676455,0.358640,-0.886655,0.291925
-0.188498,-0.935286,0.274247,0.676999,0.503774,0.536548
0.741664,-0.151481,-0.977143,0.475764,-0.047080,-0.878312
0.427695,0.194006,0.394382,-0.097764,-0.808434,0.580411
0.223515,-0.745210,0.364222,0.136180,0.447744,0.883731
-0.275339,0.521641,0.493555,0.679988,0.657921,0.323660
0.047193,-0.281253,0.864846,0.948641,0.181624,0.259023
-0.253938,-0.388283,-0.152163,0.778803,0.381842,-0.497657
0.614597,0.264991,0.313647,-0.406192,0.501290,0.764013
-0.834417,-0.226119,0.386283,-0.072457,-0.854176,0.514910
0.080343,-0.266024,0.806035,0.891220,0.443069,-0.097043
0.422015,-0.209992,0.671375,-0.401551,0.857357,-0.322018
0.035990,-0.021088,0.329599,0.573199,-0.753711,-0.321501
0.067036,-0.288973,0.773293,0.860174,0.183955,-0.475668
0.685409,0.434735,0.517291,-0.658204,-0.081532,0.748412
0.283588,-0.585389,0.539613,0.088932,0.396374,0.913772
-0.508461,-0.315437,0.704076,-0.717355,0.695254,0.044990
0.269815,-0.603721,0.658499,0.770921,0.097811,-0.629375
0.262891,0.429084,0.648559,0.741130,0.670586,0.032275
-0.442399,0.184219,0.186648,-0.156022,-0.042571,0.986836
-0.290821,-0.245622,0.565847,0.791338,-0.601333,-0.110378
0.082134,-0.083942,0.914158,0.691450,0.607963,-0.390228
0.130139,-0.698966,0.441964,-0.397500,0.885559,0.240374
0.255420,0.373468,0.513076,-0.195244,-0.449616,0.871622
0.523169,0.478429,0.508944,0.126231,-0.053555,-0.990554
0.044472,-0.808270,0.396222,-0.500729,-0.039831,0.864687
0.352139,-0.058235,0.231992,0.524227,-0.314810,-0.791253
-0.231294,-0.129771,0.321925,-0.421920,0.726951,-0.541780
-0.108739,-0.112611,0.895186,0.845286,0.474306,0.246020
0.051553,-0.011165,0.897423,0.543887,0.300544,0.783493
-0.103681,0.055618,0.656508,0.315015,0.934509,-0.165706
-0.759716,0.001448,0.348036,-0.533571,-0.380473,-0.755342
-0.329338,-0.377257,0.636602,0.963835,0.115789,0.240031
-0.238608,-0.229773,0.308883,-0.781163,0.491757,-0.384655
0.456874,-0.305099,0.577955,0.857672,0.306886,-0.412578
0.331128,-0.669400,0.567000,-0.817471,0.226615,-0.529515
0.001206,-0.294692,-0.137940,0.316755,-0.014379,0.948398
0.573749,0.254996,0.391939,0.338812,-0.546276,0.766021
0.482316,0.200069,0.768214,0.284941,0.954593,-0.086957
-0.194877,-0.282908,0.458699,0.595767,-0.247290,0.764140
-0.217445,-0.385595,0.680903,0.604472,0.632998,-0.483660
0.326459,0.905721,0.492882,-0.545900,0.812044,0.206342
-0.117692,-0.884562,0.227585,0.950632,0.263816,-0.163401
0.020194,0.013922,0.135277,-0.210715,-0.976425,-0.046827
0.252228,0.008546,0.435951,0.393357,0.007915,0.919352
0.343813,0.145556,0.514435,-0.361666,0.715177,0.598097
-0.417498,-0.520124,0.563513,0.394130,-0.616839,-0.681301
-0.589384,-0.877394,0.526942,0.807143,0.578387,0.118274
-0.588063,-0.310682,0.613868,0.622287,0.782340,-0.026533
-0.359215,0.162302,0.668424,0.115214,0.981126,-0.155298
-0.411353,-0.198138,0.623904,0.401460,0.457420,0.793472
-0.120099,0.047071,0.807284,-0.410596,-0.859180,0.305321
0.410654,-0.658511,0.357303,0.110952,0.341805,0.933198
0.000584,0.144109,0.784248,0.858430,0.466407,0.213455
-0.119867,-0.007787,0.748459,0.245092,-0.939364,0.239845
0.653194,0.436390,0.412874,-0.579796,-0.202012,0.789321
-0.604714,-0.806409,0.433878,-0.675320,0.737381,-0.014561
0.314012,-0.549207,0.675494,0.858945,0.458018,0.228981
-0.033573,-0.162163,-0.136430,-0.731338,-0.186449,0.656035
0.418434,-0.226670,0.686408,0.867756,-0.297685,0.397973
0.059024,-0.307925,0.695317,0.831332,0.435752,-0.344974
-0.436795,0.232530,0.378005,0.381941,0.197066,-0.902932
0.114500,-0.406478,0.754692,0.896043,0.442924,-0.030407
-0.218067,0.491179,0.625771,0.555851,0.782774,-0.279811
0.731548,-0.732184,0.436295,0.315713,0.348425,-0.882567
-0.522234,0.360235,0.403855,0.461663,-0.452916,0.762715
0.632730,0.379462,0.575361,-0.605184,0.545467,0.579844
0.045560,0.404894,0.734250,-0.773350,-0.614296,0.156749
0.296117,0.886286,0.476930,-0.338884,0.592313,0.730974
0.111935,0.245969,0.768791,-0.062489,-0.629225,0.774707
0.078239,0.932186,0.272723,-0.029830,0.610464,0.791482
-0.133174,-0.071193,-0.165122,0.784540,0.374184,-0.494453
0.076686,0.035493,-0.231498,0.005821,-0.999968,0.005578
0.101506,0.588629,0.593921,0.644923,-0.610319,-0.459984
0.664631,0.294625,0.063438,0.909474,-0.048421,0.412932
-0.448701,0.342868,0.664415,0.832084,0.526265,0.175158
-0.070926,-0.002756,0.803989,0.899806,-0.116028,0.420578
0.034589,0.007169,0.958047,0.785719,-0.470468,0.401628
0.060577,0.008753,0.874483,-0.426573,-0.850889,0.306633
0.056222,0.048312,0.952638,0.752168,-0.610274,-0.248614
-0.686107,-0.776154,0.374367,0.906036,0.195463,-0.375357
-0.539896,0.351000,0.398570,0.156734,0.697196,-0.699538
0.621522,-0.274293,0.291874,0.387007,0.744485,0.544029
-0.781035,-0.507856,0.438944,0.512110,0.831744,0.214351
0.059798,-0.490420,0.670566,-0.443978,0.790671,-0.421571
-0.161732,0.179945,0.822866,0.840260,-0.414961,0.348957
-0.162743,0.533011,0.693011,-0.293163,-0.954898,-0.047165
0.525506,0.559409,0.160661,-0.061137,0.561620,0.825134
-0.667585,-0.348518,0.391911,0.662094,-0.403220,-0.631700
-0.682061,-0.488559,0.513735,0.911017,-0.388538,0.138149
-0.795896,-0.131081,0.398583,0.563003,0.132492,0.815766
0.014746,0.422675,0.729185,0.786714,0.553649,-0.273045
0.558575,0.565748,0.562552,-0.282017,-0.739013,0.611823
-0.466131,0.224742,0.662878,-0.372365,-0.896997,-0.238205
0.447846,0.899725,0.182598,0.804062,0.375382,0.461057
-0.066100,-0.098345,0.426053,0.944340,-0.181254,0.274534
-0.770221,0.095935,0.342792,-0.162163,0.131303,-0.977989
0.099093,0.419160,0.751013,0.526466,0.603687,-0.598661
-0.404039,-0.359683,0.665761,-0.219662,-0.964396,0.147271
0.292070,0.486011,0.648243,0.539786,0.816177,0.206123
-0.776367,0.015714,0.355518,0.310782,0.517355,0.797345
0.079640,0.391385,0.601430,0.890732,-0.247906,0.380971
-0.330895,-0.180013,0.152781,0.133315,0.683076,0.718077
-0.239852,-0.006271,0.700699,-0.493567,0.866307,0.076834
-0.772320,-0.483666,0.615927,0.431111,0.791061,-0.434011
-0.130686,-0.224533,0.805925,0.117044,0.991908,0.049188
0.155662,-0.673741,0.560905,-0.580690,-0.660527,-0.475924
0.165858,0.373123,0.506294,0.483118,-0.157640,0.861247
-0.668055,-0.347209,0.330533,-0.741741,0.438208,-0.507734
0.280007,-0.691110,0.625208,0.885417,0.424316,0.189716
0.355872,0.190077,0.795588,0.786710,0.538633,-0.301598
0.544802,0.255480,0.477822,0.394249,0.565647,-0.724301
0.525036,0.659063,0.561674,-0.456094,0.623796,-0.634710
0.322727,0.016610,0.429568,0.671404,0.547442,-0.499525
0.821812,-0.765678,0.526324,0.984659,-0.030587,0.171785
0.002298,-0.050240,0.693052,-0.192376,-0.975037,-0.110881
0.387312,0.236940,0.558461,0.002060,-0.872716,0.488224
0.237444,0.042109,0.566053,0.119346,-0.312617,-0.942352
0.580441,-0.060923,0.242810,0.075037,0.495431,0.865400
-0.467142,-0.818608,0.470107,0.729572,0.421030,0.538943
-0.113797,-0.269883,0.024930,0.708456,-0.346321,-0.614941
-0.005405,-0.044244,0.944415,-0.337100,0.823882,-0.455611
-0.195655,0.474569,0.650440,0.916235,0.206498,-0.343324
-0.195190,0.096486,0.686779,-0.011971,0.402588,0.915303
-0.341786,-0.340730,0.397005,0.419609,-0.614822,-0.667774
0.450258,-0.372777,0.574414,0.932726,0.211991,-0.291690
-0.436329,-0.212543,0.740003,0.765669,0.483976,0.423695
-0.198771,-0.113370,0.786198,0.803056,0.542984,-0.245500
-0.276426,0.123571,0.646871,0.633038,0.290257,0.717645
-0.057461,-0.569055,-0.120163,-0.603940,0.166464,0.779452
0.584952,-0.643211,0.527491,0.292884,0.864400,-0.408696
0.130609,0.036803,0.063644,0.714779,0.657904,0.237177
0.193945,0.045830,0.857159,-0.354440,0.588517,0.726650
-0.750688,-0.563404,0.380009,0.995731,-0.089997,0.020494
0.174492,0.411442,0.742089,0.307542,0.869371,-0.386798
-0.492741,-0.647140,0.434839,-0.564505,0.514600,0.645384
0.038711,-0.014885,0.925154,0.188762,-0.838785,0.510695
0.398748,0.955548,0.478728,-0.715761,0.448998,0.534871
-0.438352,-0.238248,0.391856,0.704408,-0.504249,-0.499543
0.627591,-0.364231,0.622325,-0.668001,0.433596,0.604789
-0.766408,-0.600896,0.384622,0.974396,0.222687,0.031043
-0.471189,0.425775,0.400217,-0.629903,0.340894,-0.697864
-0.399760,-0.676844,0.494378,-0.839965,0.336748,-0.425511
-0.038008,0.054653,0.858037,-0.234934,0.716987,0.656304
0.421160,0.722469,0.206238,-0.216617,0.208239,0.953789
-0.610318,-0.331081,0.531307,0.131955,-0.945469,0.297785
0.068902,0.013922,0.664717,-0.733899,0.581785,0.350597
-0.169900,-0.122397,0.773307,-0.500371,-0.744902,-0.441304
0.246159,-0.062921,0.691515,0.546248,0.695182,-0.467264
0.174882,0.292627,0.603929,-0.154650,0.982827,0.100674
0.485508,-0.589248,0.453976,0.299555,0.803411,0.514584
0.279931,-0.432253,0.613923,-0.548833,0.815757,0.182545
-0.595686,-0.463956,0.612839,-0.539306,-0.777348,-0.323851
-0.244369,0.116197,0.694466,0.744342,0.359122,0.563015
-0.292612,-0.268642,0.450874,-0.582713,-0.485254,0.651900
-0.169202,0.127292,-0.048955,0.388949,0.889931,-0.238207
0.318448,-0.190558,0.667779,-0.627445,-0.554233,0.546936
-0.016613,0.606342,0.625688,-0.550777,-0.830393,-0.084216
0.533442,0.643005,0.287756,-0.690073,0.514685,-0.508821
-0.464421,-0.396416,0.661079,-0.697668,-0.716403,0.005125
0.222816,-0.529359,0.658993,0.723852,-0.281909,-0.629735
0.145626,-0.700619,0.449048,0.289651,-0.427296,-0.856458
0.004474,-0.032321,0.722032,0.985390,-0.123842,-0.116916
0.382097,0.477257,0.662672,-0.106004,0.835819,-0.538674
0.398981,-0.696692,0.577214,-0.030511,-0.956315,-0.290743
0.389097,-0.708545,0.670167,-0.041877,-0.830169,0.555937
0.368092,0.821366,0.487761,-0.239764,0.009839,0.970781
-0.389022,0.192350,0.737806,0.824529,0.439506,0.356351
-0.372679,-0.209304,0.374847,0.262208,-0.877427,-0.401707
0.439834,-0.802206,0.360090,0.367068,-0.174666,0.913648
0.280472,-0.248243,0.458205,0.444798,0.775833,-0.447479
0.744779,-0.865954,0.426671,0.564369,0.202501,-0.800301
-0.503246,-0.052514,0.386324,-0.249030,-0.339266,0.907129
0.153406,-0.298138,0.763835,-0.136745,0.924024,0.357044
-0.740961,-0.502894,0.539764,-0.239677,0.811838,-0.532423
-0.743373,0.348175,0.404102,-0.064345,-0.727364,0.683229
0.153795,-0.546589,0.501984,-0.186426,-0.969593,0.158538
-0.251682,-0.219778,0.830622,-0.260832,-0.937493,-0.230379
-0.622923,-0.185043,0.521876,0.572922,0.500177,-0.649295
0.002683,0.237906,0.836141,0.894491,0.433380,-0.109851
0.067891,0.233287,0.648381,-0.682093,0.721838,-0.117042
-0.088745,-0.201791,0.365389,-0.359363,0.842722,-0.400847
0.124383,0.570022,0.541411,0.958320,0.093110,-0.270098
0.756681,-0.658924,0.452919,0.978191,0.173836,-0.113682
0.767267,-0.361061,0.652156,-0.814898,0.500864,-0.291678
-0.585185,-0.786423,0.479813,0.654742,-0.390657,-0.647071
-0.104693,-0.133355,0.748528,-0.604189,-0.600626,0.523645
-0.235962,-0.120536,0.381245,0.281354,-0.948409,-0.146149
0.214177,0.957547,0.274975,0.328117,-0.694633,-0.640175
-0.144458,0.127016,0.754486,0.962159,-0.207516,0.176600
-0.541687,-0.081736,0.378842,-0.765211,-0.494851,0.411795
0.578807,0.822399,0.294277,0.006569,-0.343186,0.939245
-0.189667,-0.812681,0.225238,0.908335,0.349339,-0.229978
-0.189743,-0.713989,0.159315,0.915673,-0.104895,-0.387994
-0.607906,-0.427773,0.547136,0.635634,-0.771976,-0.004705
0.626347,-0.426464,0.606263,0.255165,0.718870,0.646619
-0.631172,-0.509235,0.544074,0.732461,-0.324703,-0.598389
-0.115977,0.004548,0.694192,0.385293,0.883760,0.265552
-0.818464,0.149966,0.178192,-0.374294,0.809509,0.452326
-0.439829,-0.428946,0.414000,0.687456,-0.558659,-0.464010
0.473915,0.259476,0.401549,0.581604,0.409746,-0.702741
0.010078,-0.596967,0.556745,-0.214412,0.610214,0.762671
-0.273781,0.161544,0.604945,0.872186,0.135949,0.469903
0.046025,-0.066299,0.842387,-0.187904,0.861864,-0.471044
0.539511,0.455548,0.441292,-0.393137,0.626785,-0.672744
0.120726,-0.417849,0.765578,0.974742,-0.153451,0.162266
0.036455,-0.134320,0.894691,0.048287,-0.714921,0.697536
-0.270513,-0.424809,0.167895,-0.441812,0.093385,0.892234
-0.086874,-0.051896,0.312439,-0.550749,0.706268,0.444816
-0.638016,0.286010,0.369136,0.158764,-0.943629,0.290444
-0.368400,-0.193313,0.549826,0.760130,0.252834,-0.598563
0.726646,-0.257615,0.410389,0.075323,-0.643265,0.761930
0.379528,-0.658511,0.361078,0.099795,0.442639,0.891130
0.053496,-0.142039,0.888376,-0.219727,0.975499,-0.011069
0.092012,-0.413714,0.633321,0.931900,0.349485,0.097069
-0.919776,-0.351206,0.361874,0.459472,-0.022811,0.887899
-0.036223,-0.124740,0.720495,-0.377410,-0.092609,0.921404
-0.497258,0.460787,0.265983,0.162997,-0.501071,0.849918
-0.208649,0.039903,0.374449,0.598731,0.275065,-0.752237
-0.296734,-0.248519,0.660503,0.355573,-0.798864,-0.485164
-0.397813,-0.470158,0.474225,0.002731,0.197213,0.980357
-0.381784,-0.173810,0.540876,-0.712828,0.137046,0.687818
-0.579505,-0.353273,0.591011,0.808966,-0.324802,-0.489977
-0.045868,-0.732598,0.396222,0.084503,0.057883,0.994741
-0.249578,0.005032,0.515163,-0.496261,0.846546,0.192576
-0.879777,-0.367539,0.356397,-0.289072,-0.352967,-0.889861
0.276739,-0.105652,0.823923,-0.344944,0.865993,-0.362036
-0.282961,-0.423845,0.314169,0.786626,0.112276,-0.607136
0.693031,0.285321,-0.969469,-0.055320,-0.251542,0.966264
0.240636,0.126189,0.763546,-0.716534,0.006957,0.697517
0.386766,0.901723,0.299301,-0.173934,0.434406,0.883764
-0.234718,-0.582977,0.406903,0.005826,0.398752,0.917041
-0.274792,-0.225844,0.399517,0.182982,0.853120,0.488574
-0.042834,0.178980,0.724366,-0.679561,0.665589,-0.308526
-0.039020,-0.004409,0.606222,0.154115,-0.986560,-0.054295
0.695601,-0.843211,0.507818,-0.495103,0.763591,-0.414490
-0.378203,0.222538,0.719932,0.858067,0.415581,0.301684
0.150219,-0.644245,0.608638,-0.758572,-0.474897,0.446141
-0.544019,0.408891,0.408111,-0.418849,0.412669,-0.808869
0.817063,-0.816747,0.450393,0.964425,0.092625,-0.247598
0.076216,-0.444659,0.781489,0.858843,-0.418566,-0.295283
-0.181028,-0.042522,0.781269,0.909550,-0.387287,0.150758
0.116680,-0.519366,0.584696,0.810510,0.354708,-0.466108
0.507373,-0.230530,0.704556,-0.337803,-0.934875,0.109077
0.444892,0.187113,0.537347,0.898722,-0.380098,-0.218689
0.045327,-0.161061,0.754664,0.997981,0.012412,-0.062286
-0.641284,-0.650585,0.348434,0.499388,0.745715,0.441045
-0.605802,-0.469469,0.561907,0.330497,0.858838,-0.391368
-0.220869,0.011991,0.709512,-0.395398,0.917062,-0.051561
-0.000660,0.051759,-0.704062,0.914512,-0.386536,-0.119403
0.387312,-0.660165,0.610821,0.952933,0.063563,0.296441
0.502629,-0.632116,0.492017,0.874740,0.437862,-0.207621
-0.483095,-0.786078,0.314237,0.090666,-0.144275,0.985375
0.431741,0.988630,0.499513,0.946794,0.009323,-0.321704
-0.452438,-0.099172,0.553574,0.865649,-0.397246,0.304709
0.710542,-0.375809,0.634158,0.861423,0.181365,-0.474403
-0.256118,-0.003997,0.520585,-0.541162,0.828053,0.146532
0.513053,0.921365,0.307881,-0.273239,-0.366447,0.889414
0.085244,-0.535837,0.543429,-0.539255,0.550135,0.637617
0.125941,-0.026533,0.683717,0.444416,0.887036,0.125149
0.443567,0.091386,0.380297,-0.146149,0.350913,-0.924933
0.248496,-0.286905,0.456653,-0.715260,0.670921,-0.195623
0.043228,-0.149276,-0.149431,0.190590,0.128129,0.973272
-0.836982,-0.145762,0.399462,-0.447902,0.153838,-0.880748
-0.429324,0.204688,0.384430,-0.155192,-0.164313,0.974124
0.337354,-0.658236,0.691460,0.722304,-0.663152,-0.196232
0.047274,0.260648,0.427509,-0.621821,0.503726,-0.599665
0.293937,0.172157,0.530579,-0.389330,0.766133,0.511334
-0.370110,-0.210406,0.554508,0.724086,0.283223,-0.628875
-0.283507,0.428532,0.571393,0.858236,0.354739,-0.370933
-0.381470,0.446864,0.258488,-0.051984,-0.359703,0.931617
0.042990,-0.055547,0.946309,0.241770,-0.848346,0.471017
0.479049,0.520746,0.531046,-0.317353,0.904558,-0.284713
-0.415864,-0.280014,0.714468,-0.664069,0.397373,0.633330
-0.467532,0.001172,0.593290,-0.066959,-0.924923,0.374212
0.425125,-0.201585,0.721318,-0.758116,-0.645711,0.091200
0.503949,-0.683459,0.490713,0.793823,-0.330048,-0.510797
-0.331361,-0.424672,0.160427,0.274836,0.236098,-0.932053
0.689920,-0.439558,0.629655,0.848094,0.355254,-0.393104
0.103220,0.551966,0.546106,-0.349910,-0.636254,0.687563
-0.318054,0.028878,0.650042,-0.108036,-0.464724,0.878840
-0.225457,-0.276912,0.842126,-0.293031,-0.902124,-0.316710
-0.494066,0.312200,0.700575,-0.099239,-0.952191,0.288936
-0.600981,0.167886,0.189449,-0.157257,0.293961,0.942792
-0.332059,-0.856581,0.496438,0.518863,0.768651,0.374107
0.838231,-0.801378,0.492251,0.891516,-0.422755,0.162718
0.070460,0.059200,0.618261,0.975276,-0.204301,0.084249
0.670392,-0.871467,0.486430,-0.505042,0.301133,-0.808858
-0.859702,-0.164851,0.398542,0.538721,-0.205858,0.816946
0.500373,0.037424,0.671224,-0.523852,0.829861,0.192122
-0.167568,-0.108821,0.729404,0.357185,-0.623237,0.695698
0.709141,-0.414403,0.629038,-0.719048,0.274620,0.638399
-0.359761,0.022606,0.780281,0.844338,0.072438,0.530893
-0.936502,-0.457408,0.581387,-0.231998,0.972694,0.006605
0.352918,-0.674637,0.487391,0.970578,0.237758,-0.038064
0.371359,-0.667539,0.611260,-0.693692,0.528370,-0.489507
-0.039723,-0.170020,-0.155458,0.859720,0.074436,-0.505312
0.178387,-0.347277,0.796700,0.293690,0.860861,0.415528
0.889276,-0.005444,0.224126,0.243628,0.913740,0.325152
-0.373302,-0.385872,0.332510,0.534726,0.048443,-0.843636
0.774738,0.432116,0.435951,0.786001,0.177411,-0.592223
-0.411353,-0.377326,0.733962,-0.091321,-0.885052,0.456447
-0.542622,-0.473259,0.599440,0.444795,0.894790,-0.038828
-0.401004,-0.374294,0.585822,0.878461,-0.471350,-0.078329
-0.112164,-0.079669,0.760787,0.893122,0.289754,0.344057
0.451892,0.715576,0.569952,0.624842,0.617808,-0.477374
0.217526,0.401931,0.683731,-0.562641,-0.777361,-0.281328
-0.196748,0.307444,0.567481,0.722961,0.197174,-0.662155
-0.341866,-0.271260,0.621831,0.728250,0.043470,-0.683931
0.041589,0.078154,-0.016707,0.971043,0.232562,0.054691
0.088745,0.064921,-0.099378,0.971363,-0.053686,0.231457
0.614911,0.308132,0.585039,0.000251,-0.795804,0.605554
0.742367,0.485045,0.523207,0.456156,0.494983,0.739536
-0.522077,-0.439351,0.608514,-0.555698,0.563518,-0.611267
0.551651,0.028739,0.657249,0.230427,-0.808180,0.541986
