-0.189392,-0.762892,0.826030,-0.608871,0.790341,0.068098
0.314098,-0.796201,0.340710,-0.232620,0.926618,0.295411
-0.382957,-0.509740,0.554861,0.772128,-0.152219,-0.616966
0.071579,-0.588050,0.799112,0.781513,-0.591579,-0.198171
-0.721022,0.443662,0.356209,-0.195684,0.537663,0.820138
-0.052274,-0.888311,0.674080,0.738761,-0.355128,0.572815
-0.598224,0.807005,0.640184,-0.347175,0.936597,0.047496
-0.231162,0.245298,0.869062,-0.707128,0.453262,0.542700
-0.612093,0.582133,0.801742,-0.080200,0.058053,0.995087
-0.446102,-0.787973,0.704432,-0.548319,-0.552456,-0.627805
-0.211981,-0.097379,0.428522,0.217286,-0.250581,0.943396
-0.481711,0.812175,0.779013,0.328279,-0.131251,0.935418
-0.134762,0.268413,0.819304,0.711106,0.618947,-0.333514
-0.520236,-0.803541,0.696557,0.119048,-0.308907,0.943612
0.741018,0.342918,0.583890,-0.110536,0.236175,0.965403
0.152082,-0.381122,0.076944,0.919776,-0.211080,-0.330844
0.110715,0.241220,0.658550,0.499197,0.144242,-0.854398
0.385636,0.057813,-0.885853,-0.118328,0.525532,0.842505
0.686918,0.342171,0.485588,-0.108376,-0.440554,0.891161
0.369698,-0.059925,0.896784,0.478529,0.562673,-0.674099
-0.528308,-0.060265,0.282731,0.371077,0.573056,0.730690
0.443183,0.016688,0.893744,-0.690450,0.265257,-0.672991
-0.272486,-0.436255,0.917071,-0.410136,0.201391,-0.889511
-0.134114,0.746300,0.499748,-0.810863,-0.190158,-0.553481
0.049559,-0.290780,0.342868,-0.641742,-0.748614,-0.166568
-0.186107,0.608306,0.769594,0.291360,0.807696,0.512578
-0.227553,-0.067062,0.807570,-0.226245,0.771896,-0.594129
-0.501258,-0.825838,0.732847,0.354855,0.647109,0.674780
0.828900,0.183506,0.561933,0.531911,0.417207,-0.736891
0.504016,-0.633528,0.762569,-0.329804,0.554643,-0.763938
0.086950,-0.760038,0.491195,-0.364074,-0.902196,-0.231285
0.810246,-0.075356,0.787739,-0.342473,0.729666,0.591861
-0.358789,-0.793346,0.699077,-0.243001,0.547979,-0.800418
-0.479196,0.663165,0.742849,0.027378,-0.544142,0.838546
0.545867,0.246116,0.661810,-0.076227,-0.426409,0.901313
0.672643,-0.105876,0.892862,0.774684,-0.632190,-0.014166
-0.286518,-0.099827,0.661432,0.107481,-0.651368,0.751111
-0.465406,-0.341627,0.734470,-0.295265,0.911827,-0.285290
-0.406195,-0.618778,0.537062,-0.518610,0.725979,-0.451662
-0.164003,0.578121,0.563524,-0.146513,-0.747823,0.647530
0.471936,-0.078210,0.571085,-0.669873,0.741951,0.027902
-0.216926,-0.674517,0.831937,-0.000110,-0.115475,0.993310
0.465691,-0.552770,0.846837,-0.182571,0.282505,-0.941732
0.275489,-0.219876,0.454700,0.835538,-0.537874,-0.112105
-0.244788,-0.335375,0.924380,0.579426,-0.312575,-0.752704
0.604105,-0.484654,0.629190,-0.008120,0.994946,0.100079
0.093438,-0.333673,-0.761798,0.932323,0.360038,-0.033861
-0.408549,0.008800,0.902974,0.665510,-0.358565,-0.654620
-0.349866,0.607559,0.736643,0.771555,-0.261323,0.580011
0.780842,0.003838,0.744409,-0.069741,0.928127,0.365672
0.882635,0.164474,0.686476,0.124749,-0.849533,0.512572
0.462000,-0.464465,0.488407,0.913272,0.362701,-0.185425
0.044571,-0.237825,0.200999,0.839422,0.542868,-0.025767
-0.418931,0.881581,0.776651,-0.019995,-0.999648,-0.017441
-0.577702,0.895447,0.667670,0.585309,-0.276759,0.762114
-0.131114,-0.660041,0.957488,-0.283566,0.196221,0.938663
0.581516,0.222188,0.712450,0.225261,-0.926202,-0.302337
0.819409,0.808300,0.591167,0.650945,0.744138,-0.150095
-0.445292,0.470378,0.342695,0.321605,0.220575,0.920824
-0.254805,-0.400021,0.687280,-0.223736,-0.304187,0.925966
0.347596,0.059921,0.873441,0.089564,0.321337,0.942720
-0.308541,0.908770,0.688067,0.598529,0.452436,0.661109
-0.150904,-0.693959,0.231319,0.238382,0.349005,0.906294
0.084841,-0.295469,-0.055774,0.924338,-0.351359,0.148815
0.686473,-0.117908,0.508868,0.821454,0.088073,-0.563433
0.312313,-0.814826,0.841135,-0.051231,-0.966370,-0.252001
-0.164124,-0.617823,0.442777,-0.624532,0.773484,-0.108085
0.256956,-0.819108,0.776824,0.869304,0.023126,0.493737
-0.450483,0.486352,0.679672,0.766004,0.626318,0.144789
-0.086584,-0.708643,0.962434,-0.035576,0.086392,0.995626
0.883202,0.217632,0.599153,0.866324,0.104146,0.488505
0.906603,0.242104,0.602728,0.841114,0.018125,0.540555
-0.114648,-0.453317,0.751481,0.921597,0.299213,0.247248
0.429557,-0.241087,0.787976,0.857949,0.115222,0.500646
0.037148,-0.433944,0.465064,0.551633,0.730792,0.402049
-0.015613,0.511574,0.344821,-0.194652,-0.645910,0.738181
0.230310,-0.515719,0.920584,0.535652,0.602279,0.591892
-0.356395,0.407631,0.710544,-0.211017,0.958138,0.193501
-0.094410,-0.220013,0.842711,0.936381,-0.350462,0.019160
-0.251885,0.731007,0.276950,0.755800,0.652422,-0.055792
-0.463867,-0.228648,0.741164,0.441848,0.555920,0.704077
-0.240164,-0.121580,0.897981,0.767160,0.234620,0.597009
-0.071418,-0.129331,0.470892,0.783915,-0.268301,0.559904
-0.297672,-0.558276,0.942525,0.877213,-0.338599,0.340365
-0.163394,0.209068,0.913275,0.467016,0.277045,0.839728
0.474208,-0.504910,0.688508,0.290457,0.485443,0.824609
0.048465,-0.596887,0.808940,-0.170096,0.982510,0.075768
-0.140886,-0.045378,0.696525,0.818697,0.009875,0.574141
0.756713,-0.167059,0.864368,0.401962,0.910479,0.097236
0.027172,0.284864,-0.938666,-0.225885,0.391088,0.892203
-0.302417,0.417083,0.699077,0.163035,0.948594,0.271272
0.631277,0.515856,0.648044,-0.445691,0.395858,-0.802905
0.490389,-0.048913,0.547237,-0.502451,0.864388,-0.019376
0.825454,0.749088,0.665134,0.243911,-0.883820,-0.399211
-0.091371,-0.870503,0.690792,-0.636220,-0.344011,-0.690565
0.216360,-0.424223,0.516176,0.914064,-0.024810,-0.404811
-0.245112,-0.798512,0.810074,0.628855,-0.743028,-0.229022
-0.653663,0.405457,0.807160,0.733540,-0.394785,-0.553231
-0.363086,0.607965,0.743322,-0.313027,0.089355,-0.945532
-0.554627,0.803744,0.640609,0.031377,-0.995302,0.091594
-0.087801,-0.244282,0.394232,0.019823,-0.939316,0.342480
-0.135492,0.011045,0.287377,0.223279,-0.227196,0.947907
-0.209345,0.735156,0.711583,0.979948,0.104827,-0.169447
-0.668950,0.699125,0.760128,0.350999,-0.318732,-0.880460
-0.168181,-0.010505,0.527659,0.513969,-0.610400,0.602701
-0.198273,-0.619662,0.226893,0.325605,0.386213,0.863030
-0.342363,-0.094798,0.546355,-0.383577,0.559932,0.734401
-0.319086,-0.028313,0.657384,0.336922,-0.204820,-0.918984
0.109579,-0.511914,0.758128,-0.072642,-0.996930,0.029220
0.418648,-0.697361,0.369377,0.867682,-0.095731,-0.487816
0.144740,-0.431086,-0.499008,0.894920,0.442639,0.056471
0.376188,-0.513408,0.902407,-0.496405,0.838022,0.226496
-0.096074,0.157607,0.852634,0.134816,0.838803,-0.527478
0.023279,0.315115,-0.939059,-0.225885,0.391088,0.892203
-0.556818,-0.035520,0.276068,0.637686,0.693079,0.336152
-0.364061,-0.245368,0.737257,-0.466576,0.263057,-0.844457
0.166721,0.125319,0.457819,0.124815,-0.178176,0.976051
-0.121299,-0.262774,0.472656,0.019597,-0.416045,0.909133
0.095589,0.223071,0.398816,-0.292268,-0.628161,0.721105
0.278167,-0.493085,0.219160,0.951495,-0.059771,-0.301804
-0.476438,0.296353,0.333858,0.834358,-0.269031,-0.481113
0.318722,-0.006219,0.687673,0.191902,-0.135141,0.972065
-0.531632,0.828830,0.174883,-0.138808,0.956656,-0.256013
0.111851,-0.291257,-0.236785,0.941947,-0.319180,0.104210
0.395774,0.243398,0.901919,0.572617,0.684786,0.450753
-0.545503,0.199144,0.747039,0.278347,0.370125,-0.886302
0.570202,-0.080521,0.786558,-0.056759,-0.764324,0.642330
0.480575,-0.314231,0.647130,0.063971,-0.960117,0.272183
-0.689106,0.750449,0.756505,-0.489821,0.095331,0.866595
0.837823,-0.573163,0.660015,-0.431349,0.347983,-0.832373
-0.356435,0.746097,0.186933,0.456682,0.836630,-0.302477
0.614811,-0.492065,0.682365,0.687185,0.670652,0.279288
0.522063,0.293428,0.671796,-0.348694,0.930426,-0.112783
0.130587,-0.303833,-0.091151,-0.689135,-0.624482,-0.367580
-0.461473,-0.192073,0.709016,0.774823,-0.630493,-0.046132
0.573689,0.428841,0.492392,0.113845,-0.364300,0.924297
0.278531,0.106897,0.659794,-0.567690,0.247100,-0.785283
0.770340,-0.101325,0.882214,-0.371484,0.783047,-0.498836
0.667574,-0.522585,0.791189,0.816298,0.237729,0.526442
-0.490995,0.783418,0.769248,-0.611382,-0.420699,-0.670242
-0.403114,0.794566,0.738014,0.299888,0.726683,0.618061
-0.134965,-0.053125,0.777958,0.817527,-0.526457,-0.233434
-0.036581,-0.361207,0.584819,0.562602,0.823525,0.072701
-0.616553,-0.177050,0.539976,0.694078,0.696844,0.180733
0.391475,-0.109208,0.505418,0.731001,-0.679004,0.067757
-0.097089,-0.458005,0.752851,0.917498,0.206596,0.339875
-0.272286,-0.613272,0.925986,0.806528,-0.589425,0.045721
-0.274919,-0.668467,0.953298,0.964515,-0.220330,0.145480
-0.152770,0.040615,0.758726,-0.464063,0.573660,0.674951
0.379878,-0.057477,0.687799,0.834261,0.171570,-0.523997
0.295524,0.094931,0.694131,-0.742094,0.110656,0.661099
-0.313204,0.828012,0.697943,0.412570,0.493244,0.765830
-0.205978,0.119743,0.863218,-0.094061,-0.970181,0.223385
0.103658,0.043337,-0.510427,0.893042,-0.100654,0.438572
0.060143,-0.311173,-0.207393,0.986665,0.046889,-0.155862
-0.239882,-0.133547,0.634545,0.413234,0.517514,-0.749277
-0.881863,-0.556915,0.481004,0.353022,0.289830,0.889592
-0.684524,-0.524830,0.732595,-0.512729,0.406765,-0.756076
0.539583,-0.448491,0.814516,0.796770,-0.443435,0.410516
0.094371,-0.449375,-0.353374,0.962186,-0.223198,0.156146
-0.643645,0.085144,0.314280,0.403055,0.351269,0.845078
0.149485,0.268753,-0.925451,0.251157,-0.279904,-0.926593
0.117975,-0.310563,-0.460922,0.256301,0.963745,0.074192
-0.377282,-0.064141,0.908313,0.985458,-0.158549,0.061111
0.104349,-0.301315,-0.455629,0.317545,0.939303,-0.129905
-0.296779,-0.169303,0.800088,-0.633769,0.601610,0.486212
-0.174750,-0.377994,0.874732,0.436530,0.814361,0.382435
0.510342,0.056590,0.822171,0.464548,0.164074,-0.870215
-0.825412,-0.788517,0.394673,0.200153,0.895932,0.396540
0.830239,-0.439313,0.747732,-0.420727,0.456769,-0.783805
0.314016,0.187721,0.711568,-0.273099,-0.482480,0.832244
-0.555479,0.811901,0.775265,0.009439,0.405963,0.913841
0.035972,-0.228307,0.021673,-0.057464,-0.975440,0.212638
-0.491038,0.201384,0.685437,0.992519,0.085725,-0.086928
-0.541852,0.675467,0.780746,0.923741,-0.323915,-0.204405
-0.359801,-0.352776,0.305554,-0.430839,-0.120355,0.894367
0.113312,-0.297780,0.095924,0.689021,0.637439,0.344849
-0.336200,-0.099420,0.759529,-0.460660,-0.875611,-0.145253
0.055237,-0.227561,0.837733,0.632030,-0.357283,0.687668
-0.121827,-0.441421,0.758080,0.850587,0.135679,0.508028
-0.113472,0.059378,0.441469,0.882448,-0.367176,0.294053
-0.374279,-0.188609,0.904486,0.738495,0.538828,-0.405326
-0.104470,-0.241767,0.399540,0.146719,-0.959812,0.239236
0.588937,-0.826655,0.834583,-0.091278,-0.139268,-0.986039
-0.452713,-0.203359,0.306089,0.344609,0.415858,0.841610
-0.214738,0.039392,0.550403,0.848156,0.253671,0.465062
-0.195840,-0.039259,0.857973,0.376408,0.918470,0.121371
-0.556209,0.785866,0.181216,-0.459517,0.877584,-0.136713
0.341187,-0.435098,0.812925,0.175648,-0.927195,0.330843
0.054425,-0.438293,0.653021,0.229161,0.945041,-0.233201
0.299660,-0.316135,0.895492,-0.398766,-0.116882,0.909574
0.280761,-0.691511,0.707205,0.664624,0.724955,0.180871
-0.086665,-0.205330,0.097263,-0.201903,-0.974313,-0.099750
0.082529,0.269566,0.649902,0.483275,-0.075659,-0.872193
0.679416,-0.005336,0.534211,-0.302516,-0.157808,-0.939990
0.643685,0.142380,0.830960,0.061307,-0.304071,0.950675
-0.438923,0.410419,0.527722,0.248570,-0.458141,0.853417
-0.294469,0.135447,0.931263,-0.385049,-0.673832,-0.630625
0.776503,-0.337005,0.867266,0.943556,0.050032,0.327412
-0.615296,-0.791579,0.457000,-0.089239,-0.485493,0.869674
-0.243491,-0.565412,0.239179,0.439025,0.439846,0.783449
0.674304,-0.212877,0.900627,0.784881,0.052082,-0.617454
-0.321477,-0.594713,0.968577,0.362079,0.484837,0.796135
0.398614,-0.462357,0.848365,-0.758891,0.486696,0.432680
-0.350069,-0.247003,0.448037,0.017935,0.988571,0.149686
0.063712,-0.907276,0.677923,-0.409235,-0.012172,-0.912348
0.332145,0.147002,-0.899367,-0.193099,0.358991,0.913147
0.613920,0.081198,0.836284,0.197421,-0.084232,0.976693
0.685539,0.024164,0.703724,0.569393,-0.821848,-0.018893
-0.273947,0.797151,0.686980,0.758848,0.614090,0.216895
0.106943,-0.267259,-0.173230,-0.552719,0.824987,-0.117892
0.596764,0.067809,0.838269,-0.019089,-0.484953,0.874332
0.211332,0.297780,0.700841,0.488184,0.575390,-0.656204
-0.039096,-0.333333,0.714812,0.804594,0.537844,0.251699
-0.297509,-0.862819,0.828739,0.132446,-0.638147,0.758437
0.113270,-0.432040,0.816328,0.184940,-0.400468,0.897453
0.414228,-0.305804,0.866164,0.883963,0.447860,-0.134280
0.289967,0.413411,0.705456,0.061779,-0.091136,0.993920
-0.485523,0.545223,0.714308,-0.293829,-0.928738,0.226076
-0.215954,0.110021,0.869015,-0.744060,0.662132,-0.089194
-0.505312,-0.759627,0.718908,0.331207,0.609271,0.720480
-0.014031,0.560176,0.678774,0.568020,-0.389668,-0.724922
0.729418,-0.015260,0.678223,-0.128083,0.988683,0.078109
0.336036,0.126746,0.706921,-0.423919,-0.568104,0.705372
-0.008192,0.291253,0.304420,0.415102,0.575179,-0.704883
-0.412158,0.134289,0.858792,0.314563,0.346307,-0.883811
-0.206303,0.638760,0.577637,-0.040258,-0.824405,0.564567
-0.127302,-0.378334,0.745873,0.846226,0.362597,0.390417
-0.867630,-0.846368,0.395067,0.010528,0.973030,0.230439
0.550776,-0.196970,0.899887,0.087373,-0.950966,0.296698
-0.581637,0.511574,0.783282,-0.880444,0.214891,-0.422659
0.397438,-0.063730,0.873992,-0.321307,0.812698,0.486090
0.610796,-0.509943,0.633096,-0.290561,-0.956849,-0.003883
-0.712750,0.141090,0.317131,0.319735,0.308335,0.895935
-0.550004,0.645627,0.770177,0.952269,0.001181,-0.305256
-0.354529,-0.435235,0.798765,-0.243342,-0.298028,0.923019
0.047856,-0.281739,0.241888,0.876515,0.481234,0.011585
0.472666,0.019883,0.801191,0.984062,0.174174,0.035849
0.189919,-0.448831,0.819116,-0.507676,0.829279,0.233583
0.517196,-0.440674,0.555680,0.926176,-0.270814,-0.262409
-0.448332,0.419871,0.536353,0.875675,-0.441793,0.194970
0.598833,-0.476767,0.865376,0.185671,-0.796186,0.575859
0.026848,-0.306820,0.319982,0.404537,0.909525,-0.095470
-0.166030,-0.630536,0.212450,0.199078,0.369957,0.907469
0.266850,-0.390437,0.891980,-0.428418,-0.647128,-0.630622
-0.786275,-0.842833,0.386577,-0.082442,-0.981890,-0.170576
-0.670250,-0.109071,0.735241,0.656869,0.566036,0.498123
0.296699,0.518507,0.678065,-0.223494,-0.796609,-0.561662
0.483575,-0.718435,0.620086,0.195339,0.920197,0.339234
0.679091,-0.593489,0.767500,0.835295,0.113898,-0.537875
0.128396,-0.200571,0.791472,0.250236,0.875715,0.412923
0.248318,0.101798,0.458764,-0.229666,0.187964,-0.954947
-0.244503,0.594983,0.701534,-0.471249,0.658146,-0.587169
0.863209,-0.365215,0.843309,-0.565054,0.589430,-0.577310
-0.240733,-0.334694,0.918583,0.944955,-0.182248,-0.271746
-0.315435,-0.355290,0.833606,-0.686059,-0.726777,0.033435
-0.575471,-0.315998,0.771563,0.638556,-0.161449,0.752450
0.374606,-0.116958,0.488801,-0.741247,0.668148,0.064279
0.038690,-0.287722,0.630261,0.630327,0.162084,-0.759221
-0.514803,-0.260529,0.746614,-0.023207,-0.167092,0.985668
0.301444,0.115664,0.669087,0.857653,0.263710,0.441462
-0.129693,-0.506068,0.763830,0.885430,0.039434,0.463096
0.497810,-0.021243,0.549758,0.718487,-0.584120,-0.377597
0.574823,-0.351959,0.685279,0.805477,0.504298,-0.311272
-0.651715,-0.143538,0.694572,-0.693029,-0.078912,-0.716577
-0.428542,-0.139322,0.579432,0.652936,0.019544,-0.757161
-0.133750,-0.156317,0.700306,0.973344,-0.097099,0.207779
0.162018,-0.651473,0.656833,-0.633751,0.339342,-0.695131
-0.365195,-0.231705,0.860588,-0.762519,0.597075,-0.249130
-0.407616,0.813329,0.750441,-0.344929,-0.936341,0.065494
0.399059,-0.499882,0.917591,-0.487957,0.815865,0.310261
0.302378,-0.489754,0.228248,0.923916,-0.102287,-0.368669
0.264499,-0.442442,0.165102,0.064072,0.982925,0.172494
0.362480,-0.141704,0.505623,-0.575229,0.806788,-0.134926
0.352626,-0.160329,0.676128,0.602161,-0.485858,-0.633517
0.186065,0.054689,-0.700447,-0.825192,0.144902,-0.545950
-0.064928,-0.346453,0.610824,0.699650,0.706564,0.106102
0.109985,-0.945552,0.869849,0.090667,-0.845884,0.525604
0.353153,0.094454,0.699691,-0.435625,-0.852187,0.289843
-0.452795,0.824680,0.755056,-0.197631,0.979326,0.043154
0.006286,-0.320894,0.435074,0.267651,0.958179,0.101273
0.373430,0.048432,0.696620,0.440532,0.841812,-0.311905
-0.243612,-0.158424,0.614904,0.100168,-0.687219,0.719511
-0.221916,0.045648,0.564437,0.846380,0.253362,0.468454
0.413010,-0.467726,0.366558,0.910731,0.396775,-0.114623
-0.193567,-0.372488,0.896595,0.898406,0.324543,-0.295870
-0.343418,-0.471942,0.789283,-0.425102,0.238578,0.873137
-0.556330,-0.059448,0.553821,-0.301077,0.030104,-0.953125
0.523847,-0.420891,0.853705,0.537674,0.822560,-0.185205
0.347717,-0.133547,0.854020,-0.727598,-0.259268,-0.635123
-0.118339,-0.630399,0.800766,0.673040,0.084837,-0.734724
-0.636588,-0.539920,0.729366,0.350032,-0.294206,0.889337
0.082287,-0.051971,0.703125,0.547491,-0.820833,0.162750
-0.244424,-0.218383,0.609659,0.122699,-0.886803,0.445561
0.121096,-0.301589,-0.593782,0.822879,0.563228,-0.075132
-0.983777,-0.875805,0.700920,0.845736,0.408682,-0.343087
-0.122515,0.640254,0.759104,0.384077,-0.618986,-0.685085
-0.185131,0.012950,0.529392,0.928352,0.044496,0.369028
-0.503446,0.629313,0.690477,0.562766,0.826096,0.029321
0.758983,0.236461,0.680460,0.911727,0.295021,-0.285860
-0.186674,-0.118726,0.798025,0.009827,-0.971516,0.236772
-0.539256,-0.741479,0.714529,-0.629578,0.635584,-0.446838
-0.100819,-0.655622,0.774477,0.959407,0.263677,0.100064
0.608323,-0.561197,0.822092,0.022715,-0.902945,0.429155
0.254075,-0.734135,0.764680,0.921149,0.214361,0.324860
-0.491929,-0.118726,0.678916,0.012489,-0.895539,0.444807
-0.414104,0.271948,0.653147,0.633313,-0.492071,0.597312
-0.705450,-0.164067,0.582677,0.907025,-0.396195,0.142600
0.463097,-0.075289,0.551128,-0.489212,0.864138,0.118057
0.491525,-0.233133,0.917008,-0.464477,0.832349,-0.302417
-0.171872,-0.612724,0.905399,0.795267,-0.583869,-0.163241
-0.084069,-0.140480,0.816722,-0.521427,-0.183416,0.833350
-0.772812,-0.819042,0.551065,-0.576864,0.492750,0.651480
0.095995,-0.751810,0.911700,-0.309826,0.865620,-0.393331
0.603051,-0.394856,0.877977,0.206853,0.584598,0.784511
0.242639,-0.835763,0.663653,-0.005266,0.751662,0.659527
0.259187,0.032392,0.678837,0.591695,0.225489,0.773984
-0.165381,-0.705585,0.838064,0.887496,0.154542,-0.434128
0.304972,-0.554467,0.903620,0.113508,0.457814,0.881772
0.960175,-0.085687,0.776225,0.600202,0.155209,-0.784645
0.438965,-0.363787,0.891082,0.257897,0.098551,0.961133
0.333279,-0.789131,0.641728,-0.029338,0.902789,0.429081
-0.732418,0.455628,0.779691,0.538832,-0.495284,0.681436
0.459770,-0.382620,0.678034,0.913610,-0.211425,0.347299
-0.033578,-0.609326,0.824676,0.210867,-0.911070,0.354240
-0.284776,-0.467660,0.937280,0.827909,0.560059,0.030006
0.562130,0.406204,0.579370,0.858707,-0.512129,0.018606
0.538283,-0.012136,0.705834,0.341113,0.258877,0.903673
-0.756711,-0.089292,0.286905,0.437391,0.772943,-0.459618
-0.779300,-0.289013,0.480705,0.084070,-0.613038,0.785568
0.080136,-0.255293,-0.850491,0.925528,0.378203,0.019017
-0.589464,0.752486,0.777690,0.173324,0.159422,-0.971876
-0.146849,0.184800,0.805129,0.860971,-0.139983,-0.489012
0.363210,-0.512524,0.912377,-0.603685,0.724024,0.333697
-0.457498,0.283503,0.682775,-0.544147,0.152494,-0.825015
0.140280,-0.684512,0.450353,0.680209,-0.502426,-0.533745
0.397317,-0.106420,0.912992,0.827993,-0.279614,0.486049
-0.639143,0.668874,0.752709,0.106206,0.065190,0.992205
-0.559615,0.616870,0.670001,0.552067,0.550247,-0.626459
-0.356517,-0.537269,0.926774,-0.169690,0.509773,0.843408
0.947888,0.028923,0.781171,-0.608922,0.005615,0.793210
-0.664450,-0.524556,0.723507,-0.545287,0.437931,-0.714758
0.883608,0.581590,0.552325,0.728670,-0.253595,-0.636184
0.043962,-0.153736,0.748834,-0.616984,-0.658382,-0.431120
0.465570,-0.709664,0.614478,0.195339,0.920197,0.339234
-0.077296,-0.391931,0.902627,-0.532851,0.084642,0.841965
-0.693973,-0.137625,0.569399,-0.716265,0.696699,-0.039684
-0.155285,0.100030,0.913622,0.854021,-0.488363,0.179301
-0.152485,0.378675,0.187374,0.248779,-0.702800,0.666469
-0.004541,0.285611,0.397445,-0.563941,0.565092,-0.602198
-0.167005,-0.367733,0.828550,-0.591942,-0.805382,0.031062
0.562415,-0.029674,0.688429,0.293644,0.237331,0.925984
0.711129,-0.221441,0.526257,-0.244163,-0.156498,0.957023
0.011316,-0.562624,0.630009,0.929470,-0.219740,-0.296312
-0.395044,0.135787,0.884073,0.605897,0.276929,-0.745788
0.029524,-0.286225,0.131206,0.175060,-0.972174,-0.155663
0.065700,-0.339453,-0.235100,0.980755,-0.187521,0.054373
-0.229743,-0.637673,0.817509,0.656728,0.546421,-0.519743
0.427163,-0.136467,0.809145,-0.737795,0.670742,-0.075918
-0.232298,-0.455221,0.326314,0.191040,0.645642,0.739358
-0.047814,0.737873,0.701708,-0.577982,-0.810201,0.097523
-0.231080,0.242987,0.866290,-0.702016,0.368080,0.609665
0.413173,-0.290710,0.886246,0.433613,0.007673,-0.901066
-0.412483,-0.601240,0.267972,-0.695254,0.604126,-0.389427
-0.316652,-0.063800,0.892720,-0.360204,0.927333,-0.101523
-0.046922,-0.319670,0.612210,0.616896,0.779505,0.108677
-0.805216,-0.561471,0.589245,0.630278,-0.395903,0.667840
-0.240733,0.732774,0.733509,-0.588884,0.236855,-0.772733
-0.169438,-0.223822,0.721365,-0.646427,-0.501761,-0.574777
-0.571499,-0.417763,0.493274,-0.249046,0.968471,0.006367
0.169075,0.223885,-0.913417,-0.249738,0.210621,0.945129
0.310326,-0.787841,0.623409,0.308896,0.775002,0.551321
-0.602360,-0.489754,0.410708,0.324595,-0.236904,0.915705
-0.423312,-0.103565,0.899698,0.873553,-0.087472,0.478805
0.354044,0.034906,0.615030,-0.823310,-0.560169,-0.091497
0.586667,-0.501786,0.888562,0.015841,-0.639753,0.768417
-0.201151,-0.511574,0.833701,0.030479,0.145781,0.988847
0.316895,-0.560384,0.903384,-0.064385,0.485017,0.872131
-0.534268,-0.293228,0.530069,0.245713,0.622917,-0.742697
-0.634398,-0.320828,0.192635,0.002692,0.111322,0.993781
-0.318110,-0.249584,0.797316,0.989543,-0.110993,-0.092111
-0.205978,-0.561267,0.891192,0.358612,0.882113,0.305408
0.783721,0.152371,0.507198,-0.395596,0.908626,0.133803
-0.345566,0.066854,0.853988,0.423485,-0.518569,0.742797
-0.725322,0.755615,0.370716,-0.630684,-0.622515,0.463371
-0.392490,0.021243,0.564989,0.259828,0.477987,-0.839058
-0.169720,-0.160532,0.800498,0.109663,0.992817,-0.047833
0.098265,-0.574316,-0.421670,0.961486,0.088629,0.260172
-0.513991,0.867644,0.751103,-0.088348,0.994608,-0.054311
0.126411,-0.287855,-0.180129,0.570066,-0.792417,0.217025
0.277882,0.176776,0.699628,-0.744734,-0.468564,0.475204
-0.616920,-0.204786,0.675403,-0.513495,0.125553,-0.848858
0.014761,-0.877979,0.933011,-0.456934,0.871966,0.175748
0.443671,-0.463241,0.916488,0.726965,-0.667225,-0.162275
-0.682415,-0.363721,0.564595,0.731557,0.027526,0.681224
-0.488604,0.312937,0.728909,-0.132643,-0.991023,-0.016714
0.568417,-0.344482,0.854366,0.946461,-0.322514,-0.014030
0.426921,0.016281,0.507718,-0.615009,0.551625,-0.563448
-0.166681,0.485331,0.535140,0.883054,0.468527,-0.026418
0.595021,0.163113,0.460402,-0.687200,-0.041287,0.725294
-0.225647,-0.570445,0.902108,0.591676,0.704120,0.392600
0.457094,-0.103296,0.902927,0.400965,0.769971,0.496359
-0.142346,0.387238,0.924143,-0.705559,0.707659,-0.037489
-0.087923,-0.731351,0.960434,-0.035576,0.086392,0.995626
0.087071,-0.322799,0.234265,-0.132916,0.985042,0.109658
0.378336,-0.496621,0.302041,0.918983,0.185930,-0.347706
0.090074,-0.354543,-0.075353,0.519341,0.854557,0.004286
-0.041853,-0.222395,0.404832,-0.021244,-0.901069,0.433154
-0.190201,-0.088612,0.798167,0.193979,-0.832591,0.518810
-0.011355,-0.372828,0.571336,0.189908,0.949290,0.250568
-0.618177,-0.579826,0.556688,-0.411890,0.630702,0.657695
0.161245,-0.476904,0.795883,0.250846,-0.960974,-0.116642
0.383242,0.056590,0.711032,0.467851,0.848724,-0.246542
-0.354774,0.198463,0.629080,0.885180,0.170255,0.432977
0.161003,-0.273039,0.050765,0.816962,0.377650,-0.435838
-0.313650,-0.066925,0.809397,-0.157382,-0.541700,0.825707
-0.602400,-0.197376,0.731902,-0.141181,0.467890,0.872437
-0.500689,0.504844,0.734296,0.482941,0.875564,-0.012471
-0.495213,0.357124,0.528163,0.982403,-0.114477,0.147581
-0.001419,-0.448080,0.696258,0.358624,0.928524,0.096083
-0.916254,-0.681114,0.734202,0.659666,0.013644,-0.751435
0.950524,0.156246,0.758395,-0.622595,0.440218,0.646980
-0.172196,-0.447333,0.256048,-0.007907,-0.776101,0.630559
-0.363046,-0.804155,0.842774,0.037851,-0.251837,0.967029
0.494525,-0.320894,0.679782,0.805027,-0.574166,0.149215
-0.178683,-0.376231,0.910282,0.032423,0.700763,0.712657
-0.408265,-0.145579,0.901446,0.977443,0.166784,0.129570
-0.363207,0.615239,0.749212,0.429051,-0.139062,0.892512
0.096846,-0.696204,-0.285408,0.963478,0.013062,-0.267469
0.597982,0.276570,0.684476,0.344348,0.931727,-0.115367
0.475060,0.245506,0.808988,0.881212,-0.254226,0.398540
0.832306,0.688860,0.545914,-0.702196,-0.282726,0.653443
0.705572,0.736990,0.604130,-0.616004,0.426342,-0.662399
-0.205775,0.442778,0.687925,-0.543069,0.538791,-0.644034
0.084678,-0.669285,0.911826,0.261147,-0.904151,-0.338102
-0.084517,-0.115668,0.828393,-0.557085,-0.236544,0.796055
-0.280476,-0.610073,0.609690,0.084841,0.954712,0.285180
-0.320992,-0.544339,0.684397,-0.159585,0.374903,-0.913225
-0.093032,0.057407,0.831370,-0.440245,-0.335760,0.832736
0.366373,-0.484248,0.297804,0.919510,0.109008,-0.377650
0.670250,-0.627748,0.844758,0.137078,-0.977695,0.159129
-0.669195,0.450661,0.788968,-0.460357,0.389197,-0.797870
-0.436775,-0.260326,0.894768,-0.534224,0.758360,-0.373490
-0.662178,0.393495,0.792386,-0.536510,0.155874,-0.829373
0.387420,-0.357058,0.839718,0.738654,0.673809,-0.019267
0.569429,0.182012,0.703188,-0.096770,0.805920,0.584062
-0.477451,-0.345096,0.753449,0.484966,-0.871882,-0.068041
-0.142186,-0.475273,0.804499,0.860086,0.477204,-0.180357
0.099279,-0.266782,-0.168489,-0.655974,0.748474,-0.097386
-0.087720,-0.747051,0.766602,-0.809414,0.484115,-0.332387
0.042989,-0.363584,0.824077,0.287808,-0.610486,0.737884
0.079408,-0.712248,0.917370,0.173164,0.984445,-0.029714
0.074824,0.317695,0.784085,0.274382,0.190913,0.942479
-0.043353,-0.330139,0.602460,-0.498887,-0.865843,0.037778
0.019385,-0.244012,0.127567,-0.215147,0.953465,0.211228
-0.504379,0.298867,0.783550,0.986231,0.161546,0.035365
-0.470436,0.082696,0.891964,0.350628,0.818747,0.454656
-0.034430,0.493082,0.664535,0.709395,-0.384013,-0.591010
-0.496310,0.886340,0.660960,0.282976,-0.604395,0.744736
0.468409,0.154686,0.816438,0.951578,0.281602,-0.123289
-0.074499,-0.359165,0.663370,-0.505899,-0.838695,-0.201637
-0.191419,-0.193501,0.126276,0.221519,-0.732424,0.643805
0.568254,0.317019,0.542796,-0.589990,0.806236,-0.043538
-0.112539,0.057884,0.810972,0.921362,0.221251,-0.319592
0.197949,-0.554604,0.635081,0.496439,-0.769477,0.401812
-0.650539,0.762888,0.757529,-0.274960,0.187920,0.942912
0.445129,0.459159,0.665433,-0.337561,-0.303030,-0.891193
0.545625,-0.239522,0.858966,0.018828,-0.740094,0.672240
0.483211,0.007307,-0.873630,-0.171778,0.505497,0.845556
-0.229743,0.043130,0.556420,0.831681,0.180870,0.524969
-0.417633,0.804765,0.203787,0.200418,0.898258,-0.391108
-0.286764,0.049996,0.650217,0.679771,0.212135,0.702076
-0.512167,0.296622,0.716970,0.074264,-0.991623,0.105680
-0.324437,-0.205330,0.905982,0.560655,0.825991,-0.058349
0.085205,-0.315318,-0.563508,-0.601916,0.738881,-0.302906
-0.136668,0.609393,0.768476,-0.047949,-0.872194,-0.486804
-0.153906,-0.235307,0.410487,0.413398,-0.565278,0.713837
0.121421,-0.793753,0.652360,-0.630441,0.665788,-0.399087
0.373185,-0.189493,0.846365,0.813885,0.171632,0.555098
-0.739678,0.611023,0.353547,0.463673,0.226854,-0.856472
-0.086868,-0.499678,0.946840,-0.226960,0.784270,0.577417
0.122799,-0.546584,0.907510,0.499306,0.526557,-0.688063
0.081354,-0.797562,0.915811,-0.182735,0.713086,0.676843
-0.101752,-0.726861,0.959756,-0.242288,0.141451,0.959838
-0.057304,0.670845,0.739919,-0.260479,0.962545,-0.075215
-0.273704,0.681587,0.748456,-0.302678,0.521547,-0.797731
-0.299214,-0.098806,0.873976,-0.702058,0.681001,-0.208214
0.496350,-0.013700,0.606083,-0.124898,0.857388,0.499287
0.322898,-0.570918,0.769374,-0.693261,-0.503720,-0.515417
-0.327034,0.848339,0.748425,-0.058492,0.340385,0.938465
-0.137074,0.331566,0.276793,0.235177,0.099804,0.966815
-0.044853,0.208251,0.691879,-0.041064,0.008976,0.999116
0.009613,-0.312534,0.421418,0.883054,0.440141,0.162759
-0.520723,-0.367323,0.750394,-0.268093,-0.905910,-0.327799
-0.018412,0.499542,0.458244,0.203364,-0.079366,0.975881
0.146079,-0.333064,-0.513105,-0.762014,-0.596997,-0.250855
0.329346,-0.179908,0.675230,0.541191,0.563515,0.624150
-0.561278,0.499405,0.350208,0.708381,0.271445,0.651548
-0.728040,0.479825,0.295016,0.875390,-0.135255,0.464111
-0.607794,0.496754,0.793048,-0.364562,0.435920,-0.822842
-0.367791,-0.664592,0.835985,0.115947,-0.307908,0.944324
0.627059,0.070933,0.840537,0.454270,0.023964,0.890542
-0.384378,-0.396964,0.699565,0.144985,-0.567812,0.810289
0.362886,-0.234631,0.885979,-0.034060,0.346568,0.937406
-0.582974,0.805512,0.663543,0.558804,-0.385671,0.734163
0.224756,-0.425240,0.815194,0.309626,-0.899704,0.307676
0.090477,-0.262500,-0.171828,-0.477327,0.877096,-0.053489
-0.285627,-0.202679,0.731556,-0.040226,-0.798418,0.600758
0.331212,-0.447948,0.869598,0.771262,-0.193234,0.606478
-0.176089,0.006083,0.853248,-0.100085,-0.333926,0.937271
0.355462,-0.104789,0.388735,-0.266568,-0.714974,0.646338
0.109621,-0.195135,0.021642,0.837839,0.545538,-0.020374
-0.309068,0.760374,0.770665,0.528182,0.840432,-0.121237
0.654311,0.113830,0.629458,-0.793768,0.605469,-0.057790
-0.126611,0.309539,0.899304,0.818907,-0.546169,0.176328
-0.236110,0.085957,0.903226,0.467119,0.809736,-0.355144
0.388272,-0.337482,0.895398,0.372288,-0.001626,-0.928116
-0.508191,-0.704295,0.299285,-0.699494,0.659479,-0.275310
0.301729,0.568470,0.653604,0.172566,0.916040,-0.362066
-0.519303,0.138368,-0.997464,-0.301826,0.202007,0.931716
0.885596,-0.027363,0.754064,-0.636281,0.262182,0.725539
-0.017113,-0.371264,0.531518,0.720365,-0.668252,0.185776
-0.134965,-0.019136,0.789724,0.890678,-0.448271,-0.075807
-0.137440,-0.264064,0.684429,0.934434,0.051694,0.352365
0.098467,0.007033,0.463552,-0.166348,0.317660,-0.933499
-0.070566,-0.698581,0.829243,-0.560858,0.815681,-0.141784
-0.074824,-0.316612,0.606524,0.613849,0.787115,0.060326
0.146728,-0.557392,0.431389,0.997727,0.056853,-0.036181
0.743775,-0.472348,0.667496,0.485339,-0.831421,0.270528
-0.699772,-0.312260,0.167733,0.290769,0.047289,-0.955624
0.435884,-0.522859,0.390231,0.971984,0.153056,-0.178387
0.444847,-0.053739,0.404801,0.102192,-0.761491,0.640069
0.108970,-0.278611,-0.391507,-0.700477,0.713138,0.027657
-0.289600,0.707079,0.757356,-0.452155,-0.843848,0.288923
0.125639,-0.309202,-0.441296,0.518086,0.854206,-0.043812
-0.380363,0.730397,0.708575,0.293240,-0.926874,0.234338
0.354450,-0.386562,0.867975,0.282275,0.493061,0.822928
-0.025670,0.186361,0.596743,-0.147360,-0.430325,0.890565
0.091938,-0.314434,-0.531581,0.991767,0.074719,-0.103999
-0.170817,-0.436388,0.830850,0.896688,0.420036,-0.139720
-0.014925,-0.202135,0.410503,0.929222,0.362188,0.073248
-0.105685,-0.272085,0.591955,0.191659,0.898753,0.394348
-0.033984,0.002822,0.345971,-0.656866,0.443732,-0.609613
0.140968,-0.322255,-0.525296,-0.727314,-0.517396,-0.450906
0.504218,0.133883,0.770634,0.481020,-0.876100,-0.032702
-0.302417,-0.660381,0.933373,-0.282167,0.954649,-0.095016
0.668059,0.154006,0.623283,0.923992,-0.376065,0.069378
0.400235,-0.071547,0.495322,-0.791151,0.611209,-0.022449
0.139307,-0.333470,-0.433956,0.935497,0.035764,0.351521
-0.458107,0.598381,0.039267,-0.503462,0.857370,0.106970
0.059940,-0.237145,0.638892,0.836560,0.097953,-0.539048
-0.607024,-0.581386,0.713505,0.114517,0.109468,0.987372
-0.672519,-0.632781,0.716261,0.106674,0.280278,0.953973
-0.778530,-0.852214,0.568202,-0.658205,-0.549861,0.514217
-0.295524,0.170590,0.914740,0.185027,0.968237,-0.168173
-0.008231,0.319803,0.306909,-0.532410,-0.596804,0.600303
0.071863,0.292954,0.791173,0.215481,0.085993,0.972714
-0.047002,0.095475,0.108650,0.355545,-0.513938,0.780676
0.750184,-0.182829,0.918599,0.207017,0.245935,0.946921
-0.432233,0.580162,0.731052,0.051906,0.984878,-0.165289
-0.312232,-0.736242,0.980768,0.765634,0.513008,0.388106
0.077581,-0.477381,0.785062,-0.525830,0.832409,0.174922
0.602239,0.369020,0.548419,0.321247,-0.806011,0.497139
0.070363,0.127833,0.394862,0.360799,-0.787716,0.499327
-0.899343,-0.388873,0.345514,0.303796,-0.606850,-0.734467
0.300511,-0.636860,0.287803,-0.688333,0.632033,0.355994
-0.067482,-0.517557,0.952731,0.670916,-0.571745,-0.472207
0.539095,0.235714,0.765357,0.819626,-0.559430,0.123499
0.601103,0.174058,0.841986,-0.608894,0.415658,0.675630
-0.627950,0.110092,0.744487,-0.182561,0.758462,0.625625
0.230634,0.315725,0.482312,-0.294119,0.336208,-0.894683
0.386487,-0.239049,0.879080,-0.283245,0.134012,0.949638
-0.770864,-0.580573,0.478358,-0.443070,-0.388064,-0.808143
-0.039662,-0.598792,0.883096,-0.118435,0.960757,0.250837
-0.561157,-0.232112,0.518287,0.457398,0.829032,0.321704
-0.393665,0.097379,0.927435,-0.590076,0.797816,-0.123695
0.068294,-0.391250,-0.378308,0.941325,-0.268993,-0.203839
0.456485,-0.311173,0.655888,0.917669,-0.260873,0.299715
-0.067200,0.269363,0.604728,0.391293,0.168461,-0.904716
0.034351,-0.364402,0.459473,0.803924,0.577966,0.140223
0.660151,0.177253,0.715820,-0.612138,-0.691140,-0.384204
0.225486,-0.457329,0.559696,0.541193,0.820264,0.185139
-0.367101,-0.045851,0.645760,0.482383,0.238617,-0.842834
0.331821,-0.745624,0.832677,0.051221,0.177570,0.982774
-0.577541,-0.470311,0.405132,0.283869,-0.241799,0.927875
0.543922,0.217088,0.760616,0.819626,-0.559430,0.123499
0.527090,-0.246119,0.686004,0.001311,-0.853524,0.521051
0.633386,-0.350942,0.774335,0.770476,0.036279,-0.636436
-0.224553,0.709593,0.273375,0.797624,0.602323,-0.031674
-0.817261,-0.310696,0.331622,-0.328209,0.595964,0.732875
0.154067,-0.762278,0.467978,-0.688519,0.344933,0.637936
-0.030618,0.484991,0.693281,0.802951,-0.235032,-0.547749
-0.269244,-0.475273,0.236108,-0.315994,-0.594518,-0.739389
-0.079933,0.191393,0.792386,0.986378,-0.164112,0.011233
-0.139752,0.148566,0.922600,0.848842,-0.312722,0.426230
-0.355502,0.356581,0.564595,-0.634223,-0.705817,0.315568
0.009368,-0.265425,0.846522,0.704796,-0.697843,0.127581
0.557345,-0.507972,0.841939,0.881962,-0.466478,0.067388
-0.367670,-0.392134,0.294056,-0.319997,0.320185,-0.891675
-0.768149,-0.751129,0.350539,-0.458586,-0.231246,-0.858035
-0.196446,-0.370248,0.274524,0.354922,-0.930732,-0.088142
0.503449,0.105470,0.860289,0.720707,-0.644269,-0.255927
0.343215,-0.240680,0.702416,0.311069,-0.073799,-0.947518
0.459730,0.487713,0.635522,-0.450528,0.860269,-0.238667
0.306635,-0.285478,0.815446,-0.027897,-0.923717,0.382059
0.127139,-0.242037,-0.025249,-0.378242,0.364294,0.851013
-0.051586,-0.334151,0.566721,0.657049,0.728902,0.192325
-0.523481,-0.315658,0.151887,-0.177013,-0.474974,-0.862013
0.084274,-0.271611,-0.548529,0.719564,-0.628030,0.296320
-0.139874,-0.067808,0.875740,0.881851,-0.255946,-0.396019
-0.238503,-0.585602,0.595026,0.211946,0.828723,0.517974
-0.395287,-0.590020,0.261309,-0.502236,0.784570,-0.363606
-0.684403,-0.340337,0.429215,0.715976,0.628318,-0.304294
0.383972,-0.101731,0.873425,-0.810311,0.574755,-0.114250
-0.577135,0.764112,0.766948,0.803306,-0.251387,-0.539911
0.518454,-0.348631,0.625095,-0.388379,0.918447,-0.074942
-0.564442,0.403760,0.366447,0.005763,0.588101,0.808767
0.071539,-0.273105,-0.278714,-0.672678,-0.725040,0.147721
0.007910,-0.893003,0.920977,0.185960,-0.950752,-0.247971
-0.616960,0.272628,0.433562,-0.435725,0.878230,0.197120
0.220983,-0.218860,0.280069,-0.794562,0.018296,0.606908
0.688134,0.015601,0.669560,0.196570,-0.950221,-0.241744
-0.142792,-0.608442,0.443674,0.619384,-0.780443,0.085272
-0.474533,0.703747,0.767484,0.439338,0.171426,0.881814
0.556655,-0.209749,0.885837,-0.331360,0.919148,-0.212995
-0.629774,-0.911765,0.709961,-0.017158,0.946133,0.323323
0.300836,-0.027023,0.442540,-0.530286,0.027810,-0.847362
-0.057385,-0.270250,0.575447,0.588740,0.807993,0.023081
-0.753792,-0.869752,0.566328,-0.606044,0.736313,-0.300923
-0.226417,-0.146595,0.893996,0.967322,0.140261,0.211223
0.513587,0.028583,0.425860,-0.645021,-0.057466,0.762001
-0.637522,0.039595,0.325432,0.207545,0.379255,0.901715
0.308177,0.574113,0.661747,0.161846,0.893624,0.418619
0.360410,-0.027973,0.563839,-0.191462,-0.934489,0.300121
0.120569,0.211583,0.795631,0.167645,0.148544,0.974592
0.010949,0.055706,0.271122,-0.132508,-0.639695,0.757121
-0.302375,-0.517760,0.948699,-0.703163,0.116250,-0.701461
-0.452389,-0.319873,0.725429,-0.079984,-0.636971,0.766727
-0.185456,-0.105947,0.750866,0.992061,0.049768,-0.115489
0.123814,-0.573706,0.435594,0.996250,0.068416,-0.052963
-0.521535,-0.062576,0.499921,-0.722369,0.602097,-0.340093
0.238746,0.451209,0.708796,0.213195,-0.405718,0.888786
-0.326140,0.021853,0.822407,-0.294050,-0.873140,0.388794
0.434220,-0.446520,0.889460,-0.299251,0.888064,-0.348985
-0.449062,-0.144218,0.543126,0.275631,0.178438,-0.944557
0.238422,-0.681724,0.776651,0.790714,-0.544248,0.280296
-0.573038,0.621832,0.405746,0.834131,0.431950,-0.342992
-0.287858,-0.684445,0.970404,0.816892,0.157987,0.554732
0.180916,0.097649,0.699880,0.502900,0.760396,-0.410962
-0.307162,-0.260189,0.626276,0.270334,-0.558900,0.783933
-0.655527,0.638080,0.264050,-0.720962,0.669962,-0.177100
0.850273,0.017094,0.538338,0.724887,-0.155731,-0.671034
-0.132168,-0.405527,0.739305,0.839479,0.441217,0.317179
-0.671262,0.930798,0.653667,-0.051510,-0.741435,0.669044
0.080787,-0.244144,-0.441296,0.311185,0.899845,-0.305686
-0.680143,0.190779,0.757828,-0.568768,-0.815988,0.103280
-0.373915,-0.104993,0.551506,-0.266359,0.394015,0.879662
-0.273259,-0.637332,0.932680,0.795287,-0.605749,-0.024235
-0.219280,0.380508,0.592584,-0.622310,0.643233,0.446074
0.431666,-0.110366,0.527990,0.300411,-0.938086,-0.172475
-0.441884,0.772746,0.767547,0.087938,0.200562,0.975726
0.030742,0.243601,0.525406,-0.746269,0.656034,-0.112705
-0.700705,0.500425,0.803317,-0.224587,0.372442,-0.900471
0.877039,-0.316542,0.832740,0.847100,-0.472998,0.242269
0.429921,0.213690,0.768759,-0.498152,-0.863959,0.073614
-0.682213,-0.669625,0.542165,0.640491,-0.210860,-0.738451
0.419012,-0.169096,0.703377,-0.078028,0.829848,0.552507
0.271231,-0.443529,0.213552,0.962769,-0.145147,-0.228052
-0.191013,0.002070,0.541110,0.787262,0.285644,0.546467
-0.179008,-0.413618,0.909369,-0.026341,0.746668,0.664675
-0.247424,0.096495,0.569871,-0.614025,0.498412,-0.612012
0.063428,0.240269,0.637648,-0.693294,0.193056,0.694315
0.710277,0.161209,0.853531,0.195279,0.314130,-0.929079
0.023603,-0.296149,0.426537,0.828191,0.543463,0.136923
-0.559697,-0.301452,0.490234,0.791319,-0.610742,0.028419
0.393220,-0.374463,0.881426,0.395838,0.707983,-0.584869
0.291467,0.582677,0.659164,0.204327,0.869240,0.450192
-0.117366,-0.912919,0.522477,-0.089383,0.174847,0.980530
-0.219077,-0.704635,0.787456,-0.054727,0.725717,0.685813
0.394153,0.246593,0.470656,0.439301,0.143594,-0.886789
0.398492,-0.087865,0.870070,-0.610690,0.740449,0.280700
-0.252291,-0.323952,0.910660,0.747311,-0.168105,-0.642858
0.428463,-0.096972,0.530683,0.314834,-0.932927,-0.174718
-0.679658,-0.022808,0.699660,0.110225,-0.081834,0.990532
0.018088,-0.277661,0.388593,0.818701,0.573203,-0.034154
-0.969908,-0.766427,0.705771,0.872518,0.292889,-0.391061
0.137156,-0.555218,0.420410,0.996398,0.078596,-0.031852
0.815842,0.240406,0.562232,0.271803,0.586741,-0.762796
-0.315232,0.292137,0.580110,0.771802,0.635090,0.031344
0.317504,-0.060265,0.887176,-0.566399,0.603218,0.561534
-0.675601,0.161209,0.795820,0.242175,0.899365,0.363998
-0.253791,0.748748,0.273595,0.681612,0.726401,-0.088018
0.040232,0.327147,-0.940587,-0.225885,0.391088,0.892203
-0.186834,0.026953,0.715757,0.848288,0.406159,0.339769
0.143077,-0.361817,-0.510159,0.589323,0.788159,0.177492
-0.382512,0.083509,0.554247,-0.267232,0.281696,0.921539
0.419012,-0.473643,0.714308,0.710533,0.225674,0.666494
0.399871,-0.208728,0.705850,-0.121439,0.857029,0.500754
-0.665099,-0.098400,0.723381,0.819208,0.539865,0.193505
0.715468,-0.400021,0.819100,0.302584,0.654840,0.692551
-0.478951,-0.297103,0.149115,0.162022,0.391017,0.906010
0.497486,0.132319,0.808326,0.897713,-0.197478,0.393845
-0.020236,-0.389010,0.664078,0.335731,0.941688,0.022551
-0.309393,-0.429048,0.927908,0.165920,-0.402514,0.900252
0.278449,-0.586622,0.580047,-0.288782,0.825145,0.485532
-0.203382,-0.440537,0.201597,0.324553,0.632987,0.702846
-0.402425,0.217972,0.652123,-0.688905,0.464204,-0.556709
-0.269771,-0.940996,0.683232,-0.006843,0.745607,0.666351
0.439129,-0.056187,0.753843,0.771797,0.012527,-0.635745
0.134238,-0.308928,0.854067,-0.244619,-0.967102,0.069820
0.011558,-0.436459,0.695864,0.155024,0.970908,0.182495
-0.198273,-0.794093,0.800451,0.253332,-0.899619,-0.355680
0.884014,0.252912,0.602886,0.861072,-0.019130,0.508123
-0.130302,0.276367,0.855690,-0.602138,0.565709,0.563386
0.560751,-0.021447,0.802845,-0.265027,0.728283,-0.631953
0.792563,-0.481120,0.794528,-0.222130,0.953881,-0.201913
-0.568051,-0.317359,0.470073,0.770357,-0.637566,0.007728
0.513748,-0.375007,0.620716,0.631902,-0.740707,0.228152
0.909645,0.211786,0.580346,-0.644372,-0.574455,0.504763
-0.415403,0.681790,0.772382,0.368725,-0.280656,0.886157
0.163030,-0.295199,0.060216,0.338069,0.808166,0.482262
-0.299090,0.808229,0.295394,-0.289830,-0.950655,0.110699
-0.144780,-0.368750,0.752536,0.683274,0.617815,0.389155
0.426839,-0.242991,0.710670,-0.226906,0.699559,0.677592
0.249048,0.037558,0.681436,0.126202,-0.382403,0.915337
0.697218,-0.020770,0.529313,-0.489685,0.263648,-0.831083
0.785020,0.818565,0.596223,-0.650789,-0.738560,0.176077
-0.282585,-0.071074,0.163779,0.196557,-0.574215,0.794759
-0.315435,0.698038,0.719900,-0.426898,-0.057794,0.902451
-0.022103,-0.231228,0.910503,-0.387917,-0.747505,-0.539218
0.126411,-0.539107,0.875866,-0.417719,0.904979,0.080773
-0.433775,0.783692,0.202464,0.200418,0.898258,-0.391108
-0.083990,-0.726252,0.227870,-0.186455,-0.329115,-0.925699
0.086504,0.046325,0.821525,-0.286880,-0.295715,-0.911182
0.690851,-0.454744,0.887711,-0.158126,-0.225989,0.961210
0.397520,-0.465415,0.698447,0.758111,0.141333,0.636625
-0.429272,-0.238095,0.464151,-0.067167,0.984821,0.160053
-0.729418,0.488323,0.812626,0.433872,-0.294540,0.851470
0.131601,-0.196355,-0.541252,0.915251,-0.087365,0.393298
-0.113676,-0.378878,0.743621,0.902130,0.252280,0.350024
-0.233716,0.418850,0.670615,0.502699,-0.460510,0.731590
0.246451,-0.448761,0.183090,0.359056,0.929838,0.080502
0.587843,0.233677,0.620527,-0.114276,0.793870,0.597254
-0.604306,0.456238,0.349972,-0.087234,0.622281,0.777918
0.030945,0.243058,0.510648,-0.666132,0.703673,-0.247212
0.097331,0.393831,-0.518681,0.896870,0.115848,0.426853
-0.027942,-0.387172,0.588284,0.456165,0.889737,0.016795
0.453931,-0.410693,0.690635,-0.671467,-0.071199,-0.737606
0.326467,-0.431837,0.257261,0.944933,0.125139,-0.302394
-0.414713,0.388736,0.726437,-0.154932,0.386397,0.909227
-0.680185,-0.884506,0.695927,-0.121065,-0.005699,0.992628
0.689837,0.118316,0.736249,0.226052,0.021164,0.973885
-0.724431,-0.172428,0.569273,0.903426,-0.427757,0.029090
0.024091,0.195675,0.556074,0.893627,-0.448757,-0.006975
-0.401250,-0.003776,0.876748,0.923057,-0.030584,0.383446
-0.171141,0.064070,0.885947,-0.287315,0.744966,-0.602060
-0.243936,-0.268143,0.481430,-0.101042,-0.977531,-0.184995
0.001338,-0.875054,0.914504,0.444938,-0.793806,-0.414612
-0.667368,-0.883689,0.712576,-0.121065,-0.005699,0.992628
-0.637561,0.021787,0.714214,0.257021,-0.115914,-0.959429
0.354531,-0.445840,0.296686,0.923514,0.090437,-0.372751
0.454092,-0.685736,0.592017,0.283455,0.887451,0.363435
0.685173,0.120763,0.842868,-0.426922,-0.277690,0.860596
-0.192270,-0.701710,0.800844,0.055061,0.656249,0.752532
0.281816,0.204579,0.849452,-0.837126,0.486728,-0.249631
0.359437,-0.123348,0.689611,-0.333028,0.567425,0.753075
-0.696812,0.187041,0.744708,0.901868,-0.396629,0.171229
-0.247182,-0.467660,0.215616,0.322633,0.667354,0.671228
0.221917,-0.373169,0.141554,0.274041,0.955859,0.105996
-0.204518,0.170930,0.799947,0.589488,0.768195,0.249763
-0.138777,-0.545903,0.573998,-0.677771,0.673203,-0.295676
-0.474490,-0.281943,0.899824,0.729623,-0.609325,0.310440
0.450077,-0.808503,0.655085,0.593162,-0.791506,0.147234
-0.285343,-0.141770,0.627079,-0.205323,0.469603,-0.858671
-0.180792,-0.618778,0.902627,0.303551,0.843299,0.443513
-0.424121,-0.063663,0.550009,-0.027250,-0.244524,0.969260
0.529647,0.207230,0.741006,0.931342,-0.363668,0.018647
0.615420,0.151828,0.668504,0.043102,-0.921960,0.384879
0.687161,0.269840,0.585623,0.048631,0.494729,0.867686
0.073363,-0.740458,0.906313,0.914911,-0.209324,-0.345141
0.185458,-0.012136,0.461946,-0.103980,0.059411,-0.992803
-0.965609,-0.931274,0.679199,0.963291,0.225799,-0.145206
-0.531795,-0.724414,0.310925,-0.761885,0.182382,-0.621505
-0.710398,-0.771319,0.481745,-0.835642,0.231919,-0.497911
-0.398005,0.584241,0.120102,0.723416,-0.611522,-0.320483
-0.096480,0.354747,0.833732,-0.086780,-0.856254,0.509213
-0.071660,0.096765,0.414645,0.938578,-0.060270,0.339764
0.215914,-0.756366,0.790543,0.975944,-0.105214,0.190956
-0.749250,-0.264882,0.571604,0.850406,-0.060219,0.522669
-0.193649,0.234967,0.764318,-0.083053,0.863107,0.498145
-0.305987,0.067265,0.912661,-0.191246,0.981203,0.025798
0.032120,-0.281399,0.841072,0.782701,-0.282093,0.554800
0.058885,-0.340063,0.297285,-0.183527,0.979005,0.088695
0.118054,-0.196223,0.047363,0.664839,0.746969,0.005201
-0.212020,-0.036338,0.839749,-0.562817,-0.805720,0.184535
-0.161163,-0.232523,0.715994,0.833492,0.390622,0.390775
0.497243,-0.591108,0.541914,0.835762,-0.505088,-0.215377
0.351772,-0.447537,0.729350,-0.651271,-0.513785,-0.558454
-0.300308,-0.049386,0.551742,-0.372641,0.754135,-0.540759
0.349541,0.212263,0.734863,-0.739770,0.484595,0.466806
0.208939,0.051698,0.458402,0.098355,-0.073787,0.992412
-0.509612,-0.926582,0.756159,-0.679805,-0.509624,-0.527398
0.455634,-0.295062,0.889255,0.042354,-0.761629,0.646628
0.377849,-0.507972,0.303538,0.922034,0.142165,-0.360059
0.432193,-0.409672,0.916173,0.615142,-0.472654,-0.631030
-0.159136,-0.356514,0.699313,0.952799,-0.034260,0.301663
-0.191743,0.662758,0.588363,-0.407080,-0.843576,0.350237
-0.734569,0.462967,0.807775,-0.754054,0.332783,-0.566266
-0.663759,-0.128244,0.710654,0.977853,-0.063239,0.199512
0.646688,-0.027363,0.491321,0.967289,0.203187,0.151876
-0.358341,-0.051088,0.861076,0.546425,0.254551,0.797887
-0.394232,0.535161,0.745826,0.107858,-0.395380,0.912163
0.120611,-0.429999,-0.383805,0.982788,-0.181213,-0.035906
0.303514,0.052241,0.710591,0.891785,0.365369,-0.266880
0.476033,-0.401789,0.863644,-0.487387,0.743591,-0.457740
-0.195840,-0.031305,0.547363,0.821945,-0.020351,0.569204
-0.413010,-0.257811,0.168993,-0.391315,0.760037,-0.518860
0.724349,0.209749,0.855500,0.055781,0.510765,-0.857909
0.419661,-0.468817,0.915402,0.796427,-0.548167,-0.255378
0.257281,0.073584,0.801254,-0.680440,0.729081,0.073775
0.590722,0.003772,-0.854587,-0.117400,0.414935,0.902245
-0.106700,-0.697768,0.803522,0.404044,-0.497605,-0.767553
0.477250,0.181672,0.818060,0.971223,0.079559,0.224489
0.740003,-0.433604,0.650769,-0.319254,0.924189,0.209646
-0.502189,-0.685665,0.324077,-0.689974,0.206958,-0.693617
0.578717,-0.368277,0.657526,0.546198,0.790303,-0.277647
-0.255211,0.801774,0.691312,0.757080,0.653163,-0.014406
0.067767,-0.353050,-0.202101,0.888814,0.453115,-0.068528
-0.437139,-0.299684,0.535645,0.480245,0.562558,0.672973
0.401859,0.078820,0.736061,0.026049,0.956342,-0.291087
0.143525,0.127493,0.789488,0.918669,0.268578,0.289676
-0.178644,-0.612998,0.940509,0.796929,0.461264,0.390051
-0.161772,0.062776,0.438965,0.401307,-0.241348,0.883575
-0.585083,0.033886,0.270177,-0.632484,-0.770106,0.083068
-0.204030,0.007713,0.538511,0.787262,0.285644,0.546467
0.064928,-0.565686,0.777312,0.984340,0.018137,0.175345
-0.543840,-0.013426,0.542685,-0.655881,0.028906,-0.754311
0.339972,-0.353726,0.882907,-0.745504,0.515636,-0.422307
-0.186916,0.114033,0.685673,0.637129,0.602433,-0.480772
-0.471612,0.086774,0.680822,-0.816326,0.125797,-0.563727
-0.249088,-0.017575,0.633884,0.795258,0.576609,0.187314
0.946346,-0.111722,0.764901,0.622633,0.090816,-0.777226
0.469421,0.308522,0.741243,0.452226,0.831908,0.321592
-0.760889,0.435571,0.363486,0.710912,0.021580,-0.702950
0.128235,0.369430,0.412157,0.820016,0.164464,-0.548202
-0.402180,0.510416,0.331086,0.747531,0.661687,-0.058032
-0.404128,-0.513138,0.549978,0.748517,-0.144791,-0.647115
0.058319,-0.046055,0.721223,0.394464,-0.795255,0.460399
0.792360,-0.039259,0.523674,-0.447312,0.056253,0.892607
-0.179780,-0.222258,0.721711,-0.646427,-0.501761,-0.574777
