-0.110061,-0.642258,0.671379,0.909992,-0.001422,-0.414622
0.534742,0.264934,0.721383,-0.347803,0.559078,-0.752638
-0.183439,0.008182,0.651430,0.600617,-0.452929,-0.658874
-0.264673,0.316080,0.571185,0.942240,-0.131014,-0.308252
-0.738544,0.563931,0.260012,0.771068,-0.492568,0.403523
-0.809971,-0.109993,0.174702,0.922102,0.355103,0.153718
0.179618,0.645271,0.683774,-0.214892,-0.147241,0.965475
-0.421830,0.511143,0.413047,-0.029849,0.822957,0.567318
0.450735,0.347711,0.401660,-0.001915,-0.601500,0.798871
-0.429846,0.383588,0.651019,0.780043,0.624912,-0.031922
-0.159479,0.752696,0.668928,0.348944,0.305144,0.886073
-0.283692,-0.674027,0.204806,-0.469768,-0.177736,-0.864713
0.036911,0.622334,0.511151,0.835909,0.435405,-0.334184
-0.016100,0.477731,0.675063,-0.261948,-0.728340,0.633170
-0.051214,0.198658,0.849416,0.816639,0.509654,0.270841
0.135821,-0.659033,-0.517896,0.994915,0.092004,0.040982
0.803382,-0.353531,0.317184,0.929457,-0.357563,-0.090878
-0.033918,-0.275068,0.611034,0.144179,-0.677346,-0.721398
0.454399,-0.430694,0.720375,-0.572670,-0.555558,0.602830
-0.082660,0.037623,0.858825,0.494910,0.853711,0.161993
-0.220948,-0.020780,0.812492,0.101323,0.735939,-0.669423
-0.216008,-0.204957,0.700575,0.862530,-0.502316,0.060996
0.877879,-0.229058,0.133422,-0.435073,-0.223140,0.872307
0.061844,0.223238,0.142470,0.537708,0.511229,-0.670459
-0.220500,0.904625,-0.950270,0.517882,0.076249,-0.852047
0.130725,0.429325,0.205080,-0.026965,-0.416014,0.908958
-0.100103,0.030365,0.796339,-0.126915,0.640751,0.757186
0.083034,0.159974,0.843293,-0.411059,-0.445459,-0.795360
-0.207024,0.102667,0.759191,0.707724,-0.583166,0.398803
0.067086,0.455753,0.826343,0.183683,0.963143,0.196508
-0.058252,0.112937,0.674354,0.489600,-0.850102,-0.193955
-0.948187,0.471706,0.446213,0.939139,-0.337019,-0.066605
-0.091946,0.314916,0.831222,0.051879,-0.505522,0.861253
0.161202,0.142583,0.779065,-0.426723,-0.222699,-0.876534
0.112610,0.015029,0.923352,0.930797,0.349206,-0.108040
-0.026432,-0.017904,0.811547,0.759590,-0.649796,-0.028070
0.616726,-0.541885,0.590375,0.899868,0.432778,0.054239
-0.488619,0.543802,0.528735,0.834015,-0.536089,-0.130486
0.598382,0.492862,0.731700,0.380768,0.137326,-0.914416
-0.175652,0.902982,-0.937128,0.554729,0.022097,-0.831738
0.101826,0.723392,0.522276,0.000921,0.094503,0.995524
0.144129,0.199617,0.663452,-0.853861,-0.041428,0.518850
-0.881252,0.399541,0.277472,0.572432,-0.494232,0.654260
0.449460,-0.247955,0.745501,0.351748,0.285595,-0.891464
0.029873,-0.032899,0.852079,0.637679,0.757427,0.140249
-0.086251,0.264455,0.736927,0.574028,-0.515071,-0.636548
0.520439,0.108350,0.734525,-0.358150,0.652510,0.667802
-0.213984,-0.477731,0.617082,0.322082,-0.877061,-0.356410
0.710092,-0.272740,0.610374,-0.668797,0.562980,0.485556
0.613655,0.604806,0.634953,-0.097459,-0.651097,0.752711
-0.088875,-0.306631,0.567539,0.866606,-0.491004,-0.088929
0.502095,-0.207627,0.750044,0.235322,-0.131698,-0.962953
-0.178869,0.442059,0.777037,-0.562871,0.483415,-0.670437
-0.826592,0.034884,0.427832,0.934669,0.189297,-0.300931
0.361184,-0.737702,0.458384,0.503914,0.203562,-0.839424
0.155659,0.193797,0.857157,0.735740,0.618080,0.276883
0.039982,-0.090959,0.856622,-0.365523,0.514568,0.775637
0.650643,0.102941,0.742104,-0.011612,0.498446,0.866843
0.473269,0.120194,0.815678,0.282246,-0.319604,-0.904539
0.409780,0.454863,0.537745,0.188844,-0.593099,0.782669
-0.836627,0.422135,0.274224,-0.649039,0.458445,-0.607105
-0.000375,0.031666,0.913184,0.698797,0.703790,-0.127914
0.750298,-0.404266,0.331446,-0.649075,0.725461,-0.228929
-0.658129,-0.015645,0.342061,-0.679863,-0.237906,-0.693677
-0.441522,-0.556537,0.403950,0.221489,0.036670,0.974473
0.860062,-0.233166,0.317172,0.964302,-0.252487,-0.079820
0.375186,-0.497176,0.703188,0.781660,-0.115600,-0.612898
0.427524,-0.419397,0.521007,0.799990,0.244880,-0.547768
-0.244382,-0.240286,0.452112,0.715685,-0.689113,-0.113659
0.043651,0.146007,0.856049,-0.103496,-0.991053,-0.084277
-0.087453,-0.179624,0.570326,-0.668851,-0.415281,0.616588
-0.615304,0.914484,0.491799,-0.525255,-0.150417,-0.837545
0.105422,0.745849,0.526943,-0.484793,0.474778,-0.734548
0.384769,-0.058711,0.551310,0.471761,0.266943,-0.840347
0.512354,-0.023998,0.141947,-0.051399,0.109021,0.992710
-0.002993,0.167232,0.444620,0.775711,0.627819,-0.064150
-0.459719,0.099038,0.471451,-0.416357,-0.081226,0.905566
-0.298590,-0.349902,0.705416,-0.654789,0.735699,0.173198
0.101003,0.810277,0.529532,0.750313,0.360859,-0.553905
-0.768568,-0.216733,0.359472,0.738142,0.074952,0.670469
0.179769,0.126357,0.771175,-0.190128,0.184449,0.964277
0.473269,-0.700592,0.517597,0.327932,0.412979,-0.849652
0.035640,0.163192,0.921497,0.777169,0.072991,0.625044
-0.297320,0.754065,0.436680,0.031709,0.537713,0.842531
-0.648546,0.645818,0.380616,0.285836,-0.752035,0.593921
-0.032944,-0.039198,0.842397,0.944888,0.203912,0.256138
-0.616278,0.475198,0.365719,0.940119,-0.084449,0.330218
-0.057352,0.048235,0.760211,0.187973,-0.555592,0.809928
-0.252919,0.785766,0.642818,-0.600816,-0.716731,-0.354002
-0.204625,0.549759,0.691304,-0.272601,0.096679,-0.957257
0.396673,-0.164835,0.583281,0.118306,0.672518,0.730563
-0.896223,0.055219,0.369764,0.432018,-0.900189,0.054956
-0.116353,-0.414399,0.565311,0.968201,0.137360,0.209089
1.000000,0.339358,-0.060383,-0.314212,-0.159451,-0.935867
-0.230755,0.191948,-0.016340,0.056072,0.926934,0.371010
0.050913,0.859026,0.517921,0.820694,0.567067,-0.069968
-0.453504,0.629592,0.433046,-0.454946,0.140915,-0.879299
-0.508086,0.726815,0.227917,0.360088,-0.085195,0.929020
-0.912473,0.573038,0.276004,-0.285524,0.160950,-0.944760
-0.441151,-0.474445,0.515693,0.797367,-0.522684,0.301674
-0.013029,-0.131218,0.824066,0.834306,-0.526209,-0.164431
-0.495131,-0.393037,0.389850,0.398423,0.241341,0.884880
-0.059897,0.613091,-0.942940,0.115041,-0.163087,0.979882
-0.438752,-0.412550,0.494624,0.012218,-0.999705,-0.020971
-0.324798,-0.027695,0.136907,0.345875,-0.883197,0.316755
0.893906,-0.156345,0.150123,-0.430640,0.437495,0.789397
0.756440,-0.252405,0.292058,0.635262,0.474476,-0.609356
0.934486,-0.072473,0.155947,0.700138,-0.123616,-0.703226
-0.466980,0.405224,0.652463,-0.058504,0.985403,-0.159871
0.745134,0.314436,0.641623,0.523006,-0.179467,-0.833221
-0.453728,0.157235,0.569592,0.124731,0.711233,0.691802
-0.317011,0.318750,0.525027,0.275662,0.935947,-0.219120
-0.101451,0.684639,0.154230,0.737027,-0.091022,-0.669706
0.529798,-0.744822,0.222690,-0.068743,-0.671677,0.737648
0.032195,0.132724,0.857120,-0.128963,-0.991633,-0.005740
0.081010,-0.349765,0.494163,-0.402318,0.881545,0.247020
-0.134171,-0.489850,0.654106,0.658952,-0.638559,-0.397522
-0.572325,-0.159152,0.580145,0.953783,0.237173,0.184519
-0.307428,0.059943,0.679904,-0.129041,0.672375,0.728876
0.082134,0.841361,-0.937128,-0.222186,0.279156,-0.934187
-0.209044,0.336072,0.627785,0.063757,-0.556595,0.828334
-0.675275,-0.078772,0.596150,0.033332,0.682085,0.730513
-0.470572,0.424806,0.652102,0.444985,-0.649682,0.616361
0.318282,0.185444,0.689935,0.041125,0.897967,0.438137
0.426999,0.057478,0.741556,-0.397001,0.896477,0.196773
0.023137,-0.399815,0.500012,-0.289902,0.229300,0.929182
0.049715,-0.369895,0.500759,0.836182,0.201634,0.510042
0.104371,0.177639,0.778144,-0.235354,-0.447051,-0.862991
0.257713,0.240834,0.163016,0.389746,-0.744130,0.542558
-0.129830,-0.600219,0.674117,0.834465,-0.463744,-0.297674
-0.066414,0.126904,-0.184372,-0.677885,0.707333,0.200380
0.003967,0.186334,0.909525,-0.126462,-0.641942,0.756252
0.059897,0.163603,-0.038679,0.525285,0.843555,-0.111764
-0.331237,-0.391599,0.525562,0.267547,-0.927386,0.261482
0.056602,0.362911,0.803719,-0.151245,-0.720288,0.676986
0.055332,-0.450823,0.278617,0.978088,-0.187997,0.089446
0.243336,0.090000,0.603181,0.196034,0.400933,0.894887
0.259358,0.820273,0.523558,0.295558,-0.827756,0.476933
0.250597,0.462394,-0.946860,0.024026,0.087667,0.995860
0.073826,-0.447263,0.648070,0.387710,-0.260257,-0.884278
-0.785413,0.357297,0.429574,0.281741,0.957519,-0.061474
-0.983302,0.523262,0.465540,0.980090,-0.129601,0.150425
-0.542077,-0.331485,0.397690,0.081943,-0.008889,0.996597
0.066788,-0.615693,0.584762,0.860106,-0.356045,-0.365309
-0.087453,-0.303961,0.565908,0.786326,-0.616642,0.038001
0.099207,0.353668,0.801665,0.666359,0.608556,-0.430842
0.496333,0.219883,0.382147,0.235289,0.480754,-0.844698
-0.366279,-0.283900,0.602173,0.060331,-0.884017,0.463546
0.513552,-0.551128,0.468539,0.294344,0.941251,0.165552
-0.659701,0.292664,0.402482,-0.410139,-0.906067,0.104065
0.066414,0.724419,0.397441,0.328532,-0.484653,0.810666
-0.191148,0.857109,-0.937775,-0.610208,-0.136995,0.780307
-0.433438,0.401595,0.652849,0.593074,0.546672,-0.591112
0.573225,0.334634,0.671466,-0.201549,0.654284,0.728896
-0.591495,-0.519975,0.280745,0.306809,0.777970,0.548299
-0.564017,-0.080963,0.590450,-0.348131,0.510985,0.785938
0.771863,-0.362363,0.629913,-0.678861,0.508493,0.529701
0.312295,0.482455,-0.945529,0.049837,-0.128000,-0.990521
0.704028,0.190168,0.504542,-0.097996,0.646070,0.756961
-0.550088,0.492999,0.671840,0.266086,-0.772435,0.576665
0.356093,0.507514,0.326007,-0.568158,0.077704,0.819243
-0.266697,-0.093355,0.565099,0.029070,0.785723,0.617895
-0.789681,0.099243,0.480686,0.666274,0.609950,0.428999
-0.055707,-0.038718,0.814048,0.894127,-0.245399,-0.374589
0.307351,0.873883,0.500896,-0.249101,-0.145878,0.957428
-0.145180,-0.077060,0.721993,0.961101,0.274013,0.034661
-0.040055,0.050015,-0.177888,0.932696,-0.348088,-0.094409
0.082509,0.005101,0.812642,-0.034460,-0.616032,0.786967
0.061172,-0.067543,0.893434,0.708192,0.447532,0.546058
0.104595,0.187361,-0.016166,0.373146,0.918657,-0.129734
-0.051813,0.597549,0.686550,-0.200030,0.404125,-0.892564
0.542452,0.308548,0.659693,0.785278,-0.617345,-0.047157
-0.055405,-0.560303,0.198186,-0.451481,-0.672250,-0.586723
0.224618,0.372086,0.532917,0.753369,0.166050,0.636288
-0.588950,0.891205,0.437452,0.911216,-0.259036,-0.320290
-0.087974,0.433501,0.650397,0.969134,-0.140782,-0.202385
-0.362906,-0.112663,0.689586,0.932372,-0.069040,0.354847
-0.928345,0.418781,0.533377,-0.356103,-0.087723,0.930320
-0.038561,0.652597,0.411143,0.375120,-0.385698,0.842925
0.343142,0.769607,0.489783,-0.679708,0.394427,0.618405
-0.177073,0.722502,0.676245,0.933989,-0.085734,0.346864
0.499102,0.487727,0.596896,-0.489851,0.490024,0.721056
0.239666,0.863408,0.475148,0.944067,0.282356,-0.170331
-0.092019,-0.726199,0.394106,-0.002082,0.406207,0.913779
0.533691,0.316696,0.669836,-0.469356,0.725277,0.503665
-0.015497,0.305878,0.788523,0.932344,-0.062240,0.356174
-0.236970,0.841909,0.027752,0.702133,0.695873,-0.150900
-0.233378,-0.397419,0.730269,0.818460,-0.573831,-0.029011
0.525082,-0.631714,0.522886,-0.595820,-0.285266,0.750748
-0.120695,-0.787135,0.125109,0.335697,-0.681790,-0.649977
-0.110664,0.686077,0.663813,-0.257519,-0.911046,0.321992
-0.266546,0.050289,-0.084850,-0.266295,0.868754,-0.417557
-0.642107,-0.486769,0.437539,0.565818,0.627567,0.534798
0.333033,0.163192,0.718944,0.761239,-0.641076,0.097656
0.401243,-0.501695,0.706026,-0.665219,0.091732,0.740992
-0.095163,0.469515,0.776750,0.930365,-0.274587,0.242947
-0.067533,0.709561,0.557247,0.966619,0.086527,0.241164
0.701780,0.243573,0.637579,-0.301425,-0.184900,0.935390
0.651690,-0.075828,0.141623,-0.257862,-0.062326,0.964169
-0.459266,-0.051453,0.583157,0.227718,0.130729,0.964912
-0.496780,-0.287323,0.572554,0.959897,0.163229,0.227933
0.141209,0.091164,0.975085,-0.561710,0.509775,0.651623
-0.066711,-0.811509,-0.989720,-0.102374,0.076882,-0.991770
0.128555,0.196946,0.841103,-0.762334,0.145444,-0.630629
0.413746,0.879840,0.500797,0.214373,-0.597091,0.772999
0.021940,-0.728322,-0.007218,0.797227,-0.586312,-0.143764
-0.466756,-0.478690,0.509334,0.899485,-0.436528,-0.019253
0.035713,0.712095,0.705740,-0.264473,0.636833,-0.724222
0.066560,0.190716,0.620467,0.955148,-0.217135,-0.201356
-0.530995,0.773852,0.461794,0.834443,-0.447413,0.321756
0.214436,0.300606,0.640055,0.510978,-0.733439,-0.448295
0.216904,-0.510801,0.362172,0.889138,-0.246017,-0.385887
-0.897873,0.502448,0.541616,-0.399245,0.888680,-0.225502
0.627584,0.156961,0.526184,-0.098967,0.497762,0.861649
-0.062895,0.176201,-0.238731,-0.309529,0.950873,0.005632
-0.684337,0.343809,0.429300,0.045109,0.983241,0.176640
0.153113,-0.186539,0.701110,0.873902,0.399563,-0.276847
-0.236449,0.059532,0.674864,0.025473,-0.984912,0.171168
0.407307,0.315874,0.806145,-0.859038,-0.013216,0.511741
0.093965,0.648078,0.699256,0.546911,-0.489116,0.679451
-0.446165,0.407210,0.650086,-0.196769,-0.947468,0.252164
-0.038935,0.124987,0.544789,0.933701,-0.127693,0.334511
0.711441,-0.123207,0.548660,-0.405653,0.599448,0.690006
-0.581163,0.002499,0.456331,-0.036214,0.756537,0.652947
-0.530246,-0.192017,0.605882,0.042838,0.644591,0.763326
-0.825993,0.408921,0.258942,-0.539268,0.671198,-0.508609
-0.374889,-0.046661,0.639134,0.786731,-0.494210,0.369879
0.062145,0.176543,0.933557,0.784784,0.561512,0.262333
-0.142634,0.172435,0.884299,0.567467,0.789183,-0.234887
0.061021,0.457807,0.729597,-0.503761,0.696500,-0.510992
-0.408655,-0.445757,0.391816,0.388223,0.505623,0.770472
-0.194068,-0.037554,0.771200,0.935541,0.130699,-0.328146
0.204479,0.095820,0.742626,0.830521,0.507659,0.229166
0.266396,0.579884,-0.952149,-0.083586,-0.059031,0.994751
-0.107369,0.713943,0.152811,0.737027,-0.091022,-0.669706
-0.043574,0.323337,0.329903,0.658652,0.729929,-0.182705
-0.929469,0.573448,0.280484,-0.268510,0.176427,-0.946983
0.378558,0.816439,0.516838,-0.658819,0.424346,-0.621199
-0.104673,-0.688816,0.691216,-0.626761,0.774161,0.088572
0.017443,0.312862,0.572703,-0.408904,0.276304,0.869743
-0.362011,-0.301428,0.690009,0.315271,-0.913306,-0.257831
-0.672432,0.618979,0.616497,-0.703028,0.039268,-0.710077
-0.226638,-0.006881,0.757448,0.848484,0.468934,0.245307
-0.479109,0.875526,0.480922,0.481130,0.358177,-0.800139
0.153264,0.385574,0.685143,0.161977,-0.119781,0.979498
-0.893230,0.288419,0.509645,0.431947,0.445147,-0.784389
0.308923,0.703468,0.476902,0.987975,-0.080108,-0.132239
0.021789,0.142789,0.317209,0.986004,0.161288,0.042204
-0.608267,-0.079593,0.137840,0.493033,-0.779411,0.386570
0.328692,-0.887097,-0.987431,-0.097773,-0.185088,0.977846
-0.247604,-0.250967,0.727145,0.992789,0.118298,0.019373
0.313940,0.693403,0.504094,-0.691187,0.352376,-0.630945
0.250374,0.153196,0.879334,-0.169110,0.630294,-0.757715
0.520215,0.280134,0.571471,0.028803,-0.607875,0.793510
0.905285,0.439663,-0.073251,-0.367517,-0.069620,-0.927407
-0.813714,0.157851,0.479055,0.074094,-0.696373,0.713845
0.214285,0.102804,0.901362,-0.777812,0.539784,-0.321935
0.060423,0.580774,-0.229783,0.835885,-0.322869,-0.443905
-0.653412,0.266578,0.507529,0.897743,-0.283811,-0.336910
-0.213687,-0.298347,0.715185,0.951913,-0.260814,0.160737
-0.218554,-0.058505,0.653234,0.807820,-0.295608,-0.509944
-0.169588,0.225771,0.823257,-0.575249,-0.745096,0.337521
0.614180,0.313409,0.407061,0.327004,0.491074,-0.807412
-0.384097,-0.051864,0.523932,0.362397,-0.848445,-0.385759
0.699234,0.717504,0.641648,0.998992,0.000713,-0.044881
0.566037,-0.237616,0.759527,-0.276466,0.825687,0.491740
-0.212640,-0.697854,0.226075,0.115753,0.121599,0.985807
0.265947,0.959673,0.505078,0.071013,-0.997414,-0.011108
-0.342319,-0.349355,0.224743,-0.518821,-0.217679,-0.826705
-0.235325,-0.118346,0.699766,0.744396,0.626047,-0.232249
0.709791,0.152169,0.730518,0.201578,0.215876,0.955387
0.076970,0.139297,0.913396,-0.466971,-0.878410,0.101654
-0.361261,0.019137,0.115713,0.265283,-0.961803,0.067525
-0.052412,-0.252816,0.606989,-0.281708,0.636588,0.717911
0.076070,0.079730,0.976168,0.045652,0.893739,0.446259
0.307725,0.207285,0.712037,-0.070085,0.975406,0.208975
0.465184,0.569820,0.333537,0.524692,0.098632,-0.845559
-0.692873,-0.426654,0.426127,0.767402,0.433316,0.472580
0.064316,0.276711,0.903539,0.821983,0.550779,0.144864
0.079141,-0.359214,0.494935,-0.402318,0.881545,0.247020
0.373166,-0.461847,0.514822,0.795030,0.323773,-0.512931
-0.122865,0.190921,0.918648,-0.099812,0.716057,0.690869
-0.186510,0.425833,0.342285,-0.256309,-0.824584,0.504348
-0.277254,-0.326897,0.702827,0.767149,-0.441204,-0.465641
-0.262726,-0.723460,0.307278,0.869093,-0.159409,0.468259
0.778750,0.599534,0.215721,-0.092141,-0.352509,0.931261
0.529876,-0.718599,0.514113,-0.563229,-0.579584,0.588944
-0.043802,0.456095,0.750131,0.960088,-0.238984,0.145319
-0.374587,0.603026,0.624001,0.125044,0.074977,-0.989314
0.020592,0.112047,0.983286,0.970852,-0.221698,-0.091083
0.221922,-0.308959,0.466809,0.809781,0.491454,-0.320512
0.238771,-0.303892,0.713182,0.599270,0.423522,-0.679341
-0.197587,-0.182431,0.742614,0.733828,-0.422558,-0.531921
-0.342392,0.000582,0.701222,-0.468018,-0.626477,-0.623286
0.008386,-0.891890,0.396620,0.516981,0.201865,0.831854
0.106094,-0.297320,0.256590,0.518257,0.586765,0.622186
-0.771114,0.346274,0.452386,0.942896,0.282043,-0.177199
-0.230906,-0.331348,0.717799,0.806729,-0.561456,0.184270
-0.175652,0.315737,0.721371,-0.097126,-0.846818,0.522940
-0.914571,0.489439,0.383926,-0.704263,-0.668435,0.239181
-0.083857,0.346205,0.330562,0.603682,0.742654,-0.289883
0.237423,0.223238,0.777559,-0.060077,-0.857048,0.511722
-0.193397,0.677245,0.434988,0.421279,-0.280030,0.862617
0.080036,0.285612,0.841464,-0.931814,0.319584,0.172014
0.316934,-0.861901,0.356721,0.264465,0.679812,-0.684042
-0.835576,-0.139913,0.381524,-0.707302,-0.204931,-0.676556
-0.091868,-0.281640,0.803930,0.043551,0.940868,0.335962
0.691000,0.460820,0.601800,-0.131256,0.539040,-0.831990
0.024033,0.111910,0.905568,0.995868,-0.001465,0.090802
-0.585426,0.304714,0.004630,0.609221,0.430116,0.666220
-0.182763,-0.122591,0.700911,0.779506,0.060611,-0.623455
0.145550,-0.089590,0.761144,0.787833,0.615624,0.018067
0.426249,-0.097326,-0.957351,0.183696,-0.208882,0.960533
-0.048815,0.381397,0.612253,-0.115817,0.384178,0.915966
0.353474,-0.031324,0.000174,0.778405,0.527704,-0.340021
-0.120320,0.824518,0.155985,0.540434,0.736626,0.406586
0.037587,-0.075006,0.920676,0.268369,0.943349,0.195119
-0.601229,0.286365,0.008512,-0.447479,-0.825685,0.343521
-0.105422,-0.765157,0.388232,-0.163653,0.074771,0.983680
0.254043,0.498682,0.673657,0.201074,-0.473191,0.857706
-0.188306,0.792065,0.677876,-0.701630,-0.707866,0.081497
-0.002472,0.039814,0.886116,-0.069995,0.395561,0.915768
-0.926398,0.182500,0.361463,0.339589,0.266253,-0.902103
-0.840521,0.457328,0.270291,-0.464699,0.490345,-0.737304
0.680891,-0.506145,0.320245,0.348531,-0.884389,0.310455
-0.521261,-0.322652,0.580905,0.583919,0.811346,0.027490
0.031148,0.760638,0.710680,-0.330214,0.303713,-0.893710
-0.060871,0.192222,-0.239005,-0.309529,0.950873,0.005632
0.532494,0.426654,0.719068,0.438129,0.308408,-0.844350
-0.048591,0.740098,0.646626,-0.083404,-0.920270,0.382291
0.638588,0.199274,-0.046133,0.159809,0.071089,0.984585
-0.135967,-0.159495,0.686500,-0.466570,0.839889,0.277305
0.278826,0.537571,0.656234,0.840427,0.115052,0.529571
-0.268045,0.438362,0.226274,0.266287,0.532855,0.803216
0.568655,-0.159563,0.740697,0.120353,0.759632,0.639120
-0.535487,0.401732,0.573911,0.698451,0.531587,-0.479146
0.088198,-0.070419,0.907509,0.860645,-0.461243,-0.215745
-0.353397,-0.245010,0.453904,0.059837,0.998196,-0.004874
0.561846,-0.297388,0.286756,0.237923,0.543474,-0.805003
-0.507488,-0.232002,0.558690,0.940171,-0.223046,-0.257543
-0.085278,-0.178323,-0.241021,0.988147,-0.144791,-0.051006
-0.053161,0.261306,0.709660,-0.616793,-0.421798,0.664570
0.074946,-0.023998,0.788150,0.732831,0.410357,0.542739
0.532046,-0.703605,0.516577,0.539542,0.412525,-0.733973
-0.392556,-0.484030,0.410484,0.910205,0.145427,0.387786
0.032496,-0.097189,0.916084,0.813736,0.578941,0.051588
0.031445,0.011057,0.801516,0.572260,0.283794,-0.769402
-0.061620,-0.301838,0.569567,0.752065,-0.635287,-0.175523
-0.878030,0.606107,0.554621,0.361739,0.617781,-0.698206
0.769167,0.005306,-0.031050,0.857878,0.474221,0.197889
0.629603,0.437130,0.719678,0.574893,0.444320,-0.687079
0.305258,0.098833,0.646091,-0.044481,-0.838953,0.542383
0.542977,0.176132,0.507753,0.093043,0.359082,0.928657
0.065738,0.726062,0.455484,0.531745,0.841672,-0.093993
-0.203354,-0.037897,0.552816,0.136880,0.754197,0.642223
-0.395028,-0.252063,0.599622,-0.138033,-0.986658,-0.086329
-0.319109,-0.231385,0.670023,-0.501626,0.862681,-0.064441
0.136566,0.288830,0.854718,-0.741808,0.623621,-0.246614
-0.053760,0.399267,0.773179,0.960299,-0.246897,0.129876
-0.132224,-0.912293,0.380006,0.667030,0.697038,-0.263078
0.050991,0.968094,-0.929425,0.179427,0.354821,0.917555
0.044026,0.698949,-0.115389,0.999896,-0.006403,0.012919
-0.124661,-0.167574,0.766396,0.770923,-0.622043,-0.136897
0.339847,0.095546,0.811098,0.035539,-0.881995,0.469917
-0.574199,0.584061,0.432860,0.137372,-0.614352,0.776981
-0.147872,0.740646,0.670172,-0.518341,0.640701,0.566413
-0.194895,-0.070966,0.512793,0.934361,0.197355,0.296683
-0.726713,-0.228989,0.267566,0.274641,0.829616,0.486117
0.613732,-0.412002,0.404311,0.284261,0.951201,0.120050
-0.146674,0.113827,0.780073,0.823563,0.554200,-0.120858
-0.032496,0.433638,0.050763,0.977060,0.123528,-0.173481
-0.146002,0.109993,0.740038,0.808596,-0.381698,0.447749
-0.171457,0.743453,0.750728,-0.444097,-0.891161,0.092788
0.503069,-0.701345,0.511225,-0.024764,-0.939397,0.341935
0.740413,0.230701,0.056127,-0.404534,0.010564,0.914462
0.514598,-0.598576,0.441957,-0.549771,0.444394,0.707294
-0.101076,-0.372360,0.498880,0.060522,-0.871506,0.486636
-0.183215,-0.055424,0.656943,-0.453156,0.889606,-0.057018
0.228662,0.255554,0.840108,0.951092,0.226209,-0.210363
-0.102648,-0.652049,0.304702,-0.692675,0.512293,-0.507698
-0.608189,-0.128958,0.231774,-0.102666,0.207323,0.972871
-0.032871,0.142446,0.873671,0.892430,-0.244481,0.379206
0.257114,0.631783,0.666177,0.088898,0.995480,-0.033421
-0.680964,0.371538,0.516714,0.447058,0.102599,0.888602
0.226039,0.421451,0.667285,-0.614057,0.536555,-0.578829
-0.011607,0.098559,0.099423,0.699769,-0.706780,-0.103858
0.081010,0.566944,0.608507,0.782438,0.419229,0.460476
0.276879,0.475951,0.305311,0.875245,-0.282471,-0.392626
-0.727389,-0.055287,0.197924,0.866426,0.482290,-0.129234
-0.678419,0.675396,0.455298,-0.442540,0.367455,-0.818007
-0.027405,-0.036938,0.812492,-0.790211,0.583991,0.185799
0.255240,-0.408784,-0.963499,-0.023381,-0.207300,0.977998
-0.218554,-0.037075,0.552891,-0.213647,-0.833281,-0.509899
0.387542,-0.484509,0.703674,0.772465,-0.123871,-0.622860
0.458668,-0.232618,0.740249,-0.502433,0.222870,0.835398
-0.410378,-0.064462,0.708142,0.758325,0.650121,-0.047812
0.165319,-0.188799,0.705354,0.875403,0.079160,-0.476868
0.036911,0.590086,-0.950457,-0.019573,-0.126486,0.991775
-0.264302,0.836842,-0.950793,-0.563921,-0.106066,0.818989
0.771264,-0.478484,0.364736,-0.327381,0.927697,-0.179446
-0.947515,-0.047893,0.370050,0.334142,0.673496,0.659357
-0.024632,0.327514,0.762426,0.803900,0.573440,0.157831
0.125635,-0.199685,0.744929,0.813755,-0.409025,-0.412918
-0.938604,0.249050,0.435697,0.914450,-0.283751,0.288560
-0.631102,0.616240,0.611295,0.847741,0.255937,0.464577
0.094564,0.358050,0.626914,-0.476370,-0.488707,-0.730915
0.917637,0.329088,0.518568,-0.002332,-0.287091,0.957901
-0.235174,0.388997,0.755718,-0.489932,0.781005,0.387296
0.030248,0.070556,0.879048,0.621395,0.547966,-0.560002
0.088724,0.081579,0.925592,-0.646448,0.625612,0.436709
0.296419,-0.493478,0.688006,0.855555,-0.106222,-0.506698
0.622040,-0.768033,0.534721,0.783487,0.172934,-0.596860
-0.169661,-0.123960,0.467979,-0.627489,0.776658,-0.055321
0.210319,0.712916,0.504219,0.787800,-0.277512,0.549871
-0.359388,0.105611,0.563158,0.747328,0.121563,0.653241
-0.725740,0.274314,0.466834,0.874588,0.423259,-0.236532
-0.938453,0.505803,0.438696,0.886884,0.319798,0.333416
-0.222072,0.070419,0.757859,0.806686,-0.590557,0.022372
0.102127,-0.391736,0.654827,0.822181,0.376577,-0.426859
-0.275832,-0.103625,0.646004,0.679617,0.014967,-0.733415
0.204104,0.285885,0.278405,0.932403,-0.250178,-0.260836
-0.007787,0.048372,0.854357,0.828319,0.556426,-0.065398
0.007787,0.048098,0.468639,0.885660,-0.463804,0.022214
-0.384248,-0.377152,0.500423,0.972917,-0.091662,-0.212206
-0.281371,0.010647,0.786557,0.912254,0.154935,0.379195
-0.430965,-0.367225,0.697277,0.330673,0.840305,0.429584
-0.383421,0.856287,0.481768,-0.257410,-0.508429,0.821730
-0.030847,0.174558,0.898313,0.393730,0.881573,-0.260396
-0.903187,0.286912,0.363940,-0.740483,0.654657,-0.152018
-0.312218,0.359146,0.704570,0.837438,0.527839,0.141718
0.128409,0.781315,0.524616,-0.019000,-0.646749,0.762467
0.024933,0.738112,-0.939543,0.227011,-0.445012,0.866274
-0.259207,0.737154,0.630921,0.943467,0.247704,0.220258
0.258161,0.244120,0.696754,-0.574568,0.377727,-0.726081
-0.110961,0.520249,0.599622,0.982552,0.072631,0.171222
0.000375,-0.027695,0.855029,-0.477634,-0.254018,-0.841035
-0.549339,-0.205094,0.612950,0.565625,-0.783228,-0.258114
0.167042,0.547636,0.583705,0.820821,-0.520174,0.235949
-0.301510,0.364760,0.713804,-0.674145,-0.736911,-0.049909
0.435384,0.221047,0.384909,0.069338,0.596700,-0.799463
0.040206,0.197973,0.944073,0.644727,0.743827,-0.176207
-0.340071,-0.293691,0.469448,-0.269298,0.695801,0.665838
0.483377,0.195645,0.027118,-0.461800,-0.341649,0.818546
-0.107515,0.643285,0.620741,-0.061157,-0.911761,0.406143
0.445644,0.652186,0.614556,0.832574,0.109747,-0.542933
0.425724,-0.518401,0.708540,-0.665219,0.091732,0.740992
-0.677820,-0.494095,0.436568,0.565818,0.627567,0.534798
0.885145,-0.096094,0.555815,0.161357,0.368233,0.915625
-0.149521,-0.496765,0.672524,0.992711,0.090961,-0.079058
0.126009,0.051932,0.935100,0.894615,-0.441919,-0.066115
-0.652142,0.553045,0.427745,0.142697,-0.758236,0.636173
-0.693472,0.155934,0.306332,0.869289,0.099448,0.484197
-0.044547,-0.021807,0.702666,0.733691,-0.599046,-0.320689
-0.366878,-0.200438,0.545822,0.778581,-0.469583,0.416298
0.205900,0.502037,0.679381,0.654790,0.574309,0.491344
0.501798,0.168122,0.816213,0.268743,-0.146932,-0.951939
0.017745,0.303618,0.788523,0.923367,-0.383339,-0.021092
0.085507,0.677039,0.523322,0.542626,0.053347,-0.838279
0.569556,-0.430420,0.561204,0.979713,0.189265,-0.065893
-0.100254,-0.037897,0.865906,-0.765906,0.127724,-0.630139
0.777704,0.463627,0.602969,0.364599,0.164167,0.916579
-0.538860,0.239328,-0.001481,0.575337,0.288262,0.765436
-0.693243,0.874294,0.499241,0.592866,-0.497157,0.633517
0.290506,-0.450070,0.680526,0.880945,0.320666,-0.348008
-0.404986,0.275752,0.628121,0.648405,-0.288225,0.704626
-0.666441,0.866352,0.490094,0.457631,-0.725883,0.513486
-0.139714,-0.203725,0.775680,-0.654041,-0.426830,-0.624538
-0.043724,0.604669,0.406551,-0.528992,0.403915,-0.746338
-0.294400,0.340317,0.704084,0.924879,0.252208,0.284589
-0.309974,-0.006059,0.680389,-0.335584,-0.437098,-0.834463
0.412101,-0.155250,0.580033,0.151930,0.693248,0.704503
-0.047097,0.080552,0.871444,0.931684,0.057341,0.358716
-0.674379,0.317312,0.008438,0.010423,-0.589973,0.807356
-0.539458,-0.394885,0.395724,0.799080,0.545741,0.252265
-0.328692,-0.089384,0.568298,-0.252255,-0.585602,-0.770349
0.036088,0.474513,0.151505,0.751917,0.326159,-0.572924
-0.976789,0.334840,0.459629,0.992294,-0.116583,-0.041954
0.595686,0.429051,0.598900,-0.130802,-0.589459,0.797138
-0.336401,0.014960,0.691353,-0.309856,-0.904870,-0.291889
-0.117327,-0.613296,0.660838,0.940437,-0.337430,0.041459
0.003222,-0.524426,0.610399,0.726101,0.476455,0.495751
-0.068507,-0.168532,0.755918,0.675360,-0.543767,-0.498203
0.038337,0.704906,0.707868,-0.449339,0.548568,-0.705101
-0.773732,0.083496,0.469622,-0.293016,-0.934289,0.203089
0.110888,-0.449043,0.491363,0.604412,0.788024,0.117065
-0.711441,0.301291,0.483274,0.804768,0.471544,0.360547
-0.269393,0.311835,0.221122,-0.157093,-0.333487,0.929574
-0.350481,0.680463,0.441521,-0.008304,-0.054084,0.998502
-0.946839,0.457465,-0.030266,0.588339,0.763898,-0.265173
-0.255240,-0.236657,0.460014,0.723127,-0.655036,-0.219125
-0.603176,0.603026,0.613896,0.697943,0.628645,-0.343046
0.266172,0.603779,0.540882,0.787073,0.284516,-0.547327
-0.736296,0.932902,0.507554,-0.308006,0.937419,-0.162412
0.454550,0.666427,0.446537,0.925774,-0.299935,0.230178
0.657832,-0.000240,0.143839,-0.260909,-0.191022,0.946275
0.038634,0.101161,0.894405,-0.134154,-0.812992,0.566609
-0.731429,0.742426,0.460662,0.240263,-0.128857,0.962117
-0.831011,-0.206463,0.248799,0.607354,0.716620,-0.342895
0.231957,0.303208,0.858999,0.042783,-0.860454,0.507728
-0.492887,-0.198590,0.684247,-0.464698,-0.515135,-0.720202
-0.038259,0.219404,0.824427,0.986525,-0.103244,0.126919
-0.349654,0.126904,0.780795,0.966171,0.153593,0.207176
0.841494,-0.107254,0.563917,-0.150719,-0.401958,-0.903169
-0.671532,-0.199959,0.145382,0.789929,-0.248483,0.560597
-0.275458,0.122112,0.639744,-0.514135,0.819412,-0.253435
-0.236970,0.482318,0.694477,-0.601590,0.045976,-0.797481
0.027926,0.111568,0.611606,0.936428,0.081039,-0.341374
0.431043,0.094108,0.813786,-0.231824,0.972525,-0.021283
-0.120320,0.656910,-0.947769,-0.206094,-0.315804,0.926171
-0.348009,-0.011537,0.616360,0.090978,0.991956,-0.088014
0.169811,0.512855,0.567414,-0.211587,-0.746834,0.630452
-0.004565,0.556674,0.681198,-0.495754,0.682329,-0.537267
-0.115755,-0.563658,0.652587,-0.652700,0.458833,0.602873
-0.574048,-0.413577,0.386390,-0.443247,-0.475612,0.759819
0.148100,0.052823,0.569381,0.477888,0.878091,0.024079
0.469375,0.778371,0.340892,0.569737,0.142838,-0.809319
0.505317,-0.673000,0.517908,0.399817,0.462815,-0.791169
-0.506213,0.383588,0.647896,0.008804,0.882029,-0.471113
-0.092243,0.156277,0.737325,0.535300,-0.618396,0.575361
-0.070604,-0.342713,0.553688,0.808548,-0.311339,0.499318
-0.073374,-0.257882,0.604587,-0.533891,0.654200,0.535708
0.051438,0.103009,0.969286,0.584313,-0.146382,-0.798217
-0.433812,-0.322995,0.587363,-0.545087,0.834741,-0.078023
-0.217877,0.410701,0.735881,-0.014125,-0.402016,0.915524
-0.264750,-0.699908,0.221856,0.115753,0.121599,0.985807
0.043350,0.168669,0.890970,-0.128571,-0.453922,-0.881717
-0.824796,0.294444,0.427247,-0.401964,0.842782,0.357971
-0.121220,-0.065694,0.730293,-0.389333,0.724241,0.569118
0.168016,0.176132,0.899968,0.167458,0.772369,-0.612702
0.008162,0.114649,0.492309,-0.096180,-0.959857,0.263484
0.195640,-0.332649,0.762327,0.465060,-0.146895,-0.873007
0.814240,0.351683,0.517162,0.142276,-0.209263,0.967454
0.174454,0.136353,0.185106,-0.641677,0.766903,0.010520
0.038857,0.444867,0.815790,-0.352657,-0.859795,0.369304
-0.161426,0.636507,-0.932511,0.287003,0.279775,-0.916163
-0.674155,0.387491,0.383217,0.070937,0.684963,0.725116
-0.112610,0.358461,0.676370,-0.632924,-0.135163,-0.762324
0.250300,-0.313204,0.495619,-0.084060,-0.689443,0.719446
-0.543050,-0.324638,0.589205,-0.748510,-0.652331,0.119152
-0.103101,-0.128000,0.735931,-0.020801,-0.672432,0.739866
0.359013,0.188183,0.732596,-0.227231,0.448950,0.864182
0.072478,0.510458,0.590002,0.954479,0.011108,0.298073
-0.028379,0.076307,0.877766,0.798599,0.399580,-0.450084
0.037884,0.734552,0.513266,0.926849,-0.013787,-0.375182
-0.701858,-0.162781,0.352279,0.587599,0.232378,0.775066
0.360137,0.609736,0.549295,-0.400881,0.117205,0.908602
-0.217731,-0.829448,0.113884,-0.393481,0.662370,0.637525
-0.386569,-0.194071,0.211601,0.547001,0.228960,0.805213
-0.297169,0.821095,-0.951552,0.515237,0.044010,-0.855917
-0.569405,-0.254048,0.413134,-0.355194,-0.675223,0.646460
0.100628,0.150183,0.681796,-0.583034,0.788090,-0.197448
-0.049642,0.682654,0.003858,-0.607206,-0.507688,0.611190
0.081759,0.196672,0.920216,0.001972,0.241385,0.970427
0.283619,0.193044,0.372178,-0.197953,-0.803318,0.561689
0.409181,-0.020917,-0.055616,0.106894,0.008871,-0.994231
-0.306080,-0.235083,0.674615,-0.263233,0.891423,0.368881
0.712862,0.203519,0.731438,0.260378,0.435632,0.861643
-0.047321,-0.258019,0.563531,0.378064,-0.881412,-0.283160
-0.263251,0.311972,0.735769,0.685514,0.469599,0.556369
-0.125411,0.077060,-0.180651,0.975517,-0.193899,-0.103774
-0.485173,0.150731,0.543433,0.242451,0.567300,0.787012
-0.058252,-0.797268,0.286358,0.790435,-0.089339,0.605996
0.227538,0.214816,0.852117,-0.436073,0.247264,-0.865275
-0.440699,-0.375509,0.554845,-0.431052,-0.899522,-0.071090
0.111710,0.127794,0.934627,0.541249,0.828263,0.145018
-0.657530,-0.481360,0.433009,0.565818,0.627567,0.534798
0.036463,0.471364,0.177290,0.603469,0.335799,-0.723232
0.541405,-0.410770,0.603940,0.799454,0.583791,-0.141642
-0.605945,0.598918,0.604500,-0.747781,-0.651182,-0.129564
-0.276728,0.498887,0.369527,0.366704,-0.468564,0.803726
-0.308402,-0.047140,0.588820,0.331789,-0.926605,0.176972
-0.250524,-0.270617,0.705030,0.869339,-0.353162,-0.345725
-0.130652,-0.678751,-0.991388,0.097678,0.145907,-0.984464
0.061995,0.396940,0.809817,-0.381094,-0.803844,0.456729
-0.236075,-0.026257,0.364475,-0.667973,0.327131,-0.668429
-0.237569,-0.062545,0.053103,-0.667765,0.613896,-0.420978
-0.298965,0.690596,-0.951228,-0.160896,0.011073,0.986909
-0.068210,-0.390093,0.563482,-0.632913,-0.497232,-0.593449
0.251795,-0.442128,0.669301,0.963994,0.233051,-0.128075
-0.692348,-0.425353,0.395736,-0.613731,-0.217433,0.758984
-0.249473,0.667728,0.157988,-0.676575,0.555571,-0.483308
0.143832,0.142241,0.927309,0.092790,-0.928866,-0.358606
-0.138513,-0.266441,0.750964,-0.668871,0.368919,0.645376
-0.079813,0.483003,0.608955,0.515194,0.231933,0.825095
-0.790728,0.099380,0.465739,-0.172578,0.678511,-0.714031
-0.596659,-0.174694,0.399856,0.146459,-0.827050,0.542713
-0.103398,-0.510664,0.641511,0.016196,0.999863,0.003270
0.083784,0.310876,0.500373,0.887652,-0.313502,-0.337329
-0.343589,-0.285064,0.660440,0.053874,0.593878,0.802750
-0.675649,0.721680,0.453207,-0.451452,0.651909,-0.609266
-0.398995,-0.268084,0.402021,0.342107,-0.450981,-0.824366
0.156856,0.343535,0.863093,-0.082075,0.820520,-0.565695
0.031820,0.164082,0.766620,0.979062,0.081473,0.186546
-0.396303,-0.259046,0.467768,-0.020335,0.658730,0.752104
-0.496557,0.631988,0.376123,-0.220223,-0.517567,0.826817
0.715032,-0.365513,0.357593,0.276823,-0.942491,0.187295
0.715485,0.299168,0.636683,0.662029,-0.262667,-0.701943
-0.280923,-0.318818,0.706934,0.715100,-0.478215,-0.509846
0.415542,-0.089932,0.721818,0.740984,0.149452,0.654680
-0.372718,0.191332,0.782488,0.893667,0.237299,0.380852
-0.383347,0.261990,-0.037646,0.303366,0.945101,0.121464
0.159854,-0.359146,0.644199,-0.281373,0.516164,0.808952
0.332361,0.457259,0.537721,0.273038,-0.236898,0.932378
0.853997,0.189278,0.511624,-0.163318,-0.097876,0.981706
0.441974,0.325733,0.815317,0.884450,-0.136199,-0.446316
0.316413,-0.535312,0.695472,0.634129,0.037873,-0.772299
0.501798,0.382630,0.404485,-0.016337,-0.720578,0.693181
-0.008162,0.059943,0.866429,-0.283812,-0.525967,0.801754
0.632674,-0.428640,0.621525,0.753186,-0.040542,-0.656557
-0.106619,0.251241,0.847239,-0.567492,-0.645425,-0.511253
-0.714808,0.139776,0.484904,-0.337818,-0.677568,-0.653285
-0.786985,-0.221321,0.238980,0.522715,0.746079,-0.412474
-0.346958,0.253911,0.344214,0.134667,0.785307,0.604283
0.006663,-0.865736,-0.996416,0.123765,-0.137164,0.982786
0.193022,0.709493,0.465739,0.113504,-0.983598,0.140186
-0.010332,0.411934,0.722391,-0.463884,0.568698,-0.679261
0.050241,-0.352847,0.503895,0.651646,0.558263,0.513518
-0.093518,0.075143,0.838801,0.803287,-0.111531,-0.585057
0.763925,-0.318887,0.295343,0.829152,0.366228,-0.422355
0.049642,0.640820,0.099037,-0.520578,0.530224,-0.669224
0.027629,0.139365,0.884810,0.105322,-0.495691,0.862089
-0.931712,-0.006333,0.504318,0.792158,0.131668,-0.595943
0.207248,-0.143953,0.752993,0.624990,0.022760,-0.780301
-0.869645,0.280066,-0.023459,0.759162,0.554264,-0.341269
0.022913,0.095135,0.913844,0.816902,-0.576736,-0.006823
-0.156033,0.363322,0.334694,0.117439,-0.663083,0.739276
0.895999,-0.147718,0.558665,0.101341,0.398847,0.911401
-0.538033,-0.018110,0.580830,-0.085628,0.323479,0.942353
-0.478958,0.856972,0.466598,0.576381,0.440670,-0.688182
-0.503594,0.613844,0.440986,-0.198763,0.711157,-0.674351
0.124661,0.457465,0.508637,0.948607,0.192608,-0.251092
-0.605644,0.408784,0.561416,0.940921,0.324935,-0.095313
0.333856,0.205299,0.726348,-0.614364,0.655168,-0.439672
-0.024184,0.611722,0.715335,-0.467227,0.172877,-0.867071
0.424526,0.215296,0.381300,0.139206,0.626692,-0.766732
0.044698,0.134710,0.933494,-0.637101,0.387281,-0.666420
0.322628,-0.478621,0.054185,0.547076,-0.740841,-0.389694
-0.538709,-0.329020,0.392936,0.114583,-0.184050,0.976215
-0.227913,0.778987,0.755519,0.480991,0.873190,-0.078659
-0.242139,0.702167,0.575727,0.172367,-0.605244,0.777155
-0.177749,0.107323,0.644822,-0.408228,0.448280,0.795233
0.501423,-0.144158,0.272245,0.150673,0.933062,-0.326638
0.247604,-0.716066,0.458409,0.489733,0.293444,-0.821007
0.028827,-0.001198,0.345645,-0.671532,0.120422,-0.731125
-0.683811,0.835747,0.484394,0.264926,-0.773542,0.575714
0.037285,0.162370,0.908853,-0.537035,-0.130744,0.833366
0.031299,-0.750916,0.363193,-0.662839,-0.430256,-0.612801
-0.837450,-0.140598,0.378152,0.771405,0.401456,0.493728
-0.231879,0.197905,-0.056450,-0.074183,-0.924343,0.374282
-0.170035,-0.069323,0.725577,0.722823,-0.611633,-0.321608
-0.030696,0.028174,0.849230,0.641133,0.580589,0.501862
0.375112,0.252063,0.889091,0.050503,-0.708906,0.703493
0.300016,0.272192,0.573736,-0.402632,0.289624,0.868335
-0.178947,-0.134299,0.334769,0.325953,-0.919639,-0.219130
-0.772384,0.401527,0.092951,0.054273,0.481155,0.874954
0.224919,0.216186,0.037086,-0.291361,0.711489,-0.639447
0.155809,0.198658,0.194452,-0.705023,0.693977,-0.146081
0.195042,0.608435,-0.943189,-0.190621,-0.097768,0.976783
0.429695,0.310123,0.595291,-0.605864,0.348750,-0.715054
0.635142,-0.282462,0.285673,0.403280,0.452702,-0.795252
0.885443,-0.142720,0.151592,-0.559646,0.355695,0.748517
-0.183361,0.477731,0.411479,0.586669,0.656701,0.473881
-0.855044,-0.068365,0.183513,0.840381,0.517025,0.162617
-0.281074,0.099791,0.767354,0.936703,0.096871,0.336458
0.071427,0.327856,0.849491,0.959235,0.281832,0.020938
0.115229,0.428777,0.505750,0.989355,0.060412,-0.132393
-0.716906,0.816371,0.481855,-0.556089,0.556499,-0.617311
-0.619344,-0.403239,0.265052,-0.521786,-0.008802,-0.853031
0.807874,0.337304,0.650994,0.163032,-0.338443,0.926756
0.750522,0.453699,0.069368,-0.328250,-0.145923,0.933251
0.035490,0.252953,0.907086,0.919901,-0.179110,-0.348857
0.218330,0.836158,0.528287,-0.352827,0.708005,-0.611753
-0.371141,0.609736,0.572517,-0.435222,0.062165,-0.898174
-0.470801,-0.043306,0.457513,0.847663,0.240397,0.472946
-0.247901,0.027490,0.759328,0.990446,0.091467,0.103205
-0.173106,0.742837,-0.940339,0.535573,0.172967,-0.826586
-0.135670,-0.175037,0.688031,-0.359581,0.922611,0.139607
0.364702,0.269179,0.394044,0.063227,-0.630098,0.773938
0.577790,0.639519,0.626801,-0.757806,0.279366,0.589647
0.030550,0.754750,0.703412,0.104536,-0.558962,0.822578
-0.567833,-0.050358,0.585136,0.318861,0.634241,-0.704319
0.008459,0.171545,0.948291,0.836656,0.498078,0.227871
-0.522833,-0.002294,0.465266,0.789190,0.311265,0.529427
-0.053984,-0.857382,0.392762,-0.521499,0.851729,-0.050950
-0.747903,0.189483,0.491799,0.093432,0.639531,-0.763067
-0.220798,-0.200096,0.480648,-0.437789,0.898962,0.014452
-0.207919,0.664031,0.596697,0.768210,0.601037,-0.220471
-0.158282,-0.226387,0.694738,0.570542,-0.818675,-0.065210
0.027104,0.635274,0.181298,-0.784780,-0.257546,0.563729
-0.210017,0.314299,0.718583,0.076970,0.954591,-0.287804
-0.229933,0.613981,0.564963,-0.144141,0.410791,-0.900264
-0.445040,0.539215,0.571870,0.545139,0.021428,0.838072
0.327417,0.401321,0.587214,0.245684,0.965487,0.086450
0.680516,-0.406251,0.409276,-0.024913,0.993347,0.112436
-0.485923,0.586731,0.524554,0.922633,-0.326853,-0.204732
-0.007038,0.036664,0.362384,0.608914,0.043354,0.792051
0.195120,0.146486,0.853996,-0.496103,0.868235,-0.007022
-0.341122,0.610284,0.436120,0.114551,-0.409335,0.905164
-0.227013,-0.462463,0.442940,0.923065,-0.349912,0.159728
0.211365,0.148471,0.928703,0.214904,-0.958679,-0.186414
-0.834977,0.089658,0.385507,0.790445,-0.592473,0.155475
-0.129304,0.379206,0.117816,-0.726861,-0.603465,0.327875
0.710842,0.500394,0.195921,0.025549,-0.358870,0.933038
0.022310,0.451850,0.820805,-0.147024,0.960373,-0.236787
0.484424,-0.722228,0.495707,0.324884,-0.602962,0.728620
-0.117249,0.565780,0.772071,0.870714,-0.243805,0.427101
0.443921,0.627675,0.332329,0.697913,0.056655,-0.713938
0.381327,0.272945,0.591645,0.850751,-0.525549,-0.004577
0.494756,-0.475061,0.323182,-0.041349,-0.778109,0.626767
0.624887,0.324022,0.575727,-0.079884,-0.730564,0.678155
-0.265276,0.422683,0.629315,0.162067,-0.287158,-0.944073
-0.927746,0.319092,0.417204,0.236229,-0.677787,-0.696277
0.063192,0.062545,0.978184,-0.471694,0.881752,0.004214
0.607965,0.420766,0.419320,0.093328,-0.769683,0.631568
-0.145477,0.141214,0.752110,0.923922,-0.378573,-0.055223
-0.082285,0.023792,0.852528,0.965031,0.005537,0.262076
-0.323601,-0.365855,0.707992,-0.090249,0.734528,0.672550
-0.022086,-0.741193,-0.987194,-0.043121,-0.106008,0.993430
-0.038935,0.110609,0.927085,-0.067647,0.991626,0.110009
-0.161499,0.090753,0.765264,0.929420,0.188783,-0.317079
0.180519,0.538941,0.676681,0.516573,0.277126,-0.810156
0.411498,0.198658,0.714874,-0.412644,0.789511,-0.454309
-0.455149,0.438088,0.564390,-0.382369,0.793760,-0.473010
-0.575396,0.746055,0.431976,0.834037,0.550857,-0.030627
-0.303982,-0.091507,0.683301,0.568218,-0.157333,0.807697
0.302484,0.079593,0.782512,-0.521551,0.473565,0.709733
-0.047696,-0.453630,0.182804,-0.723815,-0.262409,-0.638148
-0.555554,0.123002,0.401125,0.879018,0.137941,0.456399
-0.226414,-0.331690,0.722217,0.868648,-0.467894,-0.162865
0.113058,0.167779,0.655487,0.267949,-0.937330,0.222747
0.483825,0.063024,-0.951900,-0.148233,-0.259162,0.954391
-0.033543,-0.247270,0.674167,-0.048518,-0.043947,0.997855
-0.328692,-0.035363,0.633646,-0.577221,0.784400,-0.227007
0.550764,0.267742,0.706474,0.918719,-0.211842,-0.333285
-0.708219,0.295950,0.362284,0.262733,-0.913088,0.311836
-0.482779,-0.399336,0.489907,0.193710,0.975594,0.103403
0.526503,-0.652323,0.524243,-0.595820,-0.285266,0.750748
-0.132526,0.750984,0.561217,0.822371,0.024806,0.568411
-0.006741,0.274246,0.723100,0.961397,-0.038451,0.272465
-0.538485,0.401048,0.649862,0.124435,-0.929024,0.348469
-0.411648,-0.141693,0.628743,0.935294,0.092240,0.341639
-0.246329,0.069529,0.191465,0.111575,0.583511,0.804404
-0.334007,-0.252953,0.459741,0.286969,0.607202,0.740914
0.022461,0.437130,0.823058,0.280719,-0.817934,0.502176
-0.144206,0.243093,0.853374,0.706204,0.678738,0.201471
-0.111112,-0.069460,0.251276,0.035257,-0.127601,0.991199
0.026354,0.141967,0.797496,0.816379,-0.338942,-0.467593
0.187556,0.162987,0.865806,0.244074,0.969699,0.010595
-0.609537,0.929684,0.456630,-0.171344,0.911548,-0.373794
-0.158953,0.201191,-0.208241,-0.564941,0.793943,0.224716
0.029051,0.117593,0.905406,0.977330,0.192968,-0.087119
-0.659778,0.208449,0.475446,-0.119048,0.352504,0.928207
-0.175725,0.733251,0.668940,0.776238,-0.507295,0.374308
-0.878030,0.547088,0.549581,-0.013104,-0.591890,0.805912
0.421981,0.900722,0.499440,-0.001133,-0.836288,0.548289
0.143457,0.692513,0.690271,-0.349876,-0.241715,0.905075
-0.847709,-0.200917,0.372502,0.893486,0.188230,0.407741
0.520663,-0.758721,0.496217,0.882514,0.285379,-0.373803
-0.749772,-0.406251,0.439169,0.759549,0.397767,0.514652
-0.848980,0.225771,0.508276,-0.014755,-0.353380,0.935363
0.512578,0.213995,0.720611,-0.447848,0.681745,-0.578494
-0.574349,0.373934,0.489272,-0.404824,0.913890,-0.030363
0.586327,-0.371264,0.377816,0.317729,0.944590,0.082447
0.389037,-0.206053,0.815155,0.453718,0.890474,-0.034582
0.788635,0.504228,0.595963,0.044586,-0.002715,0.999002
-0.305929,-0.708055,0.086878,0.480985,-0.652517,-0.585555
-0.097260,0.639793,0.712958,0.558917,0.828023,0.044599
-0.406407,0.223032,0.062561,-0.432753,-0.199203,-0.879228
-0.202678,0.768649,0.409164,-0.156148,0.466198,0.870791
-0.175204,0.333196,0.686711,0.477334,0.041646,0.877735
-0.166215,-0.192907,0.563892,-0.327143,-0.272382,0.904868
0.481056,0.619116,0.611519,-0.603481,-0.633757,0.483902
-0.354973,0.293828,0.543296,-0.482456,0.805403,-0.344329
0.003222,0.158536,0.036252,0.358001,-0.933291,-0.028352
-0.208294,-0.232755,0.719690,0.909444,-0.084080,0.407238
0.350179,0.678957,-0.932349,0.268968,0.331307,-0.904374
-0.633497,0.064120,0.483759,0.301603,0.300330,0.904897
0.197816,0.080483,0.822859,-0.256741,0.751673,-0.607513
0.007188,-0.041252,0.796003,0.787667,0.112854,0.605678
-0.123464,-0.332306,0.610698,0.717519,-0.544612,-0.434240
0.691447,0.429325,0.729049,-0.744095,0.640810,-0.188908
-0.173778,-0.512307,0.628295,0.141493,0.569702,0.809580
0.550988,-0.051316,0.558728,0.108497,0.989360,0.096929
-0.280923,-0.366745,0.710058,0.588636,-0.616736,-0.522632
0.568358,-0.785286,0.222366,-0.068743,-0.671677,0.737648
0.033543,0.160316,0.004393,0.137252,-0.987969,-0.071268
-0.872939,0.421862,0.053314,0.870522,-0.424812,-0.248448
0.086777,-0.560166,0.559487,0.744494,0.362628,0.560562
0.202980,0.152716,0.733666,0.544436,-0.284696,0.789010
-0.058851,0.172504,-0.085509,0.871093,-0.458533,0.175910
-0.049789,-0.092876,0.824004,0.971278,-0.237567,-0.013458
-0.231358,0.633494,0.642718,0.710020,0.609213,0.353173
0.034818,0.195851,-0.335490,0.392023,-0.919257,-0.035832
0.267145,0.446852,0.664908,-0.570076,0.586011,-0.575851
0.426775,0.341070,0.598713,0.139778,0.067000,0.987914
0.450433,0.418370,0.589715,-0.017005,-0.039845,0.999061
-0.138663,-0.060012,0.715521,0.742273,-0.627823,0.234241
0.598007,-0.455411,0.329654,0.052798,-0.882654,0.467049
0.046046,-0.851289,0.325223,0.573359,-0.041827,-0.818236
-0.173403,0.472459,0.783807,-0.675054,0.626108,-0.390245
-0.247531,-0.219746,0.528648,0.734233,-0.403336,0.546098
0.026432,0.435555,0.818254,0.066718,-0.809092,0.583882
-0.038186,0.663209,0.714912,0.599096,-0.333285,-0.728014
-0.100103,0.655952,0.605396,0.873483,-0.243665,0.421492
0.012805,0.630002,0.172499,0.816091,0.222792,-0.533253
0.027926,0.091096,0.897553,0.565395,0.636498,-0.524593
-0.799113,0.459587,0.073898,0.461480,0.845708,0.267982
-0.215784,-0.409880,0.760945,0.990707,-0.111462,-0.077950
-0.040283,0.723597,0.712099,-0.461570,0.439725,-0.770451
0.386793,-0.824792,0.459106,-0.502253,0.561220,0.657855
-0.856319,0.329636,0.251674,0.812780,-0.288060,0.506370
-0.140834,-0.639109,0.668579,-0.683386,0.588916,0.431464
0.073150,0.133683,0.647634,0.263725,-0.841897,0.470806
-0.006288,0.429188,0.163352,0.862954,0.324149,-0.387604
-0.439054,0.656842,0.400416,0.770435,0.631739,-0.085650
0.168989,-0.628428,0.607935,-0.132125,0.914315,0.382846
0.089172,0.067543,0.901474,0.998316,-0.043804,-0.038033
-0.245283,0.168738,0.772631,0.647936,0.400248,0.648059
-0.541478,0.778166,0.469796,-0.780310,0.625340,-0.008137
-0.090520,0.690048,0.422767,-0.256304,0.331660,-0.907915
0.558625,-0.170039,0.031349,0.830877,0.133540,-0.540195
0.031299,-0.507857,0.583966,0.660736,0.625049,0.415622
-0.086329,-0.031324,0.809219,0.852727,-0.308195,-0.421750
-0.491013,-0.183869,0.615041,0.638432,0.709170,0.299136
0.342319,0.526754,0.539898,0.909959,0.073500,-0.408132
0.549265,0.268426,0.626353,0.969336,0.094157,0.226986
-0.218106,-0.396803,0.772756,0.966434,0.185072,-0.178196
-0.115677,0.393379,0.425554,0.911583,0.055203,0.407393
-0.080713,-0.258156,0.606566,-0.533891,0.654200,0.535708
-0.560722,0.749683,0.462989,-0.436041,0.861327,-0.260737
0.154237,-0.289446,0.750218,0.880242,0.460375,-0.115019
-0.686658,0.892643,0.497735,0.905280,0.088583,0.415476
0.022986,0.032967,0.715086,0.894876,0.123563,-0.428870
-0.266249,-0.014070,0.776203,0.804117,0.183113,0.565567
-0.540953,0.566328,0.583580,0.929923,0.255887,0.264130
-0.496780,0.127794,0.481669,0.385228,0.009112,0.922776
-0.128706,-0.595563,0.107537,0.367008,-0.613722,-0.699035
-0.221698,-0.203793,0.725029,0.930425,-0.021141,0.365873
-0.619870,0.732772,0.465926,-0.119854,0.753680,-0.646221
0.857292,-0.118346,0.150098,-0.173796,0.612633,0.771023
-0.591267,0.653487,0.627884,0.636085,0.757641,-0.146202
-0.912473,0.245010,0.400490,-0.195931,0.959733,-0.201306
0.267593,0.259115,0.692088,0.913365,-0.136733,0.383495
0.608189,0.547157,0.617418,0.287118,0.421438,0.860206
0.476787,-0.008935,0.367150,0.369618,0.186630,-0.910248
-0.759058,0.604396,0.275444,-0.428802,0.223942,-0.875202
-0.176474,0.445209,0.636048,0.934124,-0.335341,-0.122304
0.386944,-0.046661,0.732509,0.952121,0.144289,0.269531
0.729857,0.343603,0.652811,-0.721280,0.286945,0.630411
-0.015871,0.120742,0.886776,-0.604891,0.354918,0.712840
0.005616,0.161275,0.738109,0.826651,0.188874,-0.530070
0.690849,-0.370853,0.355290,-0.073237,0.996679,-0.035601
-0.134920,0.478073,0.135588,0.164619,-0.620299,0.766897
