0.729554,-0.945331,-0.953620,-0.040717,0.549516,-0.834490
0.206145,-0.247297,0.852355,0.287440,0.846841,0.447480
-0.102759,-0.116141,0.913458,0.846429,0.241607,0.474536
-0.811760,0.210290,0.458213,-0.236475,-0.415464,-0.878333
-0.560818,-0.019073,0.641408,-0.676708,0.636093,0.370747
0.448726,0.284056,0.853751,-0.522912,0.788527,0.323709
-0.230457,-0.212616,0.658203,0.011242,0.954237,0.298841
-0.179391,-0.732047,-0.940646,0.500524,-0.076730,-0.862316
0.417375,0.186593,0.617450,0.228484,-0.184879,0.955832
0.791764,-0.039703,0.773203,0.888847,0.051657,-0.455282
0.057127,-0.284651,0.772314,-0.264207,0.353844,0.897212
-0.504737,-0.532962,-0.968187,0.235154,-0.247432,0.939936
0.505574,0.034212,0.846672,0.856532,0.445326,-0.260839
-0.197018,-0.293655,-0.966283,-0.396295,0.041872,-0.917168
-0.364149,0.167000,0.571182,0.138635,-0.188458,0.972247
0.185801,0.377761,0.803493,-0.088813,0.976178,-0.197962
-0.065696,-0.394434,0.616434,0.784674,0.412327,0.462897
-0.509195,-0.226320,0.414568,-0.114816,-0.085387,0.989710
0.334403,0.463104,0.502112,-0.796101,0.605005,-0.013888
-0.421206,0.560619,0.383700,0.044072,-0.131466,0.990341
0.131323,-0.926333,-0.974377,0.452796,0.522236,-0.722665
0.148599,-0.043216,0.733986,0.892389,0.135423,0.430469
-0.346383,-0.193074,0.704076,-0.382692,0.240565,-0.892006
0.356138,0.178280,0.905646,0.970325,0.161445,0.180012
0.413614,-0.118367,0.609538,0.127637,-0.284067,0.950271
0.251220,0.181992,0.834249,0.878133,-0.468635,-0.096247
-0.093005,-0.072455,0.859547,0.513729,-0.773084,-0.372054
0.208165,-0.425801,0.812490,-0.494831,0.705440,0.507442
0.120384,0.219047,-0.930676,-0.572272,0.169479,0.802360
0.185455,0.301620,0.597848,0.557677,-0.122496,-0.820970
0.130209,0.042919,-0.627814,0.731496,-0.681581,0.018989
0.683224,0.513816,0.320158,0.033240,0.331211,0.942971
-0.045770,0.748868,0.605590,-0.503332,0.782892,-0.365701
0.647972,-0.846284,-0.942282,-0.377847,0.024394,0.925547
-0.281455,-0.667137,-0.982711,-0.410111,-0.040887,0.911119
-0.426640,0.252987,0.336234,0.071080,-0.150058,0.986119
-0.316219,-0.364255,-0.976126,0.327822,0.208171,-0.921519
-0.406298,-0.250364,0.435143,0.349619,0.094952,-0.932068
-0.857252,-0.054150,0.664479,-0.084606,-0.992231,0.091214
-0.182736,-0.020606,0.628674,0.626448,0.775577,0.077737
0.688518,-0.135733,0.622272,-0.462412,-0.145474,-0.874650
0.265501,-0.305579,0.482807,0.350806,-0.616729,-0.704685
0.389995,0.573433,0.524350,0.649381,0.680563,-0.339320
0.143165,-0.041781,-0.091245,0.865638,-0.461773,0.193485
0.098092,-0.207570,0.847490,0.396079,0.902477,-0.169285
0.102202,-0.254224,0.783074,0.835750,-0.387137,-0.389419
0.772049,-0.167397,-0.937515,-0.025521,0.162637,0.986356
0.038178,-0.233148,0.476052,-0.770112,0.019585,0.637608
0.056919,0.027285,0.874185,0.792682,-0.607520,-0.050748
0.086456,-0.000767,-0.644257,0.876031,-0.481813,-0.020661
0.657237,0.113964,0.770650,0.891240,0.430699,-0.142091
0.170474,0.400668,0.421182,-0.630140,-0.311259,0.711366
0.858995,0.079431,0.746409,-0.593087,0.569296,0.569342
0.081928,0.410068,0.768098,0.886814,0.359259,0.290680
-0.717431,0.278565,0.601500,0.314480,0.186517,-0.930760
0.242301,-0.517329,-0.950263,-0.149840,-0.164380,0.974950
0.167689,0.347335,0.676493,-0.672858,0.037192,-0.738836
0.372927,-0.221027,-0.939983,-0.278622,0.308944,0.909353
-0.016581,-0.344267,0.789081,-0.434446,-0.896931,-0.082292
0.222099,-0.117229,0.600556,-0.734010,-0.201171,0.648660
-0.003831,0.354112,0.782806,-0.598503,0.690918,-0.405495
0.328479,0.601336,0.512688,-0.580194,-0.814195,0.021496
-0.555106,0.438764,0.355299,0.002101,-0.496578,0.867990
-0.797964,0.316116,0.614361,-0.399153,0.797401,-0.452580
-0.102200,0.278813,0.717064,0.785848,0.570267,-0.239244
-0.300265,-0.482944,-0.978467,0.327942,0.035430,-0.944033
0.556222,-0.199159,0.619692,-0.512143,-0.170201,0.841868
0.079143,0.278170,0.841906,0.846090,-0.416478,0.332682
0.174656,0.036735,-0.640421,-0.521560,0.851477,0.054425
-0.489550,0.207074,0.334344,-0.330668,-0.093478,0.939106
-0.251916,-0.017390,0.902614,-0.712400,-0.477746,-0.514048
-0.035042,-0.059839,0.906478,-0.684293,0.682264,-0.257409
0.196321,0.119951,0.590149,0.634985,-0.584608,-0.505003
-0.091055,-0.279703,0.873860,0.908184,0.302130,0.289688
0.145255,-0.233148,-0.957300,0.185501,0.186810,-0.964723
0.297409,0.184168,-0.935316,-0.168724,-0.170196,-0.970858
-0.063676,0.066666,0.974560,-0.383264,-0.873222,-0.300985
-0.018739,-0.015263,0.569363,0.558430,0.532371,0.636189
0.619757,0.408139,-0.925021,-0.018354,-0.045228,0.998808
-0.042147,-0.510947,-0.977085,0.358342,0.033614,-0.932985
0.160373,0.715968,0.491493,0.748359,0.355836,-0.559767
0.639125,0.020755,0.745733,0.552442,0.540439,-0.634613
0.302146,-0.261051,-0.950574,-0.427033,-0.256428,0.867114
0.010660,0.297118,0.767350,0.076241,0.916310,-0.393146
0.218407,-0.239629,0.573861,0.039867,-0.386762,0.921317
0.491221,-0.153247,0.464390,0.001601,-0.127032,0.991897
-0.674376,0.147211,0.520120,-0.011548,0.232067,0.972631
0.269402,0.271985,0.793114,0.060041,-0.483838,0.873096
0.713600,0.039258,0.713186,-0.380971,0.916131,-0.124763
-0.038246,0.026444,0.937868,-0.488632,-0.138855,0.861370
0.446427,-0.035597,0.819132,-0.014234,-0.724421,0.689211
-0.037481,0.313791,0.770269,0.949634,-0.301397,-0.085760
-0.347916,0.148102,0.718276,0.844436,-0.411378,-0.343068
-0.124356,0.652839,0.589627,0.521510,0.307646,0.795853
0.275672,-0.261793,0.765630,0.170718,0.444845,0.879186
0.167759,-0.062807,-0.302164,-0.371700,-0.928270,-0.012419
0.812525,0.086802,0.798727,0.779374,0.370863,-0.505012
0.386374,-0.212616,-0.947838,-0.278622,0.308944,0.909353
0.431587,-0.875522,-0.958499,0.130381,0.343312,-0.930128
-0.776438,0.327149,0.434649,-0.107572,0.360073,0.926702
-0.657516,0.300482,0.608495,-0.583577,0.407349,-0.702499
0.084785,0.489771,0.582505,0.749537,0.661219,-0.031362
0.359901,0.543352,0.462669,0.355453,0.036768,-0.933971
-0.477079,-0.551120,-0.972911,-0.263496,0.251617,-0.931267
-0.072801,0.665059,0.562199,0.490876,0.644457,-0.586273
0.334819,0.080272,0.778547,-0.236269,0.953558,0.186828
0.042287,0.453457,0.713961,-0.760802,0.413199,-0.500447
0.084645,0.267088,0.821712,0.949127,-0.215747,0.229370
0.316707,0.450093,0.361828,-0.214360,0.150826,-0.965039
0.684200,-0.209103,-0.926389,0.351971,-0.314785,-0.881491
-0.280269,-0.023327,0.915658,-0.843781,0.318018,-0.432316
0.028426,-0.150921,0.874622,-0.288004,0.682356,0.671896
0.208652,-0.197279,0.835278,0.818924,0.485660,0.305775
0.395848,0.083735,0.748426,0.123208,-0.659413,0.741616
-0.010869,0.446877,0.776813,0.424885,0.489259,0.761642
-0.893756,-0.038862,0.678580,0.762733,-0.254733,0.594433
0.092310,-0.015164,-0.224421,0.981706,0.138239,-0.130930
-0.135571,0.238887,0.770791,-0.487900,0.287320,0.824258
0.060680,0.132369,0.777419,0.906095,0.279079,-0.317974
0.164832,-0.331256,0.738639,-0.105534,-0.684578,-0.721260
-0.268565,0.395770,0.388410,0.243829,0.343200,-0.907062
0.676328,-0.084725,0.625967,-0.695420,-0.035538,0.717725
0.228437,0.176352,-0.935555,0.092858,0.353168,0.930940
0.070364,-0.069882,0.707051,-0.564705,0.538485,-0.625414
-0.803469,0.237848,0.451430,-0.383059,-0.105773,-0.917648
0.323883,0.282622,0.793960,-0.004532,0.620351,0.784311
-0.521805,-0.232604,0.695178,-0.545778,-0.132123,-0.827448
-0.415215,0.204700,0.567050,0.578230,0.796421,0.177095
-0.695275,-0.409177,-0.983980,-0.342401,0.096178,0.934618
-0.002368,0.251107,0.683812,-0.090102,0.718949,-0.689198
-0.596698,0.393445,0.615348,0.399877,-0.392052,0.828489
0.071062,0.355201,0.772681,0.373529,0.541337,0.753280
0.613628,-0.106444,-0.930098,0.286198,0.247280,-0.925712
-0.355997,0.319976,0.577415,-0.764670,0.643857,-0.026962
0.539502,-0.294100,-0.938982,0.809257,-0.304262,-0.502522
0.092867,-0.078244,-0.079752,0.906712,-0.409381,0.101394
0.619200,-0.088188,0.630846,-0.550972,0.381647,0.742143
0.885328,0.420853,0.479013,0.987828,0.005287,-0.155458
0.519577,-0.551219,0.537126,-0.895425,-0.088996,0.436227
0.066811,0.016203,0.952266,-0.656001,0.220755,0.721755
-0.444684,-0.006704,0.729614,0.657115,-0.491664,-0.571373
-0.342901,0.449895,0.489575,-0.215888,-0.169254,0.961637
-0.160303,0.111194,-0.963857,0.265217,0.131753,-0.955145
-0.615369,-0.117625,0.457677,-0.284639,-0.867519,0.407910
0.730389,0.133754,-0.931240,0.337745,0.016358,-0.941096
0.579002,-0.179666,0.647923,-0.470118,0.850108,0.237288
-0.125678,-0.226964,-0.963322,0.088658,-0.055667,0.994505
-0.811550,-0.145479,-0.980991,0.238038,-0.303144,-0.922736
0.048000,-0.068844,0.580545,0.881179,-0.424176,-0.208804
0.075520,0.123018,0.932100,0.994712,-0.006760,-0.102480
-0.444963,0.052616,0.769903,-0.719457,0.262853,-0.642877
-0.778946,-0.019320,0.667680,-0.127784,0.406419,0.904707
0.730110,-0.303253,0.632200,0.912787,0.283266,-0.294246
-0.053573,0.584614,0.258293,-0.255882,-0.233933,-0.937976
0.842762,0.154286,-0.926065,-0.210804,-0.005666,0.977512
-0.050439,0.117774,0.844938,-0.281870,-0.298654,-0.911787
-0.902883,-0.136574,0.350053,-0.827896,-0.238644,-0.507580
0.887697,-0.933902,-0.945723,0.156099,0.845745,-0.510243
-0.109238,0.043711,0.856642,-0.422219,-0.415413,-0.805706
0.050160,-0.202573,0.804085,0.589812,0.510471,-0.625732
0.116134,0.028967,0.701679,0.882780,0.214035,-0.418198
0.611954,-0.199060,-0.936796,0.277853,0.134126,-0.951214
-0.455274,-0.206283,0.425427,-0.490595,0.235374,0.838997
0.060123,0.012096,0.974955,0.839585,0.380249,-0.387952
-0.614950,-0.096351,0.640985,-0.666051,0.079462,-0.741662
0.278876,0.008089,0.874763,-0.602990,-0.573477,-0.554551
-0.372719,0.131280,0.488306,-0.366626,-0.314489,-0.875604
-0.556152,-0.632455,-0.989692,-0.062588,-0.045497,0.997002
0.209071,-0.325318,0.791225,0.923149,-0.089988,0.373762
-0.077748,0.615337,0.551524,-0.412119,-0.191575,0.890762
0.312247,0.076809,-0.937106,0.010292,-0.252408,0.967566
-0.242580,0.004577,0.717205,0.339659,0.924880,-0.170963
0.285775,0.091157,0.866485,0.225793,-0.709338,0.667725
-0.404346,0.035300,0.746268,0.137511,-0.966039,-0.218770
0.164694,0.026988,-0.508218,0.967508,0.249835,-0.038871
0.204821,-0.542461,-0.938756,0.149076,0.039032,0.988055
-0.087222,0.168583,0.762880,0.019478,-0.393192,0.919250
-0.234986,-0.461175,0.514141,0.217072,0.976059,-0.013710
0.313152,0.299592,0.887469,0.936420,0.291465,-0.195362
0.258185,0.114904,0.882053,0.074540,-0.976516,0.202141
0.447122,0.130884,-0.931282,0.012145,-0.379522,0.925103
-0.153825,-0.182882,0.814267,0.798406,0.590948,0.115446
0.072592,0.382214,0.651660,-0.782569,-0.504174,-0.365232
0.057825,0.090415,0.927574,0.990089,0.042617,-0.133818
-0.213251,0.104366,0.762612,0.083712,-0.758684,0.646058
0.094608,-0.006605,-0.859392,0.897887,-0.440208,-0.004073
0.080884,0.407446,-0.942677,-0.365843,-0.231984,0.901300
-0.141424,-0.027929,0.931325,0.813542,-0.581268,-0.016646
-0.094538,0.345157,0.739768,0.849952,0.163287,0.500919
-0.551204,0.331157,0.596424,0.282968,-0.547874,0.787250
0.218266,-0.025850,0.765009,0.917202,-0.346677,-0.196354
0.127492,-0.161311,0.857827,0.921184,0.044584,0.386564
0.300335,0.639233,0.521953,0.575107,0.447588,-0.684775
0.124286,-0.061373,0.973827,0.998455,-0.044629,-0.033108
-0.450816,-0.111787,-0.951321,-0.007642,0.023234,0.999701
-0.530584,0.257736,-0.141828,0.457445,0.675038,0.578850
-0.666781,0.100903,0.525394,0.321227,-0.154314,0.934345
0.234012,-0.009820,0.913543,-0.014438,0.971054,0.238423
0.588476,-0.076859,0.682021,-0.411270,0.518825,-0.749452
-0.086248,-0.425158,-0.970542,-0.047321,-0.058154,0.997185
0.305907,0.618157,0.519598,0.615823,0.470605,-0.631897
-0.807162,-0.121979,-0.990834,0.154100,-0.135966,-0.978655
-0.018531,0.776129,0.606238,0.850869,-0.489186,0.191621
0.582834,0.609598,0.490464,-0.705483,0.703420,-0.086565
-0.083391,-0.461917,0.617647,0.706135,0.473537,0.526438
0.202871,0.238293,0.805566,0.663425,-0.627288,-0.407894
-0.780061,-0.195201,0.429587,-0.381699,-0.337631,-0.860413
0.082833,0.421893,0.753855,0.993863,0.024746,-0.107816
0.163509,-0.316859,0.880657,-0.726284,-0.592838,-0.347928
0.018393,0.556463,0.553470,-0.335735,-0.425949,0.840148
0.094678,-0.422437,0.463642,0.270548,-0.014000,-0.962605
0.270238,0.327001,0.569743,-0.546194,0.573425,0.610619
-0.241466,-0.310773,0.725581,0.995339,0.073586,0.062337
-0.878919,-0.056673,0.673786,0.642629,-0.516096,0.566280
-0.225163,-0.338231,-0.970626,-0.059208,-0.576849,0.814702
0.479239,0.649772,0.659430,0.658846,-0.589935,0.466796
0.325135,-0.628646,-0.949474,-0.199521,-0.044159,0.978898
0.454508,-0.798590,-0.939391,-0.026896,-0.083376,0.996155
0.330710,-0.393000,0.809430,0.527959,0.620616,-0.579737
0.594886,-0.250563,0.758466,-0.082298,-0.970374,-0.227157
0.562910,0.124156,-0.928321,-0.041179,-0.154792,0.987088
0.114604,0.521435,0.465010,0.948688,-0.017424,0.315734
0.230808,0.010316,0.966917,-0.102817,0.966759,0.234106
0.208235,0.191144,0.817905,0.639651,0.752110,0.158672
0.323742,0.090760,0.820838,0.400523,-0.013199,0.916191
0.447541,0.055634,0.821120,0.513291,0.141358,-0.846493
-0.101575,0.548596,0.262439,-0.417115,-0.035647,-0.908155
0.403580,0.553791,0.618056,0.777618,-0.628173,0.026608
-0.776857,-0.198516,0.658429,0.903070,-0.376208,0.207201
0.252264,-0.311564,0.771313,-0.141182,-0.360413,-0.922047
-0.471645,0.023872,0.650659,0.071121,-0.706994,0.703635
-0.339278,0.464836,0.377537,-0.008310,-0.188737,0.981993
-0.231642,-0.018528,0.904941,-0.712400,-0.477746,-0.514048
-0.147902,0.278219,0.371065,0.059826,-0.233690,0.970469
-0.003134,0.720668,0.413610,0.382274,-0.100444,-0.918574
0.031140,0.351688,0.703907,0.820097,-0.186607,0.540943
-0.099485,0.165665,0.829539,0.899893,0.134278,0.414923
-0.093702,0.548448,0.504946,0.800192,-0.593395,0.087030
-0.344850,0.019963,0.748073,0.139079,-0.423432,0.895189
0.106312,-0.167397,0.942451,0.788086,0.287272,-0.544421
-0.549184,0.461472,0.354072,-0.056010,-0.563887,0.823950
0.321793,0.402548,0.618394,-0.684341,0.729159,0.002218
0.595722,0.432975,0.609806,-0.464732,-0.354231,0.811507
0.138498,0.895510,0.427697,0.308714,-0.382435,0.870884
0.045423,-0.087347,0.592926,-0.045033,0.455393,0.889151
0.561099,0.507038,0.629873,0.049089,-0.764437,0.642827
0.111886,-0.006704,0.762782,0.960467,0.261974,-0.094197
0.141145,-0.410068,0.804805,-0.434626,0.718722,0.542715
0.360109,0.112975,-0.932820,-0.031875,-0.112768,0.993110
0.748433,0.511144,0.317690,0.217027,0.273632,0.937030
0.091542,-0.316908,0.560140,-0.100005,0.257214,-0.961166
-0.036923,0.411404,0.252357,-0.250735,0.366276,-0.896088
0.647485,0.719084,0.507541,-0.657779,0.711842,-0.246189
0.107496,-0.077452,0.963364,0.813709,0.555226,0.172054
-0.151736,-0.000767,0.878979,-0.137636,-0.989792,-0.036988
0.653685,-0.370835,-0.928039,0.256223,0.316764,-0.913242
-0.042985,0.738182,0.600668,-0.427548,0.887474,-0.172023
-0.332451,0.365591,0.278304,0.115761,-0.119873,0.986017
0.225652,0.108670,0.863101,0.787956,0.548076,-0.280604
0.570573,-0.223649,-0.943692,-0.246343,0.070188,0.966638
0.612443,-0.208955,0.684306,0.554517,0.069346,-0.829278
-0.016581,-0.211181,0.704767,-0.448547,0.322506,0.833544
0.851330,0.471466,0.516510,0.869352,-0.095059,0.484965
0.291348,-0.233939,0.613332,-0.341639,-0.217219,0.914384
0.383725,0.656302,0.533432,-0.175268,0.836612,0.519000
0.367633,-0.031144,0.615334,-0.068657,-0.494507,0.866458
-0.330361,-0.159876,0.675675,0.124903,0.946686,-0.296960
0.236589,0.162647,0.596720,0.543777,-0.451251,-0.707587
-0.121639,-0.685591,-0.955157,-0.148664,0.559729,0.815231
0.671380,-0.047916,0.682543,-0.287274,-0.496323,0.819230
-0.069110,0.134397,-0.952590,0.447724,-0.142661,-0.882718
-0.678556,0.363018,0.604349,0.795647,-0.063204,0.602455
0.114255,-0.016153,-0.861507,0.924967,-0.368721,0.092092
-0.180575,0.018874,0.720208,-0.074983,-0.988871,0.128496
0.488226,-0.402300,0.577654,0.803808,0.412724,-0.428428
0.150759,-0.263031,0.866598,-0.630549,-0.667126,-0.396675
0.298245,-0.219740,0.699775,-0.140033,0.964947,0.221964
-0.071827,-0.018577,0.820077,0.932722,-0.250922,0.258976
-0.572663,0.372122,0.421915,-0.165963,0.813901,0.556796
0.007803,-0.069734,0.964675,0.446563,0.847728,-0.286249
-0.512331,0.353964,0.497571,0.663115,-0.175699,-0.727605
-0.316148,-0.036388,0.732026,-0.153266,0.937596,0.312128
-0.084715,0.514360,-0.946047,0.210528,-0.070914,0.975012
0.104500,0.189215,0.802689,-0.396539,0.733283,-0.552316
-0.152014,0.437724,0.268461,-0.642625,-0.083932,-0.761569
0.005156,0.146320,-0.944933,-0.517239,0.097203,0.850303
0.112095,0.238096,-0.932523,-0.689226,0.002850,0.724540
0.583252,0.433271,-0.924373,-0.055123,-0.010802,0.998421
-0.025777,-0.119703,0.410070,0.035931,0.339530,0.939909
0.124496,0.008930,0.086577,0.873461,0.485214,0.040406
0.660443,-0.204304,0.686449,0.759161,-0.111754,-0.641238
-0.057195,0.628844,0.555712,-0.475735,-0.527932,0.703537
0.611606,0.782412,0.508387,0.824532,0.508541,-0.248059
-0.271631,-0.134001,0.795201,-0.340258,-0.921971,0.184915
-0.605893,-0.358467,-0.984220,-0.288067,0.051109,0.956245
0.647066,-0.937663,-0.947937,-0.153638,-0.406585,0.900602
-0.252892,-0.086259,0.793241,-0.228819,-0.858586,0.458772
0.274696,-0.146518,0.610511,-0.540974,-0.125572,0.831612
0.463355,0.164774,0.799107,0.466653,0.641348,-0.609022
0.776648,0.130736,0.797204,0.904412,-0.055779,-0.422997
0.256374,0.069338,0.862212,0.852101,0.456549,0.255906
-0.365403,0.184069,0.340478,-0.145095,0.147106,0.978421
-0.621012,0.318936,0.201746,0.215043,-0.097632,0.971712
0.081301,0.255262,0.834926,0.951963,-0.210737,0.222164
0.075380,-0.022090,0.361095,0.836427,-0.547248,-0.030148
-0.242093,0.083834,0.616956,0.234354,0.636349,0.734941
0.547165,-0.322944,-0.933031,-0.462469,-0.398769,0.791900
0.306813,0.541967,0.687323,0.637650,-0.595862,0.488212
0.344434,0.148744,0.873071,0.889804,-0.451904,-0.063499
0.529191,0.788299,0.552525,0.026476,-0.672490,0.739632
0.271562,-0.408584,0.827593,0.493427,0.720311,0.487527
-0.168385,-0.154583,0.830202,0.866068,0.294454,0.404008
-0.099832,0.352777,0.690130,0.923383,-0.090559,-0.373046
0.313363,0.275300,-0.924119,-0.052149,-0.400379,0.914864
0.625053,-0.233642,0.616617,0.806706,0.127009,-0.577143
0.560680,0.047075,0.719320,0.563849,0.340310,-0.752505
0.509195,-0.012096,0.712015,-0.149404,-0.622215,0.768457
-0.049533,0.348522,0.662406,-0.318807,0.925397,-0.204943
0.284242,-0.348819,0.793819,0.714171,0.689461,0.120844
-0.139891,-0.042078,0.875651,-0.118300,0.308826,0.943733
0.115090,-0.168980,0.498671,-0.355979,0.070589,0.931824
0.263341,-0.248781,-0.954170,0.272093,0.374917,-0.886229
0.774907,0.454149,-0.920537,0.046126,-0.242274,0.969111
0.240073,0.364997,0.794792,-0.329116,-0.774792,0.539797
-0.099972,0.060730,0.652760,0.263835,0.414482,-0.870974
0.702104,-0.169969,0.498868,0.699458,0.539647,-0.468550
0.656123,-0.458652,0.562918,0.434040,0.027856,-0.900463
0.822418,0.437229,0.475248,0.991322,0.021789,-0.129637
-0.268286,0.130687,0.763994,-0.216779,0.736730,-0.640496
-0.605406,0.369747,0.599484,-0.018169,-0.768550,0.639532
0.157378,-0.036933,-0.071756,0.908689,-0.417419,-0.006820
-0.330221,-0.125096,0.356145,0.920409,-0.233754,-0.313380
0.524384,0.139097,0.586468,-0.531746,0.495271,-0.686989
0.068066,0.007001,0.970936,0.792315,0.584406,-0.175230
0.131323,0.021249,-0.566190,0.908756,0.416040,0.032759
0.081649,-0.278269,-0.964182,0.149794,0.082587,-0.985262
-0.699665,-0.137761,0.671036,0.070734,-0.003873,0.997488
0.079559,-0.209598,0.866457,0.816260,0.084037,0.571539
0.052739,-0.044254,0.564723,0.695521,-0.714243,-0.078146
-0.290023,-0.280445,0.704400,-0.174512,0.407434,0.896406
0.228718,-0.138355,0.782171,-0.739153,0.668366,-0.083305
-0.177372,-0.105801,0.186671,-0.538892,0.619980,-0.570282
0.671521,0.132665,0.757253,0.951086,0.276611,0.137556
-0.218196,0.597031,0.551468,-0.047677,-0.174955,0.983421
0.698621,0.112925,0.764445,0.877654,0.478878,0.019975
0.629650,-0.156314,0.654621,-0.464244,-0.885574,-0.015370
0.344642,0.196784,0.844614,-0.438984,0.697173,0.566783
-0.012402,0.103129,0.750203,-0.373201,-0.036963,-0.927014
0.133761,-0.171255,0.791493,0.986996,0.159485,-0.020072
-0.740698,-0.212566,0.648826,-0.576623,-0.021856,-0.816718
0.212207,0.210093,0.789589,0.909497,0.304525,0.282984
-0.050718,0.536821,0.524773,0.689009,-0.713377,-0.127903
-0.099485,-0.025108,0.858927,0.733126,0.676965,-0.065151
0.125610,0.012591,-0.119180,0.979812,-0.178036,-0.090953
-0.518671,0.001905,0.657287,-0.372992,0.408790,-0.832927
-0.183990,-0.135633,0.769014,0.420326,0.904348,0.074036
-0.077818,0.358169,0.733252,0.946727,0.248311,-0.205062
0.126794,0.026592,0.911893,0.911847,0.306348,0.273286
0.314407,0.335115,0.814464,0.955775,0.038612,0.291553
0.545772,0.810810,0.549197,-0.027548,-0.743517,0.668150
-0.194161,0.155523,0.872831,0.916393,-0.188274,0.353237
0.054967,0.127124,0.882096,0.676391,0.682526,0.276865
0.638637,-0.272777,0.769917,0.981371,0.184929,-0.052074
0.225582,-0.351293,0.781565,0.700637,0.485258,0.523099
0.557963,0.173235,0.734860,0.783063,-0.327068,-0.528999
-0.234499,0.105702,0.731744,0.227775,0.048974,0.972481
-0.231990,-0.215832,-0.965084,0.221535,0.014050,0.975051
-0.531349,0.007941,0.775557,-0.648145,0.760484,-0.039659
-0.045702,0.007001,-0.958851,-0.299980,-0.129505,0.945114
-0.338024,0.175807,0.490140,0.601752,0.436931,0.668570
-0.125819,0.746741,0.385209,-0.230576,0.728473,0.645106
0.782220,-0.150080,-0.934554,0.991406,-0.050323,0.120757
-0.563257,0.392703,0.413694,0.420731,-0.861837,-0.283235
0.087154,0.009722,0.964097,-0.765447,-0.398497,-0.505263
-0.237913,-0.021150,0.820034,0.802716,-0.186976,0.566293
0.108750,0.906494,0.430940,-0.041822,-0.276576,0.960082
-0.702034,-0.015708,0.322245,0.437117,-0.426343,0.791934
-0.410199,-0.355696,0.701101,0.259458,0.858033,0.443239
-0.664064,-0.221769,0.889147,0.062502,-0.913803,0.401320
0.356208,-0.215980,0.703907,-0.288577,-0.038416,0.956686
0.185314,-0.058899,0.896494,-0.047293,0.874080,-0.483475
0.298942,0.462659,0.577429,0.808764,-0.101372,-0.579332
0.656123,0.054892,0.613120,-0.109943,0.734537,0.669603
-0.145742,0.395819,0.776023,0.709058,0.684711,0.168545
0.093494,0.287322,0.839213,0.846090,-0.416478,0.332682
-0.428173,0.270699,0.335825,0.177418,-0.315746,0.932109
0.107845,0.357328,0.804706,0.102499,0.793411,0.599994
-0.549671,-0.454595,-0.038237,0.994356,-0.030667,-0.101569
0.117878,-0.214595,0.576272,-0.220662,0.901353,-0.372653
0.226418,0.338775,0.742630,-0.471133,-0.859929,-0.196355
-0.597882,0.458059,0.352704,0.160810,-0.414245,0.895847
0.746900,-0.345306,0.629055,0.965595,-0.221672,0.135967
-0.061375,0.509808,0.757409,-0.481251,0.819809,-0.310339
0.500419,-0.356834,0.543486,0.603680,0.779647,-0.166495
0.154939,0.461967,0.642875,-0.456908,0.757988,0.465499
-0.447888,-0.084675,0.757127,0.534809,0.693797,0.482312
0.289885,-0.079134,-0.936542,-0.252633,0.478608,-0.840899
-0.118503,-0.043810,0.255727,0.157850,0.883206,0.441624
0.277135,0.021843,0.703131,-0.281512,0.851841,-0.441721
0.144071,-0.276537,-0.957498,-0.118632,-0.124926,0.985048
-0.185523,0.405714,0.783567,0.944007,0.170144,-0.282668
0.134527,0.037922,0.787445,0.623034,0.683465,0.380401
0.610075,-0.074632,0.739725,0.282271,-0.460923,-0.841352
0.663299,0.034607,0.683530,0.803320,-0.530952,-0.269753
-0.377664,-0.025207,0.346598,-0.238866,0.116051,0.964093
-0.150830,0.727891,0.390652,-0.503843,0.580782,0.639402
-0.020969,-0.230674,0.462627,-0.486781,0.475540,0.732738
0.375506,0.565021,0.635697,0.776410,-0.199236,0.597907
0.136617,0.663871,0.563680,0.007812,-0.999210,0.038953
0.083112,0.098182,0.885396,0.841242,0.535209,-0.076568
0.640031,-0.019617,0.625262,-0.045902,-0.084615,0.995356
0.131950,-0.343822,0.837379,0.930416,0.364443,0.038820
0.478822,0.645417,0.625304,0.966799,0.219085,0.131537
0.541939,-0.394682,0.554203,0.794467,0.279374,-0.539233
0.099066,0.026988,0.420181,0.933297,-0.347056,0.092247
-0.750870,-0.111638,-0.987788,0.174528,-0.117287,-0.977642
0.093772,0.024614,0.501675,0.971784,0.231053,0.047430
0.344017,0.533358,0.652661,0.814174,-0.140207,0.563439
-0.077121,0.028918,0.915982,0.469519,-0.877252,-0.099904
0.478822,0.006209,0.835038,0.785885,0.366487,-0.498069
-0.182876,-0.304589,0.618324,0.906096,-0.382594,0.180587
0.115229,-0.046234,0.902261,0.266261,0.866053,-0.423151
0.409572,-0.862313,-0.952773,-0.039074,-0.513535,0.857178
-0.130207,-0.227656,0.587441,0.350962,0.757705,0.550190
0.679742,0.040891,0.754038,0.783147,0.297568,-0.546016
0.317751,-0.055683,0.701228,0.235642,-0.207409,-0.949449
-0.505783,0.214892,0.189703,0.076561,-0.429049,0.900031
-0.159746,0.589165,0.550283,-0.017201,-0.174782,0.984457
-0.097325,0.073494,0.719235,0.807568,-0.081214,0.584156
0.175351,0.911391,0.604335,0.196075,0.775246,0.600457
0.396475,-0.242894,0.565414,-0.569460,0.653926,-0.498093
0.148461,0.346939,0.680160,0.502201,0.035559,0.864019
-0.243346,0.224143,0.796019,0.184768,-0.875680,0.446145
0.712624,-0.158541,0.626023,-0.141972,-0.717822,-0.681598
0.542428,-0.158095,0.733591,0.387959,-0.455981,-0.800980
0.331615,0.705182,0.583803,0.942878,0.239869,0.231178
0.111189,0.002597,0.948444,-0.388624,-0.357689,0.849135
-0.206492,0.115152,0.758495,0.407153,-0.862311,0.301075
0.155080,0.016599,0.808414,-0.351067,0.929290,-0.114773
0.322418,0.153643,0.928251,-0.256547,0.883523,-0.391880
0.255468,0.472010,0.658528,0.847332,0.011371,-0.530942
-0.506478,0.131181,-0.972488,-0.114868,-0.379015,0.918234
-0.301241,0.199307,0.740430,0.812581,-0.391345,-0.431928
-0.643722,-0.299740,-0.986759,-0.174503,-0.217958,0.960231
0.033790,0.458404,0.662448,-0.577298,-0.805878,0.131482
-0.129442,0.485912,0.734409,0.860296,0.334306,-0.384877
-0.573568,0.391218,0.610328,0.364785,-0.423105,0.829406
0.080814,0.009425,-0.935217,0.845207,-0.135343,-0.517018
-0.179183,0.516289,-0.944200,0.186760,-0.126882,0.974177
-0.209977,0.161163,0.874072,0.916393,-0.188274,0.353237
-0.077399,-0.065479,0.894181,0.895025,0.057979,-0.442232
-0.149713,0.149784,0.733563,0.834911,-0.521173,-0.176924
-0.436184,-0.236611,-0.976789,-0.145460,-0.276158,0.950041
-0.624494,0.402746,0.355243,0.159797,-0.217594,0.962870
0.302633,0.200692,0.844233,0.171269,0.664966,0.726971
0.176955,-0.017934,0.921778,0.285922,0.896848,0.337508
0.375993,-0.167347,0.702765,0.519728,0.221488,-0.825122
-0.063465,-0.281929,0.848774,0.867341,0.080096,0.491226
-0.675979,-0.149536,0.665663,0.995995,-0.087590,0.017929
0.127700,0.042919,-0.878810,0.980607,-0.178607,-0.080681
-0.746830,0.092393,0.522404,-0.223214,-0.173887,-0.959134
0.092518,-0.196537,0.847716,0.914724,0.398171,0.068846
-0.408805,0.218553,0.579657,0.411696,-0.098568,0.905975
0.148599,-0.058651,-0.415231,0.883349,-0.463211,0.071630
-0.052320,-0.099715,0.745098,0.349713,0.514641,0.782844
-0.021667,-0.249573,-0.965042,-0.128678,-0.194385,0.972449
0.746133,-0.076166,0.745859,0.832083,0.028690,-0.553908
0.265988,-0.960668,-0.960586,-0.144343,-0.528034,0.836866
-0.259997,-0.400074,0.589401,0.015902,0.741323,0.670960
0.688659,0.261991,0.595394,-0.523428,0.388116,-0.758544
-0.122055,-0.435943,0.530160,0.288295,0.954590,-0.075122
-0.541174,0.064094,-0.979778,0.292701,-0.039615,-0.955383
-0.115020,-0.000569,0.900654,0.798758,-0.528774,-0.287026
0.352098,0.549932,0.662589,-0.568308,-0.310663,-0.761915
-0.502160,0.541324,0.378383,-0.250566,-0.393686,0.884437
0.528007,-0.312851,-0.927799,-0.681026,0.275563,0.678431
0.048976,0.381126,0.800983,-0.238208,-0.914572,0.326827
-0.482722,-0.712851,-0.990975,0.092614,-0.082667,0.992264
-0.110422,0.471763,0.723113,-0.567907,0.743911,-0.352247
-0.228437,-0.310525,-0.952195,0.294285,-0.372972,0.879936
-0.456318,-0.382115,-0.982711,0.010637,-0.024721,0.999638
-0.881774,-0.257093,-0.990270,-0.173379,-0.251119,0.952302
0.591264,-0.298701,0.771482,0.223423,-0.950776,0.214725
-0.251429,0.388300,-0.951716,-0.014518,-0.187750,0.982110
0.018811,-0.496104,0.462853,-0.027636,-0.917984,0.395654
0.112511,0.112529,0.938629,0.966292,0.108338,-0.233545
0.115020,-0.019517,0.788996,-0.531156,0.845409,-0.056193
-0.500557,0.403389,0.277824,-0.066087,-0.365498,0.928463
0.474572,0.673173,0.691469,0.708432,0.674811,-0.206772
0.275672,0.094817,0.613318,-0.184806,0.836883,0.515241
-0.087711,-0.060581,0.258590,0.019083,0.598227,0.801100
0.110770,0.011404,-0.637164,0.600055,-0.799078,-0.037527
-0.130626,0.536029,0.788869,0.725078,0.668387,0.165894
0.059983,0.041187,0.668258,0.437271,0.848990,-0.296663
-0.659468,-0.238738,0.415570,0.056508,-0.365717,0.929009
0.163647,-0.404329,0.495907,-0.485623,0.049342,0.872775
0.526404,-0.148893,0.685406,-0.168678,-0.176524,0.969736
-0.038735,-0.079530,0.396377,-0.111079,0.798494,0.591666
0.727115,-0.006110,0.699958,-0.817137,0.561772,0.129223
-0.059564,0.256351,0.745747,0.994565,-0.020785,0.102017
0.706981,0.738083,0.517313,0.591874,-0.725077,0.352063
-0.365054,0.311219,0.559717,0.854785,-0.497257,-0.148591
0.012472,0.330464,0.690242,0.702411,-0.633645,0.324210
0.180926,-0.042424,-0.781819,0.152305,0.986826,0.054572
0.276091,-0.191094,0.730517,0.919787,-0.392053,-0.016915
-0.326041,0.412146,0.502619,-0.101748,0.326747,0.939619
-0.569457,0.311416,0.588583,0.402978,0.679426,-0.613180
0.323604,-0.570019,0.499475,-0.083705,-0.170002,0.981882
0.028215,0.766531,0.412115,0.816673,-0.069783,-0.572867
-0.062978,-0.022288,0.848999,-0.308889,0.514076,0.800196
0.230040,0.066370,0.848520,-0.851979,0.449623,0.268272
0.369026,-0.536327,0.490703,0.164312,0.141816,0.976161
-0.466768,-0.345405,0.598906,0.160718,0.771363,0.615767
0.478822,-0.379641,0.478915,0.765636,-0.399923,0.503848
-0.050996,0.869981,0.413595,-0.704810,-0.281085,0.651332
0.054619,0.303203,0.832528,0.981130,-0.073099,0.179001
0.381706,0.220483,0.820443,0.152874,-0.985096,0.078834
-0.549393,0.199505,0.580700,-0.357918,0.578155,-0.733234
-0.151317,0.290439,0.113131,-0.514190,-0.671801,-0.533191
0.464539,0.526135,0.640351,-0.568857,0.690372,-0.446977
0.821095,0.017736,-0.917463,-0.100748,0.590264,0.800898
-0.427059,-0.332294,0.713017,-0.368313,-0.884358,-0.286803
-0.079560,0.220086,0.770185,0.753324,0.422502,0.503979
0.102410,0.401360,0.468113,-0.393470,-0.641908,-0.658130
0.444894,-0.774843,0.483131,-0.034996,-0.889314,0.455956
-0.348892,-0.346691,0.692428,-0.469791,0.741751,0.478647
0.759023,0.371528,-0.929661,-0.036517,-0.028652,0.998922
0.470741,0.663426,0.666439,0.509012,0.838481,-0.194568
0.130069,-0.345801,0.491846,-0.738566,-0.027034,0.673639
-0.425456,-0.129994,0.697561,-0.141231,-0.618475,0.773008
-0.166086,0.667631,-0.947175,0.071162,0.054366,0.995982
0.230389,-0.032777,0.585904,0.767690,0.535133,-0.352540
-0.092240,0.601979,0.385872,-0.675508,-0.322989,0.662848
0.502996,0.651700,0.632595,0.938198,0.315021,-0.143341
0.558312,-0.395671,0.568911,0.984440,0.169908,-0.044828
0.162952,-0.261793,0.845516,0.847644,0.499370,-0.179247
-0.550996,0.351243,0.601782,-0.216346,0.440148,-0.871472
0.012053,-0.261843,0.627997,0.759322,-0.363181,-0.539936
-0.327017,-0.378751,0.487799,0.092014,0.682240,0.725315
0.059217,0.047371,0.755956,0.057548,0.314192,0.947614
0.327225,0.730612,0.612500,-0.009424,0.931518,0.363572
0.067855,-0.158442,0.828650,0.851096,-0.478661,-0.215683
-0.618573,0.000520,0.794609,-0.763965,0.626970,-0.152530
-0.884840,0.091601,0.514479,-0.445967,0.867429,-0.220637
-0.019507,-0.069091,-0.958668,-0.355969,0.000711,0.934497
0.761113,-0.166754,0.663646,-0.407075,0.887579,-0.215623
-0.674725,-0.487198,-0.989903,0.382228,0.152335,-0.911425
0.643584,0.260754,-0.911343,0.095232,0.067256,-0.993180
-0.510171,-0.028572,0.758974,0.796348,-0.056860,0.602160
-0.226348,0.223253,0.781043,-0.460344,0.858723,-0.225116
0.436673,0.529647,-0.927179,-0.108529,0.198406,0.974093
-0.172148,-0.339023,0.633497,-0.798197,-0.234255,-0.554982
0.070851,0.021150,0.909989,0.978898,0.051587,-0.197732
0.142191,-0.004378,0.092838,0.870655,0.490697,-0.034295
0.295109,-0.495411,0.493735,-0.188847,-0.244198,0.951159
0.295528,-0.498627,-0.950475,-0.211790,-0.157600,0.964524
-0.354605,0.188621,0.780789,-0.061407,0.287120,-0.955924
0.699457,-0.381966,0.642184,0.951946,-0.227623,0.204907
-0.551761,-0.490761,-0.038787,0.981252,-0.164707,-0.100083
-0.558312,0.108275,0.510643,-0.394932,0.300088,-0.868318
-0.252054,-0.024614,0.913246,-0.843781,0.318018,-0.432316
0.036158,-0.039209,0.160301,-0.232655,0.827651,0.510749
-0.113626,0.228349,0.697476,0.915332,0.347154,0.204089
0.141216,0.000470,0.613021,0.327819,0.933560,0.144918
0.216176,-0.126976,0.758861,0.550544,0.295965,0.780580
-0.068064,0.688806,0.583507,0.417684,-0.103287,0.902703
0.282988,-0.585455,0.491296,-0.644631,-0.254219,0.720988
0.298942,0.255362,0.839918,0.352534,0.504043,0.788455
0.049463,0.396413,0.815578,0.410847,0.792081,-0.451456
-0.262365,0.368509,-0.955523,0.251662,-0.053612,0.966329
0.496517,0.577390,0.463939,-0.340622,0.753811,-0.561912
0.633762,-0.126481,0.625812,0.404357,-0.091361,-0.910027
-0.158492,0.007149,0.850494,0.849106,0.161830,0.502821
-0.119130,0.421596,0.750062,0.984036,0.046868,0.171688
-0.098299,0.662733,0.583944,0.566229,0.111561,0.816664
0.303887,0.048460,0.747213,-0.305057,0.940833,-0.147562
0.069945,0.525443,0.377354,0.653394,-0.380197,0.654620
-0.771979,-0.470872,-0.963195,-0.301919,-0.158806,0.940014
-0.032116,-0.052269,0.526663,-0.423972,0.609120,0.670239
-0.357252,-0.252641,0.695629,0.086286,-0.099147,0.991325
0.321861,0.641360,0.544614,0.780112,0.614015,0.120042
0.748014,-0.176005,0.702328,0.559467,0.209019,-0.802064
0.217779,0.005665,0.848661,-0.300203,-0.352377,0.886402
-0.794133,0.253036,0.590924,0.352676,0.575362,-0.737955
-0.102062,-0.225726,0.863199,0.705723,0.479131,0.521909
-0.063119,-0.321855,0.794144,0.803167,-0.018713,0.595461
0.300683,0.537662,0.683079,0.985639,0.120224,-0.118586
0.568691,0.656499,0.501012,0.894947,-0.446045,0.010638
0.185455,-0.205343,0.483484,0.084056,-0.006848,0.996438
0.509195,-0.219443,0.752586,0.238998,-0.256689,-0.936478
-0.421206,0.233445,0.572183,0.590436,-0.180342,0.786678
0.833008,0.335708,-0.924612,-0.140391,0.052908,0.988682
-0.707817,-0.040198,0.638926,0.601088,0.331636,0.727125
-0.583531,-0.058157,0.659148,0.773704,-0.198925,-0.601507
0.035460,-0.151020,0.605435,0.909017,-0.318318,-0.269002
-0.379894,-0.193816,0.436609,-0.106692,0.804299,0.584568
-0.005502,-0.354607,0.775360,0.011846,0.675492,0.737272
0.260415,0.368757,0.827311,0.362466,0.913147,-0.186496
0.227464,-0.450637,0.500067,0.282784,0.199130,-0.938286
0.044377,-0.084131,0.863016,-0.380606,0.189645,-0.905082
-0.330221,0.018281,-0.968807,-0.147161,0.090843,0.984932
-0.111468,0.823525,0.614827,-0.528668,0.767009,-0.363604
0.148740,-0.337687,0.825322,0.732827,0.531836,0.424400
0.264109,0.154731,0.831696,-0.054677,0.690026,0.721716
0.708165,-0.022486,0.691427,-0.549934,0.739198,-0.388792
0.068623,0.524106,-0.945426,-0.511547,0.219515,0.830742
0.505991,-0.113271,0.742785,0.895071,-0.310074,-0.320471
0.349519,0.094817,0.736750,0.721632,-0.670426,-0.172555
-0.161558,0.155424,0.849902,0.934938,0.021279,0.354172
0.305628,-0.231416,0.770030,0.605496,0.619813,0.499205
-0.411175,0.140235,0.425046,0.459793,0.615744,0.639882
0.845826,0.435250,0.510079,0.830324,-0.420676,0.365504
-0.234499,0.011552,0.714314,0.339659,0.924880,-0.170963
-0.128952,0.463600,0.525535,-0.204002,-0.433282,0.877867
0.594399,-0.793692,-0.951250,-0.014231,0.073627,0.997184
-0.008847,-0.470971,0.667158,0.574622,0.812353,0.099459
0.074893,-0.059295,-0.077679,0.906712,-0.409381,0.101394
0.052739,0.043512,0.827254,0.530655,0.842025,0.096946
0.221262,-0.416697,0.813435,0.850430,-0.510958,-0.125258
0.257907,0.162845,0.558349,-0.799579,0.583521,-0.142047
-0.245157,0.646605,0.266980,0.288472,0.235831,0.927991
0.208863,-0.280594,0.783737,0.725630,0.680461,-0.102145
0.110143,0.961954,0.598412,0.056145,0.741581,0.668510
0.005015,0.376970,0.716161,0.855093,-0.390789,0.340734
0.248084,0.310525,0.648600,-0.448829,0.049216,-0.892262
0.637036,-0.491552,0.563172,0.363261,0.052934,-0.930183
0.871464,0.433766,0.480170,0.987828,0.005287,-0.155458
0.117389,0.007149,0.162740,0.733806,0.677503,0.050182
-0.031419,0.744762,0.552300,0.275635,-0.282887,-0.918695
0.333148,0.508670,0.634343,-0.439297,0.453193,-0.775651
-0.524244,0.199555,0.194272,0.075341,-0.425833,0.901660
-0.144141,-0.007100,0.840115,0.946505,0.321078,-0.032213
-0.580047,-0.404131,-0.976394,-0.444047,0.470157,0.762741
-0.708165,0.259666,0.587695,0.197194,0.692995,-0.693450
0.211718,0.403983,0.646978,0.957242,0.212685,-0.196094
-0.588685,-0.345108,0.416684,-0.447984,-0.194057,0.872727
0.231154,0.242202,0.355863,0.011830,-0.313551,0.949498
-0.407899,0.089673,0.767745,0.317318,-0.944277,0.087464
0.225512,-0.590353,0.464079,0.712307,0.255376,-0.653760
-0.649992,-0.236265,-0.947852,-0.274586,0.960773,-0.038951
0.292045,0.086060,0.789222,-0.433538,-0.148181,-0.888869
0.248433,0.505158,-0.920325,-0.031823,0.337736,0.940703
0.447679,-0.211726,0.743772,-0.422243,0.439972,0.792550
0.735753,-0.233494,0.551764,0.716036,-0.383764,-0.583110
-0.639683,-0.072505,0.414061,-0.373523,0.329115,0.867274
-0.121150,-0.018380,0.732279,-0.055560,0.819720,0.570064
-0.021597,0.035102,0.160710,0.307188,-0.703270,-0.641129
-0.135433,0.311911,0.722874,0.863172,0.256426,-0.434948
0.489759,-0.663080,0.505708,-0.121792,-0.074633,0.989746
-0.310366,0.018429,0.716993,0.059143,-0.017508,0.998096
0.846245,0.529252,0.496133,0.994058,0.074708,-0.079164
-0.131042,-0.058701,-0.959585,0.130382,-0.025455,-0.991137
0.564233,-0.024663,-0.919395,-0.060077,-0.069648,0.995761
0.339069,0.409969,0.506638,-0.801622,0.527435,-0.281450
0.118783,-0.012047,0.504608,0.839141,0.534780,-0.099255
-0.169709,-0.041336,0.724411,-0.345050,0.806551,0.480016
-0.206492,0.371973,-0.956398,0.012292,-0.311325,0.950224
-0.237424,0.329574,0.511687,-0.233156,0.814718,0.530916
-0.673540,-0.061719,0.648642,0.724204,0.445589,0.526288
-0.036018,0.560025,-0.951913,-0.100144,0.056430,-0.993371
0.224468,0.140581,0.871251,0.961170,-0.105741,0.254896
0.098371,0.016351,-0.875962,0.976913,-0.213255,0.012816
0.106242,0.319184,0.818018,0.891550,-0.432400,-0.134794
-0.547582,0.274113,0.498953,0.181394,0.680597,0.709848
0.203707,0.386568,0.789504,0.547280,0.779500,-0.304736
-0.834749,0.272183,0.650729,-0.534207,0.826951,-0.175429
0.105058,0.025108,0.026462,0.990259,0.083354,0.111533
0.155775,-0.353420,0.793791,-0.845968,0.355800,0.397171
-0.527101,0.501200,0.368780,-0.346368,-0.506807,0.789415
-0.401491,0.326654,0.338490,-0.156551,-0.550583,0.819969
0.500835,0.063105,-0.936571,-0.281489,-0.104338,0.953875
-0.002020,0.678961,0.582026,-0.547715,-0.057376,-0.834695
0.494217,0.643241,0.682811,-0.733142,-0.649655,0.201123
-0.505156,0.271292,0.511165,-0.075071,0.432595,0.898458
0.756374,-0.178083,0.711564,0.559467,0.209019,-0.802064
0.059077,0.408732,0.819696,-0.252978,-0.824675,0.505879
-0.085689,0.483538,0.736284,-0.476195,0.786642,-0.392979
0.703845,0.257489,0.758805,0.819755,0.331333,-0.467140
0.485857,0.042326,0.848745,0.864124,0.255630,-0.433524
0.475337,0.751935,0.542725,-0.519409,0.589249,-0.618870
0.500487,0.640075,0.671572,0.686725,0.726143,-0.033549
0.279922,-0.373655,0.800447,0.019870,0.891533,0.452521
0.814686,0.126035,0.793128,0.857527,0.465023,-0.220000
0.746481,0.082745,0.764812,-0.461286,-0.244221,0.852978
-0.508498,0.096154,0.806990,0.839080,-0.382970,0.386366
0.110283,0.020606,0.593674,0.943285,-0.215515,-0.252520
0.067369,-0.032777,0.771877,0.009309,-0.817275,0.576173
-0.155218,-0.438318,0.494694,0.176661,0.910660,0.373481
-0.322418,-0.077056,0.705613,0.683210,-0.457964,-0.568765
0.152152,-0.039159,-0.053170,0.927832,-0.369542,-0.050666
0.234220,0.363859,0.645328,0.069074,0.241652,0.967901
-0.091751,-0.100655,-0.961263,0.020127,0.195308,0.980535
-0.350495,0.085368,0.736834,0.989398,-0.141141,-0.034229
-0.050160,0.371775,0.684587,-0.386696,-0.870482,-0.304512
-0.039849,-0.130637,0.796188,0.469694,0.323610,-0.821379
-0.433188,-0.372319,0.677861,0.880719,0.290466,-0.374118
-0.439669,0.237452,0.579445,0.417861,-0.150388,0.895977
0.109934,0.081212,-0.901556,0.948350,0.316751,0.017346
0.120036,-0.036586,0.081289,0.873461,0.485214,0.040406
0.046467,0.009177,0.527636,0.894811,-0.439997,0.075605
0.295876,-0.557650,-0.946541,-0.151813,-0.079288,0.985224
-0.892921,-0.060037,0.673461,0.642629,-0.516096,0.566280
0.836144,0.078738,0.789067,0.096827,-0.930609,0.352975
0.483140,0.492245,0.622427,0.001605,-0.835275,0.549830
0.211231,0.565763,0.692456,-0.103108,0.904828,-0.413104
0.400725,-0.330662,0.555473,0.075033,-0.700616,0.709583
0.281593,-0.399530,0.829327,-0.479586,0.763427,0.432639
0.085483,0.113816,0.788926,0.861122,-0.012732,0.508239
0.032952,0.681979,0.571083,-0.443768,0.053190,-0.894562
0.280828,-0.692764,0.474726,0.771754,-0.080742,-0.630774
0.402118,0.543649,0.632087,-0.222319,0.542222,0.810290
0.323045,0.216376,0.876328,-0.271992,-0.878215,0.393394
0.144071,0.107978,0.348023,0.101370,0.123953,0.987097
-0.434164,-0.062412,0.758100,0.557533,0.463585,0.688655
-0.427686,0.444551,0.013234,-0.276835,-0.896423,0.346103
0.247249,0.075918,0.843288,0.930988,0.341753,-0.128318
0.584228,-0.457959,0.556474,0.370046,-0.130562,-0.919793
-0.712692,0.337638,0.345780,-0.397318,0.370353,-0.839629
0.124983,-0.568782,0.453870,0.494080,0.518811,-0.697653
0.079421,0.005021,0.571689,0.548727,-0.782899,-0.293203
-0.421555,0.253334,0.474444,-0.460546,-0.543197,-0.702022
0.762018,0.483686,0.326292,0.183321,0.312514,0.932056
0.575520,-0.314830,0.665677,-0.277951,-0.919354,0.278445
0.485162,-0.206481,0.596438,-0.186779,-0.739302,0.646951
0.705518,0.021793,-0.930422,-0.223207,0.528366,0.819150
0.305769,-0.011849,0.900174,0.830023,0.556088,0.042752
0.096419,0.010711,0.781396,0.979300,-0.151293,0.134467
0.185941,0.077452,-0.938672,0.070716,0.197646,0.977719
0.016511,0.400618,0.670176,-0.650521,-0.734516,-0.193152
-0.606172,0.013927,0.791182,-0.763965,0.626970,-0.152530
0.030932,-0.300631,0.722112,-0.655430,0.503777,0.562690
-0.032603,0.503179,0.736679,-0.549479,0.282935,-0.786143
0.262992,0.408188,0.444252,-0.653677,0.016750,0.756588
-0.246900,0.343921,0.116247,0.131658,0.861770,0.489917
-0.173332,-0.703203,-0.964718,0.720057,-0.249763,-0.647408
0.072314,0.215238,0.748412,-0.185001,-0.322570,0.928290
-0.630974,0.310624,0.601176,-0.446379,0.025731,-0.894474
-0.021667,0.433618,0.528440,0.912873,-0.398681,-0.087837
0.359760,0.697811,0.589627,0.993681,0.112244,0.000379
-0.157308,-0.119010,0.797175,0.162350,0.893109,-0.419521
0.305212,0.480717,0.528623,0.706582,-0.590325,0.390203
-0.120244,0.474533,0.263836,-0.593452,0.085759,-0.800288
0.290234,0.374645,0.610554,-0.829114,0.513250,-0.221687
-0.442037,0.539691,0.379230,-0.126294,-0.304407,0.944133
-0.042774,0.058207,0.934540,0.000464,-0.747758,0.663972
0.495333,-0.170365,0.738329,-0.108131,0.720446,0.685030
0.457642,0.026048,0.717134,0.275135,0.193827,-0.941664
0.279714,-0.007199,0.921031,0.170940,0.963541,0.205836
0.055664,0.021299,0.899497,0.838387,-0.025187,-0.544493
-0.096558,-0.026345,0.268221,0.223945,0.952462,-0.206553
-0.251637,-0.737044,-0.975294,0.595231,0.085813,-0.798960
-0.364846,0.115548,0.496189,0.339770,0.271928,0.900340
0.608331,0.037724,-0.931409,0.190426,-0.099942,-0.976601
0.141634,0.595498,0.405854,0.829157,0.188390,-0.526315
0.686847,0.026098,0.628139,0.076258,0.851445,-0.518870
-0.078724,0.407742,0.755829,0.755003,0.208720,0.621617
-0.344364,0.144490,0.712467,0.804754,-0.473895,0.357485
-0.827852,-0.400470,-0.997476,-0.223063,0.225526,0.948357
-0.458897,-0.035993,0.748807,-0.330343,-0.304761,-0.893305
0.206214,-0.101052,-0.935118,0.276028,-0.669269,0.689846
-0.789118,-0.035003,0.231331,-0.662044,-0.654833,-0.364542
0.224468,-0.309190,0.799446,0.633181,0.606665,0.480665
0.285565,-0.035003,0.805538,0.620619,0.096779,-0.778117
0.124077,0.200148,0.741770,-0.673784,0.162586,0.720820
0.037064,-0.180903,-0.957780,0.038103,-0.292479,0.955513
0.165599,0.195349,0.652647,0.634129,-0.319241,0.704248
0.090985,-0.032728,-0.281011,-0.395816,0.910142,-0.122356
-0.292113,0.003389,0.745239,0.816101,0.541887,0.200841
0.738330,0.414570,0.622427,0.261476,-0.251416,0.931891
-0.327852,0.096253,0.746466,0.119031,-0.954577,-0.273156
-0.622545,-0.530439,-0.490802,-0.723224,0.689798,0.033552
-0.140657,0.602226,0.538776,-0.213064,-0.921560,0.324546
0.380592,-0.002746,-0.927080,0.415702,-0.214833,-0.883764
-0.231085,0.559282,-0.935386,0.057934,-0.039128,0.997553
-0.239236,0.042127,0.730714,0.066816,-0.721753,0.688918
-0.539500,0.295436,0.332610,-0.569898,-0.325871,0.754337
0.051693,-0.173977,0.780634,-0.295900,0.834883,-0.464126
-0.591193,-0.095015,0.747791,0.914946,-0.291647,-0.278956
-0.635154,0.156908,0.587709,0.279582,0.150536,0.948247
0.598090,0.401707,0.601472,-0.592585,-0.080590,0.801466
-0.061445,0.505850,0.534517,0.373167,0.078471,-0.924440
0.309251,-0.131874,0.604095,-0.551747,-0.314170,0.772575
-0.153893,-0.319976,0.617083,0.891210,0.402593,0.208957
0.088130,-0.212369,0.770678,0.266746,-0.368704,-0.890452
0.673610,-0.313098,0.784597,-0.618369,0.391623,0.681360
-0.581720,0.350254,0.193017,0.199362,-0.103605,0.974434
0.090149,-0.259221,0.809148,0.598657,0.550776,0.581597
0.611954,0.677823,0.499023,0.972764,-0.219173,-0.075450
-0.211856,-0.069536,0.482778,0.138111,-0.301820,0.943308
0.019925,-0.458948,0.479422,0.361741,0.519157,-0.774351
0.043890,0.958541,0.413595,-0.787915,-0.071878,0.611575
-0.101854,0.339172,-0.958837,0.177791,0.036952,-0.983374
-0.218964,-0.054743,-0.960713,-0.000962,0.150201,0.988655
-0.034276,-0.276190,0.820570,0.892677,0.431091,0.131485
-0.136268,0.647743,0.385448,-0.593871,-0.592751,0.544026
0.263133,-0.324576,0.780705,0.921115,0.234233,0.310937
0.207468,0.511094,0.628279,-0.551399,0.817897,-0.164326
-0.075031,-0.420211,0.778871,0.475369,-0.596984,-0.646247
0.367493,0.125739,0.905702,0.814382,-0.554986,0.169625
0.592377,-0.469784,0.553484,0.370046,-0.130562,-0.919793
0.443291,0.065875,0.811291,0.316491,0.842678,0.435576
-0.122266,-0.102981,-0.962137,0.139585,0.232041,0.962639
0.553364,-0.528163,0.562396,0.547058,0.287908,-0.786026
0.259580,0.694694,0.512984,-0.446043,-0.170389,0.878643
-0.122334,-0.156364,0.934667,0.691312,0.720651,0.052432
-0.203497,-0.020359,0.895295,-0.173282,0.940974,0.290761
0.007943,-0.009722,0.586172,0.399734,0.875685,-0.270903
0.420022,-0.364849,0.732096,-0.135172,-0.261201,0.955773
0.315104,0.409623,0.583182,0.360826,-0.253312,-0.897573
-0.358087,-0.524205,-0.982528,-0.185115,-0.136901,0.973134
-0.261460,-0.537118,-0.972375,0.343534,0.176276,-0.922448
0.550301,-0.240421,0.729798,0.519311,0.799159,-0.302757
0.203428,-0.557304,0.465673,0.695880,0.324147,-0.640843
0.590707,0.619246,0.497867,-0.730515,0.643754,-0.227879
-0.498048,0.374892,0.348728,0.393795,0.094130,0.914366
-0.001393,0.323834,0.777644,0.073711,-0.727372,0.682273
-0.027380,-0.045294,0.922173,0.926195,-0.195122,0.322629
0.661001,0.152258,0.775783,-0.205666,0.690577,0.693402
0.274696,-0.317848,0.498882,0.604473,-0.659207,-0.447279
-0.106590,-0.062807,0.839241,0.925941,-0.373070,-0.058752
0.100669,-0.253334,0.699944,0.013575,0.865000,0.501588
-0.321374,-0.307063,-0.974053,0.445134,0.344880,-0.826386
0.355789,0.340755,0.806751,-0.761736,-0.606013,-0.229142
0.668246,0.135238,0.768394,0.830248,0.501274,0.243749
-0.117527,0.022535,-0.961742,0.394943,0.106802,-0.912477
-0.041103,0.204205,0.091414,0.858829,0.324170,0.396643
0.664205,0.046976,-0.937558,-0.003612,0.008115,0.999961
-0.215201,0.209103,0.792522,-0.031884,-0.782764,0.621501
0.566533,-0.166555,-0.933666,-0.138599,-0.200181,0.969906
0.582974,0.155226,0.767928,-0.488695,0.744726,0.454488
0.774975,0.449449,0.620524,0.118467,0.495343,-0.860582
0.781872,0.412492,0.608185,0.221864,-0.713371,0.664739
0.511495,0.149734,-0.937656,-0.158110,-0.069198,0.984994
0.275951,0.155424,0.920974,-0.089144,-0.886435,0.454188
0.760137,0.468052,-0.916490,0.001332,-0.269069,0.963120
-0.096490,0.477848,0.737878,-0.720904,0.582297,-0.375804
-0.654450,0.004626,0.695220,0.792531,0.557551,0.247047
0.751986,0.509709,0.535519,0.892514,-0.029390,0.450061
-0.237424,0.244478,0.360658,0.431610,0.790188,-0.435104
0.317473,0.541768,0.572691,0.927498,-0.202895,-0.313977
0.732271,-0.348472,0.564046,-0.281731,0.339699,0.897347
-0.037899,-0.075869,0.392640,-0.131378,0.783912,0.606813
0.075380,0.171503,0.227608,0.918163,-0.145664,0.368456
-0.063397,-0.413680,0.618253,0.752489,0.484442,0.446179
-0.063465,-0.198664,0.676564,0.720577,-0.589816,-0.364535
0.727880,-0.344366,0.563948,-0.130837,0.372856,0.918619
0.885398,0.505949,0.506794,0.862501,0.242022,0.444430
0.505991,0.010316,0.817580,-0.686784,0.362943,0.629762
-0.345477,0.023130,0.749878,-0.160356,0.612326,-0.774172
-0.149435,0.087347,0.835250,0.944256,0.290402,0.155075
-0.749337,0.345653,0.350617,-0.397318,0.370353,-0.839629
