0.054793,0.246954,0.806809,-0.278518,0.847501,0.451851
0.452871,0.653046,0.660536,0.127677,0.718259,-0.683961
0.464307,0.336922,-0.991114,-0.168383,0.304366,0.937555
-0.146180,-0.725525,0.386671,-0.359856,0.216705,0.907493
0.274342,0.291964,0.896639,0.954838,0.272016,0.119550
-0.198207,-0.143067,0.835171,0.581667,0.126654,0.803506
-0.046204,-0.861870,0.383459,0.141436,0.973871,-0.177685
0.336411,0.356145,0.689303,0.510501,-0.476163,-0.716001
-0.251739,-0.232353,-0.100267,0.830484,-0.521770,0.195068
-0.169804,-0.418015,0.561011,0.323059,0.876642,-0.356554
0.575774,0.144433,0.589925,-0.535979,0.705197,-0.464138
-0.324815,-0.677469,0.375125,0.754336,0.656281,0.016517
0.275686,-0.225630,0.800778,-0.556862,0.546286,0.625681
-0.195684,-0.124527,0.843983,-0.036124,-0.849001,0.527155
0.013019,-0.012395,0.690026,0.609052,-0.764309,-0.211867
0.316116,0.038708,0.818060,0.775396,0.006687,-0.631440
-0.208516,-0.276943,0.137785,0.097987,0.090874,0.991030
-0.739483,0.074632,0.468926,-0.694051,-0.688644,0.209911
0.369110,0.367279,0.797359,0.956419,0.250998,-0.149207
0.047169,0.166334,0.821357,0.283481,0.472475,-0.834509
-0.022202,-0.542385,0.564553,0.565416,0.218455,-0.795350
0.857123,0.190021,0.623815,0.653282,-0.757001,-0.013080
-0.000619,-0.156040,0.825378,0.379582,0.716383,0.585417
0.157132,0.038708,-0.983809,-0.400893,-0.008835,0.916082
0.231978,0.612657,0.393106,-0.702705,-0.622709,0.344152
0.297108,-0.501366,0.361201,-0.438973,-0.705940,-0.555835
0.376895,0.334716,0.775468,-0.547685,0.432177,-0.716425
-0.188060,-0.065389,0.694206,-0.391011,-0.825605,-0.406802
-0.397568,-0.303992,0.717935,0.805638,0.132620,0.577373
-0.651212,-0.161817,0.488255,0.869032,0.409924,-0.277031
0.382855,0.431145,0.691595,0.524881,0.292938,-0.799179
0.734006,0.298634,0.581872,0.929462,-0.301615,-0.212437
0.229509,-0.038708,0.445895,0.976961,0.062270,-0.204132
0.914629,0.056775,0.772526,-0.679442,-0.185551,0.709880
0.473329,0.435662,0.837340,-0.239402,-0.928647,0.283374
0.043249,0.246218,0.864624,0.734328,-0.422894,0.530964
0.298236,0.111449,0.817717,0.700249,0.693929,-0.167671
0.816424,0.012447,0.723524,0.097196,0.571717,0.814673
0.212435,-0.497111,0.728549,0.263485,0.363565,0.893530
0.160997,0.264128,-0.999497,0.250703,-0.480213,-0.840561
0.088780,-0.050735,0.758137,0.598250,0.602838,-0.527904
0.140325,0.423004,0.651601,0.592408,-0.751632,-0.290003
-0.446428,0.241702,0.552713,-0.484843,0.644233,-0.591516
0.302478,0.052836,0.881195,0.669386,0.681057,-0.296788
0.245402,-0.091912,0.771656,0.588324,0.201877,0.783020
-0.311015,-0.597689,0.270047,0.222074,-0.808658,0.544753
0.329968,-0.215336,0.566135,0.925439,0.305073,-0.224707
0.534377,0.138655,0.615395,-0.396538,0.440031,-0.805686
0.151439,0.369433,0.848653,-0.557487,0.599191,-0.574612
-0.098231,-0.332878,-0.393927,-0.343496,0.901981,0.261612
0.826357,0.022952,0.728341,-0.195018,-0.844634,0.498559
0.388601,0.058508,0.893145,-0.044484,-0.983785,0.173749
-0.184891,-0.430147,0.551770,0.189625,0.806163,0.560485
0.111922,0.410872,0.664789,-0.490428,-0.768595,-0.410782
0.208999,0.168750,0.333587,0.867043,0.394093,-0.304838
0.229670,-0.139653,0.822179,-0.430555,-0.768308,-0.473630
0.723106,-0.112763,0.741578,0.624641,-0.157163,-0.764934
-0.221724,0.188078,0.778397,-0.678380,0.468001,-0.566371
0.450402,-0.094853,0.818134,0.820763,0.562088,-0.102006
0.716019,-0.081565,0.741725,0.679298,0.056587,-0.731678
0.216461,0.612920,0.632370,-0.410476,0.910779,0.044616
-0.392145,-0.695588,0.387847,0.901579,0.423930,0.086247
0.119923,0.352521,0.265169,-0.033593,-0.602397,0.797489
0.375393,-0.085032,0.876157,0.757602,0.144097,-0.636612
0.007275,-0.540861,0.572974,0.790410,-0.068060,-0.608786
0.593654,-0.166019,0.746836,-0.627168,-0.376887,-0.681628
0.220543,0.147952,0.265549,0.875181,0.460349,-0.148781
-0.022416,0.002678,0.735646,0.847267,-0.410509,0.337076
-0.258343,0.041176,0.191678,0.135416,-0.333740,0.932888
0.561867,0.494485,0.720950,-0.024576,0.586706,0.809427
0.145319,0.007983,0.844363,-0.195935,0.417776,0.887171
-0.240732,-0.224317,0.686852,0.347152,0.008083,0.937774
-0.452871,0.264075,0.629465,0.981129,0.145875,-0.126911
0.524927,0.375420,0.845932,0.508898,0.849457,-0.139446
0.181723,0.041702,0.957089,0.939206,0.335265,-0.074096
0.083894,0.104149,0.677929,0.080938,-0.287383,0.954390
0.007758,0.147899,0.731895,0.792314,0.303303,0.529382
-0.098929,0.585714,0.624207,-0.634930,0.253911,-0.729653
0.172649,-0.012553,0.916004,0.811001,-0.569527,0.133854
0.462750,0.638498,0.580904,-0.193582,0.444180,0.874774
-0.117883,-0.053782,0.798670,0.188566,0.524686,0.830149
-0.050392,-0.236607,0.575254,0.311613,-0.450661,-0.836542
-0.155092,0.111187,0.609732,0.328406,-0.766518,0.551905
0.579585,-0.051418,0.711990,-0.110273,0.431336,0.895427
0.214636,-0.276366,0.178109,-0.547300,-0.046811,-0.835626
0.309833,0.338445,0.819691,0.270347,0.741808,0.613705
0.208837,-0.492332,0.381989,-0.223297,-0.925339,0.306409
-0.222530,-0.075630,0.742779,0.319323,-0.799386,0.508936
0.550378,-0.602206,0.661848,0.109663,0.689031,0.716387
0.276920,-0.015389,0.909202,-0.247022,0.962005,0.116302
0.909151,0.091124,0.650596,0.994473,-0.014660,-0.103966
0.180273,0.028414,0.968390,0.757010,0.646608,-0.093983
0.210985,0.054622,0.963953,0.126726,-0.204832,0.970559
0.349566,-0.332668,0.722899,-0.083916,0.049934,0.995221
0.361003,-0.028519,0.799222,0.564949,0.393271,-0.725376
0.081317,0.264338,0.768261,0.778360,0.618171,-0.109635
0.355419,0.335924,0.808806,-0.656497,0.252864,-0.710684
-0.127118,0.560767,0.713363,-0.654686,0.585424,0.478189
0.409541,-0.048162,0.866830,-0.225904,0.694771,0.682833
0.279174,-0.022216,0.815192,0.894870,0.311221,-0.319919
-0.090876,-0.088498,0.719087,0.859916,0.308107,-0.406957
-0.019841,0.432878,0.732300,0.123398,-0.370346,0.920661
0.499154,-0.092700,0.859268,0.693925,0.719394,-0.030674
0.588768,-0.639758,0.587363,-0.091311,0.654844,0.750228
0.553920,-0.485452,0.672266,0.224721,0.968879,-0.103796
-0.496416,0.088183,0.668037,0.975786,0.145965,0.162897
0.807994,0.083403,0.754350,-0.606563,0.540605,0.582947
0.211254,-0.291807,0.168770,0.930969,-0.282470,-0.231315
0.489221,0.371533,0.848923,0.185289,0.969835,-0.158391
0.183549,0.053309,0.900696,0.897971,0.357713,0.256298
-0.302855,0.020956,0.732422,0.691684,-0.703935,-0.161395
-0.098286,0.290809,0.180585,-0.411719,0.908372,0.073135
0.081908,0.369538,0.628240,0.387592,-0.252371,0.886612
0.210126,0.117857,0.894028,0.979457,-0.201159,0.014092
-0.427206,0.205987,0.498600,-0.543385,0.838426,-0.042128
-0.308385,0.287815,0.629441,0.667431,-0.018361,0.744445
-0.273537,0.710557,0.660046,-0.179478,0.197766,0.963679
0.486858,0.206250,0.695542,0.561163,-0.308435,0.768091
0.353808,0.395851,0.781842,0.706149,-0.449685,0.546934
-0.414912,0.076628,-0.209830,0.250804,-0.947482,-0.198432
0.578620,-0.004937,0.712628,0.121001,0.435806,0.891870
-0.296250,0.275788,0.638731,0.466755,-0.119062,0.876335
-0.591399,-0.001103,0.564455,0.903243,-0.366029,0.223997
0.258504,-0.163761,0.836458,-0.059936,0.998105,0.013941
0.499852,-0.578571,0.739176,-0.713985,0.331989,0.616448
-0.616689,-0.216649,0.504397,-0.582528,0.797234,0.158365
-0.280680,0.478519,0.719013,0.958030,-0.218232,-0.185885
0.240194,0.016124,0.884995,0.291917,-0.592146,-0.751098
-0.391985,0.349632,0.690945,0.579522,-0.252250,0.774935
-0.213348,-0.017752,0.531117,0.405039,-0.249408,-0.879624
0.018497,0.536449,0.604204,-0.495434,-0.063409,-0.866328
0.214475,0.084821,-0.782185,-0.058991,0.998250,0.004095
0.534967,0.489233,0.678272,0.951014,0.294947,0.092627
0.269295,0.610031,0.207366,0.961428,-0.216841,0.169223
0.182797,-0.461870,0.788951,0.977990,-0.145651,0.149401
0.266826,-0.201681,0.360527,-0.123367,0.454038,0.882400
-0.739215,-0.134822,0.483156,0.844749,-0.454693,-0.282229
0.710166,0.227101,0.586775,-0.691013,0.701606,-0.173927
0.304733,0.055882,0.858066,-0.421295,-0.824258,0.378298
0.074820,0.035031,0.773887,0.969627,0.032628,-0.242401
0.267578,0.018120,0.929953,-0.521352,-0.564216,-0.640197
-0.272356,-0.079727,0.751923,0.368431,-0.804620,0.465667
-0.091895,0.344170,0.426236,0.873339,0.109582,-0.474628
0.402025,-0.147216,0.738649,0.588289,0.739128,0.328033
0.326103,-0.484927,0.750378,-0.015202,0.868740,0.495035
-0.092701,0.260714,0.715287,-0.153638,0.855236,0.494942
0.058337,0.273739,0.258734,-0.245585,-0.597572,0.763280
0.571800,-0.692752,0.681373,0.257434,-0.954971,-0.147508
0.227092,-0.503309,0.731527,-0.610996,-0.037942,-0.790724
-0.177804,-0.226261,0.150029,-0.114811,-0.413003,0.903464
0.437729,-0.622689,0.724431,-0.370541,0.551316,0.747496
0.417594,-0.184349,0.608224,0.719132,0.641484,-0.267109
0.319606,0.436344,0.877959,0.710168,0.501393,0.494234
0.380923,0.385924,0.768004,0.940079,-0.168420,0.296455
0.071384,-0.015231,0.835281,0.777310,-0.617262,0.121562
0.239871,0.083823,0.710397,0.595901,0.738129,-0.316336
-0.021772,-0.195326,0.353026,0.113752,0.023712,0.993226
-0.065478,-0.018645,0.798548,-0.511800,0.803106,0.305092
-0.377864,0.174527,0.504936,0.963449,0.198040,0.180407
-0.101882,0.274422,0.222258,0.186417,-0.502308,0.844355
0.087116,0.008246,0.863312,0.731229,-0.025803,-0.681644
-0.111011,-0.074737,0.554466,0.861029,0.344677,-0.373934
0.546565,0.655515,0.677512,0.283061,0.636646,-0.717327
0.037182,-0.086030,0.788951,0.181210,0.700451,0.690312
-0.019518,-0.331355,0.014690,-0.637487,0.348305,0.687237
0.440467,-0.082038,0.815070,0.871007,0.390682,-0.297849
-0.011464,-0.006040,0.662914,0.423408,0.122486,-0.897621
0.122930,0.184769,0.783852,-0.560322,-0.414427,-0.717140
0.210018,0.595220,0.583821,-0.332075,-0.487836,0.807305
0.219253,-0.434034,0.701131,-0.417546,-0.686727,0.595031
0.229026,-0.231408,0.730241,0.399134,0.670317,0.625593
-0.286800,-0.065756,0.398450,0.596881,-0.597838,0.535092
-0.146769,-0.048687,0.711512,0.904599,-0.143653,0.401328
0.565035,-0.430042,0.701560,0.975113,0.000394,-0.221709
0.249160,-0.315441,0.636403,-0.368430,0.333352,-0.867834
0.572498,0.301313,0.656835,0.342473,-0.885824,0.313093
-0.033531,0.141386,0.796586,0.817368,0.575645,-0.023269
-0.551934,-0.022689,0.517487,-0.683262,-0.668789,0.293045
0.131304,0.088130,0.292171,-0.118342,-0.989335,0.084918
0.433972,-0.474685,0.333844,0.335464,0.695784,0.635098
-0.282074,0.362868,0.667939,-0.699971,0.400630,-0.591216
-0.234449,0.522584,0.695971,-0.233344,0.599446,-0.765647
0.299471,0.049632,0.871512,0.201721,0.979440,-0.002241
-0.494537,0.077678,0.068338,0.281109,0.276773,0.918899
0.054954,0.020851,0.690933,0.947534,-0.310269,-0.076889
0.580606,-0.282511,0.787492,0.208651,0.151449,0.966193
0.245510,-0.573162,0.740965,0.052580,0.904750,0.422685
0.307794,0.136239,0.831763,0.921331,-0.201148,-0.332700
-0.199227,0.388130,0.733023,0.168061,0.719750,0.673584
0.539101,-0.275210,0.782381,-0.567766,0.480734,0.668234
-0.647132,0.125210,0.592045,0.074309,0.610888,0.788222
0.530993,-0.020483,0.684596,-0.324398,-0.842527,-0.430018
0.678971,0.327101,0.621143,0.933689,0.354963,-0.047191
-0.137749,0.064023,-0.401514,0.085567,0.340432,0.936368
-0.068324,-0.093698,0.823931,-0.493865,-0.306997,-0.813542
0.134097,-0.341124,0.699979,0.679395,0.559426,-0.474832
0.720637,0.334191,0.562359,0.997161,-0.051709,-0.054745
0.180542,-0.066072,-0.230654,-0.641895,0.688076,0.338410
-0.382373,0.363078,0.251527,0.550825,0.440045,-0.709191
0.391929,0.530462,0.701903,-0.092631,-0.247941,0.964337
0.071975,0.003466,-0.247164,0.422840,-0.713203,-0.559059
0.087707,0.135241,0.801207,0.765023,-0.588546,0.261444
-0.172811,0.192017,0.835379,0.677115,0.399465,0.618015
-0.134742,-0.218172,0.148276,-0.506939,-0.227035,-0.831545
0.907380,0.315178,0.664875,0.227200,-0.481362,0.846564
-0.162878,0.485504,0.688555,0.619141,0.612782,0.491083
-0.078955,-0.311607,0.569395,0.120712,-0.302325,0.945530
-0.062794,-0.013078,-0.079589,-0.338558,0.893488,0.295055
-0.005182,0.114128,0.910820,0.687611,-0.092016,-0.720225
-0.197670,-0.077206,-0.076844,0.758953,-0.643983,-0.096316
0.267845,0.470378,0.881293,0.387864,0.849629,-0.357341
0.505866,0.624475,0.479687,-0.356863,0.246804,0.900964
-0.166152,-0.027469,0.531938,0.726860,-0.305517,-0.615088
0.382104,-0.231513,0.523873,0.798886,-0.141789,-0.584531
-0.221349,-0.050263,0.737055,0.357872,-0.841558,0.404608
0.759402,0.123582,0.555606,-0.162643,0.689619,-0.705672
0.446697,-0.738183,0.685467,0.055753,0.931609,0.359162
-0.044914,-0.591597,0.390311,0.649642,0.073926,-0.756637
0.700127,0.601891,0.732520,-0.284814,-0.713539,0.640111
-0.697066,-0.056565,0.486404,0.415834,0.604351,0.679589
-0.616795,-0.090441,0.590293,0.506154,-0.679258,0.531428
-0.358963,0.104097,0.583490,0.439145,-0.815779,0.376372
0.253026,-0.123740,0.169137,0.904092,-0.244396,-0.350555
-0.252384,0.438183,0.734518,-0.032869,0.457642,0.888529
-0.502429,0.385136,0.195097,0.715116,0.300606,0.631066
-0.238960,-0.347742,0.271482,0.796487,-0.349182,-0.493640
-0.039009,0.264128,0.727520,-0.594306,-0.798185,0.098489
-0.014900,-0.198057,0.347584,-0.460718,-0.704873,0.539345
0.168353,0.224895,0.695211,0.787287,-0.530264,0.314642
0.245187,0.032931,0.894690,-0.163019,0.619270,-0.768069
-0.264517,-0.005620,0.829606,0.767308,0.202929,0.608324
0.051947,0.025315,0.930418,-0.205342,0.750834,-0.627760
0.082123,0.373897,0.269557,-0.195668,-0.553162,0.809769
0.333834,0.394223,0.859341,-0.202068,-0.763426,0.613473
-0.280303,0.228204,0.631561,0.762459,-0.024702,0.646565
-0.038365,-0.268330,0.284596,-0.348747,0.252762,0.902489
0.193267,0.357248,0.599068,0.746157,-0.327917,0.579413
-0.140810,0.384454,0.730290,-0.453912,0.854388,-0.252953
0.539530,-0.428414,0.633179,0.992218,0.029081,-0.121072
-0.370077,0.417752,0.695284,0.469264,-0.441610,0.764704
-0.334050,-0.141544,0.722016,-0.659456,0.544624,-0.518172
-0.272733,0.416912,0.259298,0.113867,-0.638418,0.761221
0.248946,0.311870,-0.995906,-0.158452,0.512224,0.844109
-0.978309,-0.003572,0.293728,0.085565,-0.941645,0.325549
-0.391662,0.008246,0.565816,0.949148,0.140495,0.281745
0.246262,-0.631880,0.712603,-0.591748,0.454876,0.665524
-0.145481,0.237973,0.706757,0.013192,0.708306,0.705782
0.300974,0.585346,0.578955,-0.123056,-0.272834,0.954159
-0.455986,0.296481,0.224403,-0.674300,-0.509581,0.534459
0.364547,0.264968,0.737153,0.962566,-0.114145,0.245840
0.218718,-0.016387,0.949061,0.994569,0.103917,-0.005853
-0.163468,-0.072689,0.671543,0.448016,-0.349034,0.823078
0.027409,0.431040,0.289965,0.215446,-0.686923,0.694060
0.336142,0.228676,0.463018,-0.617857,0.544927,-0.566840
-0.269349,-0.378099,0.557028,0.718553,-0.144034,-0.680394
0.283256,0.306355,0.838934,0.877648,0.027613,-0.478510
0.373782,0.401050,0.851350,-0.393135,0.768400,-0.504981
0.352412,0.247111,0.807667,0.853603,-0.353825,0.382323
0.249215,0.075945,0.957359,0.379209,0.920138,0.097702
-0.321915,-0.063498,0.766410,0.238136,0.580411,0.778727
0.014899,-0.229254,0.289401,-0.527820,0.077747,0.845791
-0.180113,0.410084,0.728917,-0.481590,-0.122792,-0.867752
-0.360144,-0.532038,0.373482,-0.426928,-0.076659,-0.901031
-0.509679,0.303046,0.621020,0.583409,-0.517042,0.626340
0.016188,0.019643,0.816430,0.438659,0.896676,-0.059593
0.367660,-0.254779,0.636562,-0.494296,-0.508987,-0.704701
-0.297056,0.319170,0.755894,0.294252,0.690959,-0.660296
0.221670,-0.437815,0.388840,-0.463029,0.814466,0.349641
-0.095923,0.140599,0.754987,-0.713133,-0.635677,-0.295560
0.057800,-0.058929,0.810375,0.186714,-0.421159,0.887560
-0.077076,0.329096,0.797579,0.861121,0.055742,0.505334
-0.164918,-0.240021,0.665206,-0.616513,-0.151365,-0.772658
-0.064888,-0.002784,0.358725,-0.651656,0.582984,-0.485256
0.433649,0.381355,0.705188,-0.130216,-0.166442,0.977415
-0.741738,-0.033929,0.594730,0.573833,0.179771,0.798998
-0.683590,-0.077574,0.573795,0.778233,-0.133045,0.613720
0.122930,0.507878,0.695456,0.569848,-0.227340,-0.789677
-0.117937,-0.404202,0.577068,0.567087,0.677665,-0.468170
0.199710,0.151943,-0.975683,-0.433157,0.193787,0.880240
0.279336,0.064391,0.835097,0.845617,0.028515,-0.533027
0.222743,-0.197006,0.848898,0.564347,-0.743370,-0.359045
0.758168,-0.146166,0.755820,0.775280,-0.539595,-0.328296
0.302370,-0.445168,0.363456,0.725524,0.438193,0.530661
-0.331581,0.188183,0.539623,-0.057037,0.093897,0.993947
0.108809,0.515599,0.664189,0.549690,0.663533,0.507509
0.824424,0.350998,0.672658,0.266846,0.960484,0.079148
0.043089,-0.191597,0.605123,-0.683870,0.474257,-0.554439
0.327551,-0.272794,0.798572,-0.320019,0.709655,0.627676
0.623559,-0.286765,0.779844,0.495536,-0.253483,-0.830777
-0.096460,-0.344380,0.276752,-0.714550,0.490056,0.499262
-0.231926,-0.175368,0.579972,0.522552,-0.054172,0.850885
0.331848,0.283141,0.810670,0.704731,-0.568423,0.424557
-0.235685,0.146796,0.618790,-0.026764,-0.231259,0.972524
-0.193052,-0.177469,0.827547,0.336989,0.826373,0.451160
0.159226,0.973372,0.457123,-0.228481,-0.289290,0.929574
0.075197,-0.484454,0.324051,-0.320911,0.715722,0.620289
0.181132,0.027048,0.136338,0.821526,0.507694,0.259504
0.276865,-0.038656,0.460052,0.975089,0.152664,-0.160919
-0.624528,-0.353992,0.471806,0.283461,0.773474,0.566911
-0.222422,-0.135452,0.718989,-0.058696,-0.850504,0.522684
-0.213993,0.654884,0.663184,0.561996,-0.116267,-0.818928
-0.519505,0.345220,0.619758,0.355165,-0.784855,0.507800
0.178019,-0.577521,0.722274,0.560433,0.600523,-0.570340
0.499477,0.593907,0.641171,-0.060371,-0.356623,0.932296
-0.108702,-0.235872,0.658918,0.160275,0.684585,0.711094
0.714623,-0.005672,0.604903,0.512901,0.822440,-0.246018
0.658353,0.532038,0.711218,-0.680017,-0.563657,0.468900
0.743187,0.097636,0.588528,-0.283562,0.864299,0.415426
-0.184784,0.095641,0.689352,0.293080,-0.951705,0.091439
-0.008295,0.598319,0.731981,-0.326283,0.941270,0.086889
0.207388,0.062657,-0.013587,-0.656070,0.754692,0.003451
0.857553,-0.006303,0.729812,0.841281,-0.521379,-0.142864
0.627318,0.201733,0.610087,-0.146570,-0.100792,0.984052
0.356277,-0.331618,0.818587,-0.593807,0.743678,0.307142
0.178663,0.808771,0.625359,0.243287,-0.648270,0.721496
0.494537,-0.632773,0.741688,-0.688382,0.312759,0.654455
0.351553,-0.212553,0.778201,-0.459585,0.768549,0.445100
0.074176,0.294748,-0.434766,0.780006,0.607471,0.150231
-0.248464,0.318855,0.774414,0.671588,0.360904,0.647084
-0.134313,0.348634,0.626291,0.918713,-0.222171,0.326505
0.082015,0.148214,0.249064,-0.216326,0.204611,-0.954640
-0.309190,0.198319,0.634723,0.321670,-0.088681,0.942690
-0.048673,0.212500,0.895891,0.950354,-0.143412,0.276153
0.532283,-0.131618,0.751506,0.144030,-0.070993,-0.987023
0.489596,-0.212920,0.757843,0.385690,-0.631183,-0.672942
-0.710543,-0.127364,0.503012,0.926207,-0.251311,0.281039
0.077237,-0.566334,0.572189,-0.358066,0.930175,0.081019
-0.443798,0.266859,0.599130,-0.645699,-0.079185,-0.759475
-0.018176,0.016334,0.814886,-0.743888,-0.106787,-0.659718
-0.233376,0.156250,0.564553,0.002737,-0.940889,0.338704
0.251415,0.115336,0.296387,0.947649,0.319015,-0.013797
-0.304197,0.301313,0.744311,0.181103,-0.955801,-0.231617
0.021504,0.405410,0.390385,0.869784,0.434872,0.233158
0.362238,-0.706985,0.547762,-0.529694,0.397061,0.749511
-0.062096,0.021954,0.381462,-0.206722,0.978199,0.019795
-0.709147,-0.105305,0.598063,0.681301,0.677031,0.278311
-0.245886,0.637657,0.708779,-0.417738,-0.302796,-0.856627
-0.427852,0.044275,0.542148,-0.537950,-0.035114,-0.842245
-0.038525,0.630830,0.632137,-0.644599,0.539578,-0.541616
-0.651105,-0.049790,0.486036,-0.027400,-0.175786,0.984047
-0.614595,-0.192700,0.478131,-0.726403,0.303740,-0.616506
0.600203,-0.312763,0.787063,0.557817,-0.651068,-0.514734
0.876239,0.029359,0.727777,0.829241,0.217879,-0.514673
-0.646165,-0.200053,0.465200,0.266802,0.266641,0.926131
-0.538834,0.106040,0.552051,0.339424,-0.129848,0.931628
0.269403,0.136922,-0.539721,-0.312498,-0.945632,0.090141
0.190796,0.125683,0.963340,0.955158,-0.256598,-0.147750
-0.180435,0.048372,0.189153,-0.197714,-0.549354,0.811861
-0.001584,0.050998,0.396770,-0.011960,0.993335,0.114645
0.433972,0.245431,0.798719,0.857991,0.417006,0.299930
-0.091197,0.734191,0.694353,0.482995,0.597535,0.640053
-0.382911,0.074212,0.559540,-0.709583,0.547032,0.444126
0.274396,0.279044,0.840074,0.975661,-0.103727,0.193198
0.167977,-0.175000,0.134929,0.832686,-0.154295,-0.531814
-0.147361,0.152363,0.211252,0.368926,0.360566,-0.856671
-0.479342,0.233403,0.212588,-0.654029,-0.637646,0.407006
0.112245,0.278414,0.776694,0.764499,0.339628,0.547901
-0.400737,-0.125945,0.492202,0.629150,0.763216,-0.147211
0.248033,0.088445,0.909386,0.522679,0.507337,0.685140
-0.591989,0.192017,0.187952,0.877249,0.390660,-0.278958
0.249160,0.180357,0.790593,0.813993,0.524792,0.249017
-0.025692,-0.157616,0.291570,-0.034582,0.209589,0.977178
0.620069,-0.113498,0.728929,-0.399557,0.504915,0.765124
-0.002390,0.212342,0.862381,0.869615,-0.466095,0.162864
0.015920,-0.035242,0.766177,0.677974,0.283508,0.678214
0.069988,0.090651,0.864183,-0.034989,0.998453,-0.043207
0.536900,0.320693,0.704060,0.981094,0.112922,0.157171
0.047867,0.239706,0.213139,0.263160,0.927131,-0.266785
-0.523156,0.071744,0.675097,-0.771639,-0.019384,-0.635765
0.215496,0.305620,0.636758,0.570270,0.373972,-0.731394
0.192086,0.163550,0.885338,-0.666652,0.695134,-0.269004
-0.497812,0.001681,0.567520,-0.056468,0.183641,0.981370
0.214529,-0.578151,0.731552,0.438190,0.895810,-0.074258
0.443207,-0.010557,0.871684,0.539629,0.753436,0.375678
-0.141024,-0.420063,0.011724,-0.562798,0.115549,0.818478
0.439877,-0.092280,0.890339,0.414155,0.837898,0.355532
0.183870,-0.347111,0.145715,0.989058,-0.147258,0.008892
0.255389,0.248582,0.933997,0.860231,-0.501335,0.093090
0.343498,0.294118,0.787884,0.544763,0.821928,0.166337
0.454588,0.518592,0.711794,0.435188,0.085869,-0.896235
0.170178,-0.863445,0.625837,0.045216,0.205856,0.977537
0.085667,-0.521324,0.686263,0.907503,-0.066558,-0.414738
-0.135117,-0.292069,0.574604,0.439685,0.513066,0.737185
0.217697,-0.513971,0.693090,0.359061,0.053612,-0.931773
0.031866,0.411187,0.344152,0.901876,0.370487,0.222168
0.018980,0.536082,0.667915,-0.214188,0.949857,0.227804
0.673012,-0.543803,0.570241,-0.411240,-0.756371,0.508709
-0.186555,0.130357,0.207587,0.449287,0.174148,-0.876250
0.010496,-0.200578,0.652618,-0.092974,0.682077,0.725346
0.385487,-0.021954,0.835306,-0.200816,0.979618,0.004732
0.035410,0.038130,0.476648,-0.209012,0.885669,0.414614
0.324009,-0.521429,0.505978,-0.648047,0.660060,0.379942
-0.240517,0.217647,0.593308,0.620430,0.589230,-0.517566
0.259846,0.303729,0.830513,0.999233,-0.006604,0.038606
0.156540,0.288498,0.270832,0.855967,0.485573,-0.177596
-0.583560,-0.075053,0.493623,-0.116760,-0.792175,0.599020
0.263067,-0.489286,0.724002,0.384063,0.494470,0.779740
0.593062,0.390599,0.734065,-0.607061,-0.444388,0.658784
0.284973,0.051628,0.907302,0.146230,0.915666,0.374395
-0.542432,0.121744,0.483842,0.004235,-0.937565,0.347785
0.179253,0.108141,0.424985,0.946628,-0.281931,-0.156240
0.475261,0.379674,0.834779,0.348116,-0.840006,0.416180
0.476067,-0.105095,0.815830,-0.278593,0.128015,0.951839
-0.282720,-0.136765,0.705041,-0.627922,0.025600,-0.777855
-0.200462,-0.028834,0.820058,0.861688,0.065934,0.503137
0.158743,-0.492227,0.576271,-0.009630,0.140479,0.990037
0.228705,0.538498,0.704979,-0.171848,0.261507,0.949780
0.285027,0.770903,0.608102,-0.213802,0.492385,-0.843709
-0.128139,0.284664,0.739543,0.380741,0.710325,0.592009
-0.069989,0.035662,0.215676,0.674952,0.067309,-0.734785
-0.000725,-0.030567,0.847452,-0.724584,0.624600,-0.291297
0.201696,0.239653,0.577460,0.873221,0.378859,-0.306513
-0.234933,0.054674,0.652104,0.668275,0.055209,0.741863
0.007168,0.468592,0.638119,0.562478,0.441068,0.699341
0.125345,0.565021,0.709453,0.639062,-0.765139,-0.078496
0.186125,-0.627363,0.706524,-0.320135,0.355629,0.878090
-0.048512,-0.093330,0.637261,-0.562306,-0.030959,-0.826350
-0.192623,0.240861,0.724982,0.419933,0.895145,0.149574
-0.224570,0.300315,0.833602,0.883923,0.378829,0.274168
0.189025,-0.122322,0.821725,0.182753,-0.921350,-0.343098
-0.331902,0.299002,0.734518,0.673077,0.535527,0.510076
0.482401,-0.769853,0.563646,-0.515052,0.053750,-0.855472
0.347419,0.405304,0.863202,-0.420871,0.847108,-0.324462
0.310317,0.207983,0.764805,0.084666,0.928299,0.362068
-0.097319,-0.553677,0.009015,-0.546404,0.019961,0.837284
0.122124,-0.135189,0.667547,-0.651578,0.058904,0.756291
0.694434,-0.103729,0.733795,-0.221907,0.248750,0.942805
0.370613,0.115494,0.872002,0.918676,0.097124,0.382887
-0.515907,-0.117069,0.509790,0.494225,0.692452,-0.525597
0.180757,-0.591124,0.724308,0.598772,0.645535,-0.474085
-0.521491,-0.037605,0.252263,0.869649,-0.492006,-0.040508
0.509625,0.615178,0.471672,-0.356863,0.246804,0.900964
0.017262,-0.579149,0.395863,0.607384,0.577834,-0.545154
0.174796,-0.252784,0.661468,-0.509755,0.026205,-0.859920
0.351284,-0.132668,0.773482,0.902477,-0.316272,0.292416
0.363633,0.518015,0.821272,-0.108294,-0.947320,0.301424
0.125883,0.082878,0.390495,0.221123,-0.723779,0.653643
0.775350,0.064023,0.723438,0.772084,-0.331464,-0.542234
-0.245993,-0.334559,0.618973,0.821412,-0.207430,0.531276
-0.384575,0.525840,0.694855,-0.563325,0.608920,-0.558463
0.299686,-0.474790,0.341382,0.165596,0.787831,0.593211
0.463019,0.427783,0.453348,0.758817,-0.058312,-0.648688
-0.359876,0.278991,0.785690,-0.638929,0.224112,0.735897
0.515907,-0.441334,0.657104,-0.677020,0.152031,0.720090
-0.020162,0.187395,0.872603,0.750332,-0.036708,0.660041
0.244382,0.091229,0.942123,0.954906,0.119332,-0.271872
0.484012,-0.194380,0.739078,-0.539561,0.591730,0.598940
0.050659,0.696166,0.603236,0.366631,0.388397,-0.845417
0.384788,0.246901,0.721465,0.034360,-0.941965,0.333948
-0.205509,-0.020746,0.758541,0.361280,0.842050,0.400535
-0.198745,-0.249685,0.146560,-0.064482,-0.302113,0.951089
0.232087,-0.155305,0.442709,0.911047,-0.111467,-0.396948
0.492711,0.317279,0.636133,-0.581918,0.410283,0.702167
0.369540,-0.002626,0.780787,0.344947,-0.668536,-0.658841
0.063438,0.494170,0.663024,-0.300826,0.049009,0.952419
0.246745,0.501155,0.369352,0.148906,-0.537857,0.829781
0.782276,0.111765,0.707688,0.569886,-0.762656,-0.305917
0.018497,0.386239,0.783766,-0.667765,0.406384,-0.623653
0.063007,0.358403,0.523616,0.733503,0.679311,-0.022591
0.404386,0.007826,-0.972594,0.093256,-0.170407,0.980951
-0.115843,0.304622,0.697037,-0.227357,0.684320,0.692831
-0.147951,0.356092,0.671616,-0.336090,0.919665,0.203126
0.712798,0.159821,0.624808,-0.484791,0.169760,0.857997
-0.088513,-0.206198,0.552015,-0.390749,0.876702,0.280553
0.699212,0.313340,0.610418,0.983164,-0.086244,0.161094
0.337647,-0.535189,0.617515,-0.090905,0.794448,0.600490
0.151816,0.038393,0.976308,0.939707,0.331047,0.085780
-0.078257,0.498319,0.608089,-0.392992,-0.919537,-0.003158
0.179790,-0.463550,0.688629,0.461178,-0.496368,-0.735482
0.236704,-0.006670,0.971638,0.632216,-0.361905,0.685074
0.619211,0.479727,0.701082,0.747436,-0.661696,0.059150
0.458455,0.739075,0.575535,-0.141511,0.205552,0.968361
0.415017,0.343960,0.454573,-0.838673,0.475005,0.266453
0.268437,-0.318067,0.373164,0.369972,0.676666,0.636588
-0.074284,0.306985,0.733329,-0.611246,-0.410089,-0.676909
-0.202985,-0.108561,0.830293,0.603789,-0.679619,-0.416601
0.446803,-0.653099,0.564872,0.862347,-0.479858,0.161537
0.255657,0.015389,0.290308,0.826301,0.553577,-0.103827
0.941744,0.047006,0.775676,-0.679442,-0.185551,0.709880
0.256839,0.220903,0.935701,0.953843,-0.299042,0.027531
0.765470,0.052889,0.713927,0.818182,-0.455090,-0.351384
-0.655294,0.042122,0.577484,0.411534,-0.168984,0.895592
-0.078901,0.240021,0.730204,0.115883,0.929254,0.350796
0.236489,0.088025,0.701167,0.471537,0.881672,0.017548
-0.574163,0.265126,0.644321,0.871967,0.472623,0.127673
0.031651,-0.347216,0.593197,0.187711,0.035987,0.981565
0.032887,0.501208,0.715790,-0.072677,0.987769,0.137951
-0.606487,0.269328,0.642433,0.763937,-0.116412,0.634704
-0.380816,-0.277784,0.163769,0.363448,0.291898,0.884704
0.112995,0.199737,0.823490,0.184661,-0.317321,0.930165
0.276330,0.078886,0.236378,-0.098444,0.980663,0.169141
-0.276492,-0.615546,0.260083,-0.525963,0.520080,-0.672963
-0.341137,0.346954,0.751641,-0.016535,-0.230148,0.973015
-0.192838,0.004884,0.417080,-0.505114,-0.081332,-0.859212
-0.543826,-0.013183,0.222994,-0.631979,0.414064,-0.655099
0.887353,0.360452,0.604204,0.418192,0.095228,-0.903353
-0.297860,0.010031,0.435869,-0.497540,-0.252522,-0.829872
0.214367,0.653676,0.402347,-0.155969,0.807557,-0.568793
0.527182,0.023897,0.715741,0.143967,-0.593132,-0.792128
0.449971,-0.057458,0.710066,-0.151493,0.722218,0.674871
0.162447,-0.000473,0.259911,0.981076,-0.136249,0.137575
0.266074,0.365756,0.692428,0.289431,0.611684,0.736255
0.963221,0.263655,0.680208,0.872544,-0.439205,-0.213932
0.559827,-0.660662,0.596127,0.323203,0.446175,0.834546
0.491905,-0.364653,0.665978,-0.700273,0.558584,-0.444524
0.238369,0.143277,-0.784330,0.006070,-0.999621,0.026854
-0.535398,-0.066177,0.272438,-0.700605,0.712669,-0.035445
0.517249,-0.262343,0.592143,-0.366846,-0.802413,0.470700
-0.146017,0.339548,0.701302,-0.585636,0.643112,0.493394
-0.344306,-0.197164,0.704146,0.752777,0.090895,0.651971
0.006524,0.045220,0.773127,0.888817,-0.299141,-0.347158
-0.113211,0.029149,0.399651,-0.191349,0.972658,0.131614
0.597788,0.397794,0.715827,0.451441,0.242963,0.858586
0.240624,-0.041072,0.781057,-0.407190,0.297947,-0.863380
-0.119762,-0.163813,0.868129,0.920206,0.024081,-0.390692
0.673816,0.367227,0.757034,0.868588,0.315219,-0.382352
0.187254,0.248687,0.915612,0.691128,-0.713262,0.116617
0.122124,-0.095851,0.900499,0.784484,-0.586567,0.201305
0.460441,-0.238603,0.763481,-0.274427,0.642499,0.715462
-0.160515,0.072374,0.525981,-0.735495,-0.292795,0.610998
-0.711616,-0.251576,0.479369,0.280980,0.058257,0.957944
0.313055,0.427468,0.691644,-0.453595,-0.289268,0.842956
-0.078849,0.556723,0.729383,-0.470049,0.595697,-0.651306
0.251363,0.217962,0.469698,-0.395477,0.381833,-0.835345
0.131950,0.128256,0.935713,-0.413999,0.470943,-0.778985
0.276061,-0.331723,0.831678,-0.598959,0.686745,0.411861
-0.690087,0.043067,0.580990,0.391392,0.641369,0.659893
-0.191710,0.499947,0.686030,0.852904,0.501107,-0.146444
0.159332,0.279149,0.757230,0.532872,0.310721,0.787083
0.543612,-0.671901,0.670905,0.201604,0.681513,0.703488
-0.056297,-0.051838,0.573501,0.025595,-0.207507,0.977899
0.308760,0.381828,0.837683,-0.035656,-0.569021,0.821550
-0.023277,0.254674,0.607048,0.205833,0.565866,-0.798391
0.100003,-0.394013,0.592290,-0.192297,-0.058904,0.979567
0.203361,0.476418,0.662240,0.968814,-0.165112,-0.184762
0.548229,0.084349,0.665647,-0.455086,-0.572012,0.682422
0.475744,-0.706618,0.687991,0.356623,-0.802403,-0.478507
0.460818,-0.763445,0.568096,-0.212431,-0.294660,-0.931691
0.250556,0.052258,0.930823,0.865967,0.460508,0.195021
0.113962,0.445641,0.610639,-0.322961,-0.942222,-0.088960
0.377916,-0.405042,0.665843,0.745329,0.035880,-0.665731
0.316330,0.213970,0.595710,0.039113,0.876475,0.479857
-0.261833,0.484664,0.703803,0.844247,-0.324904,0.426245
-0.074553,0.249054,0.745096,0.445427,0.787908,0.425201
0.178823,0.432353,0.662975,0.711951,-0.639842,-0.289359
0.345432,-0.438971,0.344348,0.212099,0.778043,0.591323
-0.062525,0.255410,0.725326,0.338400,0.928167,-0.154893
0.537652,0.352836,0.733881,0.741486,-0.513568,-0.431795
0.768585,-0.104307,0.748871,0.985068,-0.002119,-0.172154
0.471716,-0.318015,0.602304,-0.302898,0.743460,-0.596255
-0.737712,0.170431,0.275673,0.297701,-0.871423,0.389865
0.208193,0.162080,0.965804,0.017320,0.994715,0.101206
0.328572,0.091859,0.911739,-0.046935,0.985873,0.160784
0.375553,-0.385557,0.186799,0.189926,0.514819,0.835996
0.302370,-0.498582,0.787161,0.855050,0.518254,0.017392
-0.070687,0.694538,0.630250,0.077377,0.118598,-0.989923
0.236544,-0.415546,0.793191,-0.535997,0.762012,0.363380
0.221885,0.694170,0.422742,-0.340214,0.658155,-0.671630
-0.501142,0.147636,0.651601,-0.157544,-0.870675,-0.465945
-0.423126,-0.061870,0.567789,0.105903,-0.940963,0.321518
-0.857877,0.112027,0.306487,-0.392211,0.913419,0.108798
-0.334210,0.390389,0.752842,0.371357,-0.910701,0.180881
0.092271,0.205304,0.839154,0.976951,-0.183398,-0.109231
0.293081,0.033456,0.463423,0.983682,-0.168930,-0.061908
-0.121373,0.233403,0.790495,-0.468443,0.730045,-0.497589
-0.105264,0.020010,0.792431,-0.101420,-0.785656,0.610294
-0.251792,-0.744905,0.332729,0.846050,0.330987,-0.417908
0.007275,0.226576,0.666996,0.838791,0.492580,-0.231937
-0.544364,0.079517,0.507241,0.231485,0.870611,0.434110
0.545383,-0.561502,0.651123,-0.454844,0.005150,0.890556
0.071438,-0.591544,0.598394,0.173629,0.981227,-0.083939
0.473918,-0.576261,0.578097,-0.593602,0.249892,0.764978
0.659374,0.185031,0.688396,-0.558206,0.484608,-0.673469
-0.344842,-0.519118,0.344483,0.971840,0.205881,-0.114632
0.400252,0.032300,0.907976,0.087235,-0.995563,0.035279
0.535396,-0.839811,0.584311,-0.411204,0.065428,0.909192
0.063653,-0.283456,0.670047,0.177641,0.656922,-0.732732
-0.015921,-0.317910,0.578097,0.386286,0.090843,-0.917895
0.265859,0.242699,0.341088,-0.492928,-0.359159,0.792482
0.420495,-0.208771,0.528776,0.920221,0.285355,-0.267892
0.045665,0.339496,0.771889,-0.551113,0.325321,-0.768401
0.208301,0.105672,-0.354913,-0.020659,-0.991298,0.130009
-0.001907,-0.086660,0.634723,-0.751282,0.091264,-0.653641
-0.130339,0.328834,0.691595,-0.895916,0.364065,-0.254539
-0.245188,-0.102153,0.533115,0.423872,0.229772,-0.876092
0.704744,-0.045746,0.740083,0.177516,0.397052,-0.900465
0.005557,0.399475,0.427670,0.615855,-0.011549,0.787775
-0.025317,0.324632,0.790679,-0.471627,0.197235,0.859457
0.397459,-0.153992,0.822583,0.601856,0.199378,-0.773316
0.114177,0.262973,0.345770,0.881296,0.451384,0.139895
0.118848,0.172689,0.775676,-0.254174,-0.536758,-0.804541
0.333673,0.275315,0.809419,0.752088,-0.469822,0.462202
0.729711,0.576838,0.731319,0.536498,0.717547,-0.444180
0.614701,0.376996,0.652091,-0.448490,-0.866003,0.221123
-0.043089,-0.136660,0.821125,0.760294,0.615998,-0.206154
-0.169321,0.581723,0.355061,0.418972,0.887044,0.193949
-0.010604,-0.202994,0.568696,-0.196195,0.555270,0.808197
0.265484,0.842069,0.614340,0.228223,-0.738710,0.634209
0.283310,-0.344118,0.812447,0.795991,-0.538857,-0.275737
-0.663616,-0.161397,0.496418,0.480718,0.639231,0.600245
0.194555,0.471744,0.703582,0.343647,-0.283645,0.895239
-0.077559,0.353834,0.787713,0.909885,0.187740,0.369950
-0.077667,-0.024737,0.266947,0.662133,0.372810,0.650072
0.015382,0.292542,0.470850,0.761054,0.640397,0.103385
-0.206369,0.714496,0.662988,0.391218,-0.190678,-0.900328
0.349834,-0.120956,0.630519,0.750429,0.654052,0.095245
-0.580231,-0.070903,0.552652,0.951425,-0.108257,-0.288221
0.423501,0.256775,0.702001,-0.333018,0.216591,-0.917708
0.061665,0.270798,0.841410,0.287584,-0.883044,0.370849
0.687831,0.485609,0.704011,-0.732023,0.643066,0.224963
-0.393327,-0.063078,0.054610,0.346790,0.161548,0.923926
0.597359,-0.086292,0.720570,-0.111889,0.514279,0.850293
0.338076,-0.545903,0.655339,0.481717,0.284255,-0.828944
0.493570,-0.873477,0.582313,0.813980,0.204824,-0.543584
0.334586,0.125893,0.783141,-0.083655,-0.554932,0.827679
0.034873,0.410031,0.661848,0.303199,0.082698,0.949332
0.151279,0.045378,0.281667,0.486045,0.847353,-0.213899
0.206313,-0.610032,0.237555,0.014163,0.744314,0.667679
0.382748,0.428991,0.770749,0.679706,-0.721998,0.129300
-0.076378,0.503204,0.727765,0.760952,0.291306,0.579735
-0.005987,0.580252,0.729407,0.200010,0.624761,0.754764
0.246314,-0.000578,0.831739,-0.166914,-0.924234,0.343411
-0.030472,-0.648792,0.293556,0.833596,0.354013,-0.424020
0.420065,0.149527,0.765516,-0.155252,0.963509,0.218052
0.246368,0.062710,0.567850,0.984568,0.025087,0.173194
-0.115735,0.541176,0.731246,-0.684885,0.282546,-0.671640
-0.467208,-0.004832,0.262951,-0.730744,0.488757,0.476582
-0.055814,0.512185,0.582240,0.630055,-0.480556,0.609997
-0.013396,-0.118067,0.278848,-0.496038,-0.560286,-0.663345
0.282075,0.561975,0.700334,0.691859,0.310611,-0.651807
0.410293,-0.130410,0.593136,0.901143,0.173199,-0.397421
-0.167763,-0.072952,0.717984,0.829958,-0.147331,0.538019
0.681388,0.412080,0.743931,0.976057,-0.052825,-0.211001
0.651266,0.220326,0.703030,0.276043,0.461915,-0.842873
0.729818,-0.136502,0.748381,0.532625,-0.616593,-0.579761
0.032725,0.064233,0.860542,-0.677526,0.507602,-0.532258
-0.318318,0.000735,0.526876,0.714322,-0.440635,0.543677
0.201750,-0.136765,0.836286,0.325589,0.920827,0.214637
0.346238,-0.203729,0.584483,0.903771,0.056643,-0.424251
0.037021,0.013760,0.936939,0.692562,0.600303,-0.399993
-0.442025,0.334979,0.234699,0.585675,0.413974,-0.696857
-0.502806,-0.100315,0.514374,0.503765,0.860615,0.074584
-0.427904,0.498739,0.716905,-0.575826,0.675708,-0.460264
-0.943355,0.086239,0.303325,0.205769,-0.761660,0.614438
0.226556,0.043960,0.998407,0.145765,-0.978699,0.144575
-0.566807,0.078676,0.053593,0.015770,0.390288,0.920558
0.269241,0.535977,0.708669,0.372516,0.601677,-0.706552
0.268222,0.417437,0.693654,0.273952,0.384652,0.881472
0.071438,-0.512710,0.414984,0.510657,-0.024239,-0.859443
-0.553384,0.136082,0.582522,-0.494577,0.462857,0.735634
0.335123,0.163445,0.745574,0.614619,-0.743102,0.264655
0.036592,0.348529,-0.435869,0.707411,0.578869,0.405561
0.201321,-0.299160,0.184471,0.617959,0.531510,0.579330
0.270799,0.256880,0.838554,0.168787,-0.167362,-0.971340
0.088834,-0.471061,0.678125,0.926290,-0.328867,-0.183940
0.415286,-0.424948,0.601385,-0.183448,0.744690,0.641704
0.127279,-0.521376,0.696412,0.808075,-0.329697,-0.488175
0.135870,0.410031,0.616645,-0.784641,-0.321944,-0.529803
-0.072190,-0.836502,0.373593,0.316323,0.901239,-0.296155
0.489382,0.660031,0.671616,0.454809,0.446945,-0.770318
0.873070,0.172006,0.665243,0.892493,-0.323486,-0.314345
0.195253,-0.346586,0.148534,0.989058,-0.147258,0.008892
0.327660,0.018487,0.844192,0.852746,0.466380,-0.235189
0.532819,-0.630935,0.581860,0.087877,-0.979569,0.180892
0.111707,0.222479,0.339225,0.776184,0.470247,0.420007
0.206582,-0.660819,0.715030,-0.463517,-0.682942,0.564573
-0.185589,0.787710,0.671298,-0.600432,0.023734,0.799323
-0.155360,0.322216,0.644664,0.867093,-0.138735,-0.478438
0.345915,-0.741597,0.547676,0.030844,-0.974217,0.223493
0.421514,0.207090,0.869661,0.675635,0.581157,0.453624
-0.133132,-0.098372,0.732410,0.423975,0.890792,-0.163507
-0.018336,0.772636,0.602378,0.009797,0.886484,0.462655
0.352251,0.120010,0.877408,0.281196,0.548784,0.787251
-0.076432,0.328204,0.607673,0.536402,0.128599,0.834108
0.290772,0.605567,0.628387,0.348126,0.887661,0.301439
0.279820,-0.532406,0.521851,-0.425581,0.653940,0.625494
0.262530,0.029937,0.785739,0.952119,-0.212050,0.220236
-0.168944,0.151786,0.847158,-0.506206,-0.606308,-0.613308
-0.189079,0.038288,0.730118,0.406147,-0.699601,-0.587880
0.728959,0.397584,0.762120,-0.795294,0.340865,0.501317
-0.241430,-0.091702,-0.347878,0.608305,0.748665,0.263563
-0.291901,-0.055095,0.751800,0.744892,-0.152229,0.649586
0.802732,0.191439,0.566539,-0.056351,-0.674348,0.736260
0.554564,0.347584,0.464563,-0.419040,-0.160501,0.893669
0.291578,-0.360399,0.723536,-0.201960,0.413518,0.887815
-0.404064,-0.077836,0.759191,-0.632815,0.690247,0.350862
-0.083842,0.422952,0.723634,0.484237,-0.346248,0.803510
-0.057908,-0.004622,0.887507,0.077776,-0.960598,0.266839
0.628231,0.121008,0.686803,-0.525174,-0.237291,0.817242
0.329539,-0.407616,0.605405,0.571919,-0.789431,-0.222951
0.377701,0.618855,0.643757,0.450316,0.662186,-0.598937
-0.245726,0.588865,0.688678,0.854001,-0.482620,-0.194320
0.399662,0.408351,0.752805,0.961809,0.089499,-0.258675
0.754517,0.068907,0.609156,0.791204,0.526446,-0.311208
-0.237241,0.156355,0.195330,-0.097102,-0.410241,0.906793
0.158259,-0.328571,0.759265,-0.190895,0.794389,0.576632
-0.446805,0.430567,0.244627,-0.442323,-0.344971,0.827856
0.536417,0.288603,0.702810,0.855723,-0.496571,0.145452
0.065639,-0.563340,0.599828,-0.006867,0.748300,0.663325
0.369325,-0.223057,0.785543,0.227863,0.902712,0.364950
0.150741,0.001260,0.822436,0.768216,-0.630979,0.108210
0.497168,-0.432195,0.807899,0.088980,0.745235,0.660839
0.278101,-0.405830,0.767281,0.871256,0.073445,0.485302
0.180434,-0.489653,0.718621,-0.405649,0.813667,0.416407
-0.213564,-0.278204,0.691141,0.447658,0.731828,0.513838
0.323257,-0.445536,0.558425,0.383226,-0.905220,0.183612
-0.028807,0.450578,0.657619,0.286551,0.658397,0.695990
0.295658,0.110241,0.883193,-0.512695,-0.104137,0.852232
0.168567,0.020536,0.905133,-0.616093,-0.562898,-0.550977
0.716609,-0.676786,0.685883,-0.597105,0.426052,0.679666
0.487825,0.421323,0.616816,0.664214,0.554844,0.500968
0.234181,-0.435977,0.796439,-0.675412,0.576296,-0.460111
0.206259,0.408298,0.682696,0.070763,-0.635761,0.768636
-0.360305,0.220431,0.544330,0.806845,-0.584405,0.086443
0.286100,0.641019,0.637788,0.078331,0.993639,0.080905
0.426454,0.424317,0.637812,0.937382,0.347918,0.016404
0.454751,-0.838445,0.567740,0.633444,0.723990,0.273105
0.493087,0.381512,0.788154,0.857515,0.506072,-0.092518
-0.715000,0.021534,0.499801,-0.461955,-0.737301,0.492935
-0.222101,0.583036,0.657729,0.374793,0.913872,0.156102
0.382104,0.095483,0.851472,-0.461066,-0.184176,0.868042
0.176783,0.346376,0.769009,-0.619857,-0.774144,0.128371
-0.587694,-0.109506,0.266236,0.187746,-0.853267,0.486505
0.665923,-0.130620,0.736442,-0.669087,0.116724,0.733960
-0.637951,0.051576,0.584642,-0.391287,0.820999,0.415758
0.157400,0.175157,0.602476,-0.126197,-0.742984,-0.657305
0.123197,-0.211240,0.575070,0.767692,-0.356399,0.532569
0.040403,0.565599,0.697919,0.764808,-0.564613,0.310291
-0.074015,-0.133981,0.844547,-0.760749,-0.417723,-0.496757
-0.104191,0.272899,0.801109,-0.564970,0.595298,-0.571340
0.493141,-0.345483,0.585059,-0.311839,-0.720871,0.618952
0.825982,0.104727,0.741137,0.795813,0.405624,0.449611
-0.074392,-0.078782,0.830109,0.400907,0.824179,0.400004
-0.176301,0.070168,-0.170866,0.006115,0.672737,0.739857
0.228811,-0.273635,0.756556,0.610797,0.666468,0.427489
0.248194,0.099685,-0.025733,-0.615803,-0.766619,0.181883
0.266234,0.226418,0.885093,0.546222,-0.642276,0.537702
0.276167,0.450000,0.685589,-0.419793,-0.640696,0.642871
0.251094,0.127521,0.913112,-0.535568,-0.030984,-0.843924
0.767778,-0.082090,0.741357,0.880121,0.405046,-0.247639
-0.114339,-0.121954,0.722286,-0.267527,-0.902702,0.336985
0.202663,-0.479254,0.693029,-0.452008,0.097955,0.886619
0.063330,-0.241859,0.590673,-0.575510,0.661012,-0.481510
-0.540874,0.069905,0.573905,0.732307,-0.308983,0.606841
0.843110,0.161554,0.661308,0.907654,-0.140427,-0.395530
-0.114339,0.286554,0.724173,0.966561,0.254258,0.033359
0.352895,-0.038551,0.871144,0.748226,0.636084,-0.188561
-0.216571,0.150630,0.627112,0.290599,0.062782,0.954783
-0.185589,-0.095588,0.667939,-0.703830,-0.482020,0.521805
0.633546,0.173792,0.610222,0.375077,0.094179,-0.922197
0.772773,0.205462,0.654150,0.743682,-0.115294,-0.658517
0.748396,-0.117069,0.744851,-0.151526,-0.424276,0.892765
0.333029,-0.295116,0.805142,-0.556670,0.526376,0.642688
-0.258558,0.090441,0.664127,0.689902,0.604339,-0.398508
0.277672,-0.177364,0.780224,0.371027,0.318926,0.872138
0.135761,0.062185,-0.337962,-0.185547,0.960627,0.206806
-0.227040,-0.185872,0.683285,0.448023,-0.566311,0.691785
0.273161,-0.167332,0.351457,-0.164401,-0.390635,-0.905746
-0.579747,-0.083456,0.506297,-0.358134,-0.842928,0.401512
0.254959,-0.489391,0.500169,0.449845,-0.728000,-0.517355
0.326747,0.457878,0.861976,0.484292,0.649817,-0.585832
-0.509893,-0.046586,0.564284,0.341150,0.717124,-0.607742
0.350103,0.192489,0.460640,-0.683996,0.521900,-0.509676
-0.280518,-0.132143,0.702516,0.958729,0.284269,-0.005504
0.243470,0.146323,-0.468374,0.818903,0.548011,0.170533
-0.231765,0.260557,0.727679,0.214057,0.537885,0.815389
0.790813,0.013760,0.725338,-0.043024,0.474336,0.879292
-0.427099,0.188865,0.539439,0.682910,-0.615633,0.393230
-0.159603,0.094012,0.791328,0.982261,0.101231,0.157849
0.301565,0.238655,0.785053,0.900361,-0.289796,0.324604
0.033746,-0.218960,0.692526,-0.552155,-0.565242,0.612884
0.059411,-0.459296,0.693813,0.856927,0.511774,0.061340
0.229348,0.108928,0.522488,0.965659,0.221388,0.135976
0.203253,0.417542,0.855615,0.015403,-0.857175,0.514795
0.098659,0.427836,0.335450,0.829494,0.549979,0.097272
0.107090,-0.482668,0.686300,-0.269882,-0.361147,0.892601
-0.211039,-0.288656,0.696927,0.300035,0.874742,0.380534
-0.576042,-0.067174,0.534304,-0.079499,0.978124,-0.192230
0.166581,-0.251891,0.363518,-0.078652,0.520271,0.850372
0.238369,0.062027,0.903723,0.117592,-0.992651,-0.028575
-0.106393,0.616019,0.679571,0.760174,-0.352596,0.545722
0.061988,0.279464,0.467026,0.648857,0.760597,0.021851
0.199495,0.203834,0.683089,0.357074,-0.146848,0.922461
0.093506,-0.503256,0.680650,0.896474,-0.431635,-0.100127
0.007973,0.529622,0.362464,0.812146,0.582954,0.024160
0.450938,-0.701366,0.561305,-0.055411,0.157006,0.986042
-0.113426,-0.042752,0.644137,-0.620874,-0.459782,0.634914
-0.234343,-0.655357,0.336344,0.858525,0.475067,-0.192990
0.260758,0.173214,0.915232,0.998055,-0.029783,-0.054765
-0.170234,-0.114758,0.754889,-0.070009,-0.997182,-0.026944
-0.359071,0.345325,0.685908,0.686558,-0.257975,0.679770
0.244328,0.160241,0.356789,0.962431,-0.254482,-0.094688
-0.461195,-0.059401,0.750427,0.851513,-0.276880,0.445267
0.541464,-0.006513,0.849548,-0.705095,0.406286,0.581183
0.204059,0.084086,0.917107,0.187381,0.740193,0.645758
0.161051,-0.184559,0.697588,0.246045,0.931880,0.266574
0.202125,0.049895,0.495217,0.911902,0.358683,-0.199452
-0.672851,-0.327574,0.464930,-0.681267,-0.721975,0.120946
0.386828,0.212237,-0.986824,0.103883,-0.482451,-0.869741
0.801659,0.221744,0.568623,0.791648,0.585345,-0.175112
-0.708772,-0.233719,0.470421,0.146980,0.568398,0.809519
0.030685,0.349947,0.718388,-0.372173,-0.362924,0.854268
0.457757,-0.500105,0.683285,0.866419,-0.325859,0.378332
0.203415,0.269012,0.579311,0.853080,0.350415,-0.386606
0.595909,-0.322374,0.803377,-0.529641,-0.465608,-0.709006
0.266933,0.484191,0.580291,-0.721984,0.525098,0.450568
0.509731,-0.654779,0.552088,0.461224,0.052027,-0.885757
0.206099,0.011029,-0.232272,0.730747,-0.642635,-0.230279
0.184085,0.006775,0.872885,0.237169,0.110546,0.965158
0.249590,0.038760,0.435281,0.880489,-0.092294,-0.464995
0.229080,0.177573,-0.982314,-0.260212,0.532557,0.805402
-0.306291,0.346271,0.247936,-0.036194,0.702255,-0.711005
-0.199012,-0.205515,0.790789,-0.687520,0.602447,0.405429
-0.113641,-0.318540,0.252226,0.769785,-0.539178,-0.341642
-0.339151,-0.051051,0.438125,-0.517608,0.340010,-0.785159
-0.120675,0.518592,0.734494,0.488684,-0.028527,0.871994
0.085505,0.792699,0.624661,-0.216567,0.423648,-0.879557
-0.745766,0.009401,0.256271,0.704095,0.116413,0.700499
0.658782,0.406828,0.752058,0.880071,-0.002034,-0.474838
-0.085667,0.040231,0.894383,0.882076,-0.109422,0.458223
0.198529,-0.676523,0.768077,-0.709054,0.617610,0.340294
0.098499,-0.144695,0.809297,-0.544286,-0.747870,-0.380057
0.207495,0.057090,0.462148,0.359140,0.845599,0.394945
-0.259416,-0.260819,0.689303,0.646002,0.386044,0.658523
0.434239,-0.687080,0.670709,0.143392,0.717330,0.681819
0.330075,0.325105,0.774046,0.685218,-0.293470,0.666597
-0.231551,-0.375893,0.625298,0.791984,0.498244,0.352865
0.473220,0.438918,0.454537,0.777637,-0.011000,-0.628617
0.265161,-0.048319,0.812434,-0.556175,-0.358205,0.749905
-0.052486,0.359349,0.778152,0.297709,0.612295,-0.732437
0.765846,-0.126208,0.745218,0.855071,-0.365970,-0.367315
0.601385,-0.651681,0.664593,-0.432376,0.600278,0.672843
0.222583,-0.549580,0.694206,0.074509,0.455099,0.887318
-0.087601,0.046166,0.821419,-0.025157,-0.061770,0.997773
0.092754,0.132195,0.246809,-0.202852,0.237157,-0.950057
0.189454,0.079884,0.951010,0.836218,0.511160,0.198633
0.492549,-0.340231,0.595134,-0.341329,0.750765,-0.565550
0.254853,0.189811,0.782246,0.567804,0.821174,0.057200
0.121909,0.057510,0.967703,0.792741,0.605248,0.072367
-0.386991,0.414338,0.701927,-0.169800,-0.819698,0.547049
0.398158,0.154622,0.736099,0.242665,0.919106,0.310417
0.218341,0.424370,0.704207,0.410379,-0.096107,0.906836
0.229617,-0.657668,0.545776,0.265823,-0.007967,0.963989
0.211629,0.448162,0.691288,0.967205,0.251221,0.037445
0.390158,0.006565,0.902828,-0.259331,0.960964,0.096414
0.150043,0.141019,0.819703,-0.013074,0.493691,0.869539
0.111707,0.192857,0.714552,0.982417,0.186197,-0.013680
-0.104137,-0.395641,0.589177,0.493775,0.682173,-0.539284
-0.105104,0.024475,0.761716,-0.088296,0.721809,0.686437
0.438964,0.422006,0.779329,-0.442436,-0.695888,0.565678
0.557142,-0.165126,0.840564,0.436410,0.864532,-0.249259
-0.260812,0.725578,0.658330,0.189582,-0.165810,-0.967763
0.669843,0.416071,0.476513,0.325643,-0.675979,0.661067
-0.717953,-0.013288,0.473057,0.853387,0.508736,-0.113658
0.206476,0.198162,0.540800,0.896546,0.433282,0.092048
-0.266611,0.110819,0.270575,0.108086,-0.377430,0.919709
0.015436,0.011817,0.760968,-0.487070,0.608126,0.626853
