0.064941,0.551858,-0.458642,-0.434233,0.340437,0.833993
-0.518181,-0.230112,0.445042,-0.168900,0.946995,0.273264
0.230422,-0.339166,0.848517,0.941561,-0.247781,0.228184
0.495505,0.405984,0.501999,-0.364300,-0.147682,0.919497
0.394248,0.114548,0.694490,0.571070,0.721848,-0.390916
0.304754,-0.160587,0.196307,-0.470608,-0.135196,0.871923
0.427837,-0.795693,0.390630,-0.559722,-0.661051,0.499722
0.353996,-0.396297,0.313519,-0.447787,0.262667,0.854689
-0.053043,-0.026430,-0.180835,0.319158,0.481756,-0.816118
-0.086319,-0.010442,0.121824,0.059896,-0.347863,0.935630
0.157341,-0.270994,0.970872,0.169053,0.347684,0.922246
0.328280,-0.743197,0.573198,0.878193,0.293820,-0.377422
-0.431370,-0.320261,0.608364,-0.674980,0.584233,-0.450636
-0.245897,-0.016796,0.725687,0.494747,0.848875,-0.186110
-0.085424,0.632476,-0.470998,0.126257,0.496506,0.858802
-0.618945,0.214280,0.052889,0.051871,-0.184408,0.981480
0.427345,-0.161264,0.370880,0.959725,-0.250849,0.126501
0.410662,-0.520350,0.770945,0.786238,-0.446589,-0.427069
-0.472338,0.564774,0.281902,-0.045562,-0.356577,0.933154
0.400733,-0.643621,0.427222,-0.129817,-0.181746,0.974739
-0.231316,-0.732260,0.714505,-0.081937,-0.948121,-0.307170
0.339505,-0.565294,0.263034,0.633370,0.163742,-0.756328
-0.207746,0.452178,0.461563,0.666291,-0.487180,-0.564546
0.765061,-0.648361,0.609077,-0.424333,0.718663,0.550876
0.208373,0.309481,0.389554,-0.170801,0.020712,0.985088
-0.283823,-0.330990,0.333562,-0.092145,0.903879,-0.417747
0.124648,-0.420618,0.832094,-0.475875,-0.745966,0.465915
-0.038956,0.241882,0.640106,0.755059,0.627020,-0.191654
-0.035646,-0.010806,0.758114,-0.524600,-0.758099,0.387402
0.578514,0.231778,0.368057,-0.631005,0.110987,0.767799
0.380160,-0.065750,0.455651,-0.173858,-0.452547,0.874628
-0.166868,-0.042002,0.229796,0.464080,0.796300,-0.387990
0.110202,-0.622633,0.822380,0.930117,0.033442,0.365738
0.679726,-0.358436,-0.110866,0.700126,0.315240,-0.640662
0.448455,-0.701638,0.406745,0.419437,0.522816,-0.742116
0.269064,-0.221207,0.864968,0.944461,-0.273021,-0.182899
-0.395501,-0.740697,0.372026,0.113451,0.551311,0.826550
0.165616,0.689556,-0.460012,0.777800,-0.356747,-0.517454
0.176394,-0.220113,0.129511,0.095060,-0.941522,0.323266
0.101390,0.724084,0.179535,-0.688398,-0.149455,0.709769
0.403551,-0.216519,0.775683,0.010616,-0.998857,-0.046599
-0.204660,0.517486,0.002865,0.757223,0.453002,0.470534
0.298224,-0.203552,-0.968929,-0.003784,0.345982,0.938234
-0.446621,0.489415,0.269715,0.219219,0.453979,-0.863624
0.270898,-0.630393,0.665656,0.809523,0.005008,0.587067
-0.358245,0.727677,0.065091,-0.268687,-0.019382,0.963033
0.391162,-0.172200,0.316118,-0.013749,-0.446894,0.894481
0.759605,-0.232560,0.569438,-0.255165,-0.076361,0.963877
-0.274878,0.090383,0.426369,0.314448,-0.636625,0.704153
0.329174,-0.621279,0.416529,0.508660,0.389964,-0.767589
-0.074512,-0.543786,0.615548,-0.349782,-0.917874,-0.187510
0.263652,-0.298076,-0.672351,-0.381044,0.919650,-0.095130
0.169462,-0.468792,0.891161,-0.685980,-0.490844,-0.537126
0.033767,-0.172929,0.673902,0.536123,0.447148,0.715982
0.023704,-0.127776,0.112277,0.418533,0.375794,0.826807
0.659510,-0.128870,0.567914,-0.394744,-0.068038,0.916269
-0.576323,-0.083873,0.448075,-0.530454,0.426658,-0.732517
0.124424,-0.441710,0.758184,-0.460711,0.405376,0.789567
-0.201127,-0.165378,-0.203310,-0.513185,-0.274866,0.813074
0.471980,-0.938963,0.367204,0.080925,-0.910050,0.406522
-0.665504,-0.097778,0.207209,-0.140365,-0.589078,0.795792
-0.440270,-0.546598,0.313323,-0.442649,0.167812,-0.880853
0.157789,-0.275421,0.614639,0.872367,-0.412885,-0.261729
0.238382,-0.516757,0.659673,0.364254,0.898285,0.245771
0.369784,-0.858344,0.648506,-0.049151,0.713594,0.698833
-0.355338,0.087988,0.272007,0.073450,-0.993804,-0.083416
0.288519,-0.241726,-0.527171,0.260592,0.965051,0.027725
0.278993,-0.419212,-0.967503,-0.193980,-0.017722,0.980845
-0.343307,-0.027056,0.655271,0.485676,0.867719,0.105751
-0.335883,0.074082,0.211682,-0.163026,-0.242776,0.956286
0.767610,-0.206989,0.571926,0.333738,-0.149104,-0.930799
0.802406,-0.286514,0.572191,-0.070926,-0.764931,0.640195
-0.240306,0.474156,0.053504,0.509114,-0.005668,0.860680
0.632273,-0.169960,0.559430,-0.236839,-0.139485,0.961484
0.740105,-0.130745,0.255626,0.172953,-0.583645,0.793376
-0.388524,-0.026691,0.144495,0.234863,0.544049,0.805513
-0.099915,0.143140,0.137660,0.280547,-0.533566,0.797873
0.490451,0.013827,0.583149,0.394223,-0.126146,0.910316
-0.097411,0.439783,-0.125891,0.763222,0.216038,-0.608950
-0.472561,-0.557379,0.528583,-0.225751,-0.309906,-0.923577
-0.297062,-0.715907,0.653412,0.146374,-0.949427,0.277782
-0.343754,-0.373591,0.569606,0.220413,0.286644,0.932338
-0.392370,-0.709085,0.054245,0.068367,-0.648208,0.758388
-0.174248,0.308335,0.027157,-0.291434,-0.179263,0.939644
-0.050270,-0.630029,0.732019,0.943116,-0.244642,-0.225129
0.180867,-0.291201,0.915830,-0.354330,-0.132494,0.925687
-0.791896,-0.375153,0.358147,0.046921,-0.674058,0.737186
0.313207,0.394526,0.246625,-0.569105,0.122519,0.813086
-0.525471,0.398172,0.253068,-0.139719,0.761611,-0.632793
-0.279798,-0.718303,0.362173,0.308251,-0.484765,0.818526
-0.766761,-0.472906,0.352459,-0.392696,-0.196498,-0.898431
0.695022,-0.490873,0.359126,-0.582975,-0.305828,0.752735
0.470191,-0.186001,-0.962024,-0.098937,0.065678,0.992924
0.380831,-0.029086,0.134794,-0.605817,0.305166,0.734751
-0.025449,-0.329167,0.561625,0.407465,0.707644,0.577245
0.526902,-0.867302,0.400749,0.792713,0.041181,-0.608202
-0.648464,0.328802,0.251447,0.930866,-0.357415,0.075783
0.157387,0.676275,-0.473514,0.863510,-0.339530,-0.372920
0.192674,0.185220,0.473318,-0.500680,0.296700,-0.813196
0.291471,-0.142880,0.698334,-0.637888,0.758721,-0.132062
0.622255,0.089967,0.666313,-0.272289,-0.839185,0.470773
-0.071828,0.040856,0.433134,-0.540322,-0.672172,0.506198
0.387763,-0.173190,0.321094,-0.013749,-0.446894,0.894481
0.266157,-0.834701,0.797263,0.671620,0.739335,0.048062
0.601860,0.015806,0.248987,0.703154,-0.195995,-0.683491
0.290531,-0.177929,0.327160,0.083037,-0.728192,0.680325
-0.248983,-0.085905,0.627652,0.356126,-0.690841,0.629217
0.406413,-0.589719,0.793448,0.785436,-0.309329,-0.536102
0.279485,-0.180845,0.327552,-0.181155,0.817771,-0.546291
0.287714,-0.021014,0.542155,-0.020083,0.345874,0.938066
-0.504674,-0.667057,0.089677,0.200095,-0.305525,0.930922
-0.405653,-0.728354,0.058536,0.068367,-0.648208,0.758388
0.730981,-0.228863,-0.092766,-0.640754,0.443098,0.626975
0.166510,0.239069,0.274928,0.842559,0.172005,-0.510401
0.208104,-0.246778,-0.858664,-0.741257,-0.665785,-0.085251
0.248133,0.236362,-0.006569,0.042543,-0.202006,0.978460
-0.219733,0.028722,0.745842,0.326231,-0.896668,0.299265
-0.290487,0.060750,0.596791,0.735006,-0.213939,0.643426
0.479986,-0.439887,0.321038,0.464901,0.104268,-0.879201
0.042757,0.624769,0.151441,0.833394,-0.274330,-0.479790
0.418489,-0.547796,0.804517,0.785436,-0.309329,-0.536102
0.705309,-0.249017,0.252383,-0.285973,-0.074470,0.955340
-0.587415,-0.417493,0.334316,0.181700,0.547243,0.817013
0.410707,-0.270994,0.604534,0.056783,-0.735217,0.675450
0.107921,0.601646,0.506318,0.259813,0.393294,-0.881939
0.161053,-0.182720,-0.987630,-0.300094,0.061086,0.951952
0.088018,0.060334,0.691317,-0.507226,0.704466,-0.496437
0.063196,0.433222,-0.239091,-0.673648,-0.429727,-0.601276
0.047363,0.167305,0.206524,-0.070090,0.833902,0.547444
0.370768,-0.000859,0.618078,0.845728,-0.391968,0.362084
0.647480,-0.238914,-0.105541,0.507378,-0.238024,-0.828198
-0.457802,-0.559982,0.527926,-0.237027,-0.339566,-0.910227
0.421843,-0.567846,0.442317,0.523059,0.106552,-0.845610
0.623686,0.203031,0.200389,-0.486941,0.092877,0.868483
0.098618,0.901727,0.199326,-0.252958,0.916334,0.310394
-0.351581,-0.529985,0.090445,0.066261,-0.209375,0.975588
0.297643,0.159701,0.515808,0.763242,0.646080,-0.006488
0.113556,0.287087,0.515053,-0.455196,-0.382087,-0.804243
-0.091194,-0.105538,0.909820,0.495609,-0.793830,-0.352429
0.513305,0.075801,0.360090,0.511716,0.021842,-0.858877
0.243034,0.530974,0.374361,0.344634,-0.249055,0.905096
-0.717966,-0.147045,0.416613,-0.619663,-0.589678,0.517975
0.200009,0.882301,0.211235,-0.661872,0.697728,-0.274046
-0.345990,-0.102466,0.411106,0.976709,-0.203280,-0.068675
0.303144,0.462333,0.240139,-0.662953,0.249583,0.705834
0.745159,-0.372340,0.302449,0.257372,0.953134,-0.159045
0.153361,0.751842,-0.282671,-0.200468,0.458557,0.865759
0.439733,-0.163451,-0.964219,0.153568,-0.107688,-0.982253
-0.002326,-0.297242,0.853395,0.172467,0.977072,0.124841
-0.407129,0.053824,-0.194546,0.043784,-0.077878,0.996001
0.753835,-0.649611,0.612627,-0.280315,0.734327,0.618213
-0.048616,-0.510351,0.754480,0.269909,0.616276,0.739833
0.669215,-0.525819,0.296327,-0.343650,0.763160,0.547259
0.399884,-0.143869,0.725505,0.583530,-0.515101,0.627824
0.194374,0.367393,0.385249,-0.306258,-0.089855,0.947698
-0.588622,-0.118871,0.200892,0.731528,0.198705,0.652214
-0.664162,0.089602,0.211263,0.093775,-0.095228,0.991029
0.406413,-0.129079,0.715218,0.232140,-0.580544,-0.780436
-0.235968,-0.207614,0.602368,-0.516515,0.279932,-0.809228
0.828570,-0.200375,0.595533,-0.220733,0.579230,0.784710
0.406458,-0.299065,-0.143865,0.107284,0.993039,-0.048615
-0.719174,0.237351,-0.199606,0.139938,0.096679,0.985429
-0.605751,-0.455407,0.343947,-0.218521,0.428202,0.876865
0.243750,-0.564253,0.720152,0.724736,-0.141626,-0.674314
0.232792,-0.942453,0.444875,-0.007128,-0.095619,0.995392
0.806163,-0.070958,-0.093856,-0.215462,0.831512,0.512020
0.456013,-0.294378,0.565482,0.261529,-0.100527,0.959946
-0.813498,-0.395933,0.358776,-0.136535,0.622414,-0.770687
0.392281,0.209489,0.728860,0.622988,0.423897,-0.657418
0.368755,-0.381350,-0.965421,-0.017508,-0.161396,0.986734
0.339594,-0.794130,0.603793,-0.400774,-0.142871,-0.904969
0.420278,0.148244,0.736240,-0.638985,-0.389027,0.663593
0.859698,-0.204698,0.590641,-0.606885,0.787833,-0.104928
-0.270987,0.361873,0.303986,-0.093666,-0.377816,0.921131
-0.320095,0.674192,-0.463576,0.034078,-0.462781,0.885818
0.456729,0.261412,0.153831,0.789336,-0.088807,-0.607504
0.517912,-0.140849,0.767325,-0.001343,0.933659,0.358162
-0.105908,-0.823191,0.776158,0.848759,0.296744,0.437666
0.272418,0.523266,0.378987,0.529385,-0.184481,0.828081
-0.466479,0.491603,0.266472,0.031653,-0.479179,0.877147
-0.087303,0.646746,-0.117127,-0.506609,0.131559,0.852079
0.193479,-0.317449,0.953289,0.909590,0.336109,0.244288
0.782951,-0.280212,0.566489,-0.191602,-0.664489,0.722318
0.241737,-0.314741,0.865234,0.657312,-0.681980,-0.320694
0.175008,-0.768247,0.476784,0.880712,-0.137715,0.453190
0.088107,-0.119861,-0.994633,-0.254502,0.018184,0.966901
-0.726329,-0.200271,0.411484,-0.619560,0.765410,0.174047
-0.288475,-0.403797,0.086783,-0.025290,0.148523,0.988586
0.205599,0.612634,-0.436530,-0.298781,0.386128,0.872717
-0.511830,-0.036898,0.462877,0.703972,0.638137,0.311775
0.637953,0.130954,-0.437718,-0.424393,-0.400316,-0.812181
0.343844,-0.089655,0.448355,-0.274075,-0.140820,0.951343
0.242006,-0.184907,-0.775305,0.941656,0.297547,0.157322
0.815823,-0.061115,0.289981,-0.175238,-0.606072,0.775866
0.286506,-0.129339,0.371621,0.210307,0.112592,-0.971130
0.463258,-0.146213,0.774914,-0.033673,0.615151,0.787690
0.077687,0.394110,0.555405,-0.685141,0.306567,-0.660755
0.492866,-0.330729,0.592206,0.039779,-0.825504,0.562993
-0.261237,-0.716949,0.344142,0.344868,-0.843010,0.412796
-0.494834,-0.018305,0.046222,0.249905,0.018934,0.968085
-0.512009,0.471343,0.274425,-0.357143,-0.089773,0.929725
0.485531,-0.995521,0.413510,-0.703334,0.423705,-0.570785
0.342144,-0.331250,0.208132,-0.517507,-0.230912,0.823933
0.016011,0.769133,0.186971,0.797142,0.202798,-0.568716
-0.085872,0.395464,0.563050,0.049241,-0.605938,0.793986
-0.415761,-0.290316,0.160820,-0.073526,-0.395425,0.915551
0.035825,-0.331511,0.860719,-0.149128,-0.922134,0.356973
0.466747,-0.239799,-0.962779,-0.078806,0.117330,0.989961
0.245852,-0.402495,-0.973248,-0.399335,-0.040472,0.915911
-0.611208,0.175325,-0.182274,0.216736,0.344078,0.913584
-0.407219,-0.171315,0.453778,0.305678,0.947946,-0.089213
-0.052731,-0.361144,0.788528,0.727289,0.198858,0.656892
0.081578,0.753405,0.208313,-0.905298,0.267128,0.330269
0.243526,0.916048,0.210773,-0.625259,0.769924,-0.127545
-0.017666,0.044918,0.401490,0.042523,-0.998208,0.042095
0.509683,-0.530558,0.333715,-0.180773,0.004161,0.983516
-0.852140,-0.086113,-0.045914,0.099249,-0.069402,0.992639
0.385840,0.280109,0.496184,0.213516,0.249417,-0.944564
-0.751867,-0.088456,-0.056104,-0.228192,-0.140571,-0.963415
0.061452,-0.218603,0.802924,0.806893,-0.240839,-0.539370
-0.874994,0.198604,-0.205309,0.150548,0.472104,0.868593
0.509772,0.535922,0.501384,0.484468,0.812559,-0.324096
-0.652758,-0.309221,0.157996,-0.275066,0.436903,-0.856420
0.383291,-0.327136,0.677718,-0.357790,-0.762788,0.538647
0.428463,0.084447,0.470788,-0.191802,-0.452929,0.870671
-0.360124,-0.498685,0.099097,-0.056039,-0.128261,0.990156
0.303368,-0.114079,0.733193,-0.073904,-0.609209,0.789559
0.226799,-0.649298,0.738112,-0.576916,-0.738847,-0.348244
0.052596,0.241414,-0.029212,-0.150418,-0.396381,0.905680
0.608077,-0.491654,0.343541,0.588426,-0.016155,-0.808390
-0.102286,0.638309,0.017471,-0.020408,-0.561622,0.827143
0.538396,-0.023149,0.341724,0.745968,-0.253504,0.615847
-0.687240,-0.225894,0.498183,0.401445,0.082055,0.912200
-0.440405,-0.394162,0.492313,-0.700628,0.055801,-0.711341
0.121383,-0.562117,0.777053,0.981203,0.154407,0.115755
-0.171116,0.369216,-0.465337,0.762702,0.313681,-0.565588
0.605617,0.176054,0.372124,-0.603686,0.102756,0.790572
0.450199,-0.240268,0.725379,0.642331,0.430667,-0.633985
0.076434,0.184803,0.648506,0.942545,0.071098,0.326426
0.616530,-0.378018,0.342633,-0.161295,0.364461,0.917144
-0.291471,0.049241,0.137618,-0.268274,-0.027170,-0.962959
-0.306185,-0.098560,0.429011,0.158634,0.866495,0.473310
-0.405564,-0.316095,0.153677,-0.160803,-0.390363,0.906509
-0.535176,-0.207353,0.178011,0.030214,-0.791807,0.610024
0.144819,-0.449835,0.383152,-0.615747,0.302589,0.727527
0.262534,-0.308023,-0.618944,0.104150,0.993913,0.035906
-0.606646,0.191521,0.220795,0.880965,0.465506,-0.084881
0.396127,0.368331,0.501971,-0.410470,0.132343,0.902219
-0.806119,-0.490873,0.357225,0.362674,0.192060,0.911910
0.388076,-0.329532,-0.965127,-0.090619,-0.034672,0.995282
0.554139,-0.373122,0.560912,-0.367611,0.696208,0.616568
0.188202,-0.125745,-0.294272,0.962969,0.061771,-0.262441
-0.386154,0.462074,0.495150,0.006924,-0.694478,0.719481
-0.162261,0.329375,0.470145,0.430132,0.349618,0.832318
0.006350,0.392027,0.537598,0.970747,0.092466,0.221586
0.182387,-0.480092,-0.975261,0.236384,-0.161094,-0.958213
-0.006933,-0.411661,0.777989,-0.586085,-0.616384,-0.525904
-0.482580,-0.535922,0.325245,-0.310360,0.616054,-0.723985
-0.654457,0.189074,-0.179409,-0.027499,0.326623,0.944755
-0.455164,-0.435722,0.622285,0.868751,-0.170309,0.465044
0.058366,0.168137,0.604744,0.616191,0.095308,0.781809
-0.116284,0.257818,-0.486023,0.673418,0.364702,-0.643040
0.719755,-0.309846,-0.079264,-0.431871,-0.203256,0.878735
-0.335748,-0.560816,0.088768,-0.162477,0.104928,-0.981117
-0.434054,-0.377809,0.607134,0.449390,-0.026755,0.892935
-0.020439,-0.037731,0.758561,0.594481,0.677838,-0.432583
0.220806,-0.106945,0.415076,-0.501143,0.017566,0.865186
0.070576,0.678879,0.204344,0.744900,-0.247784,-0.619457
-0.533476,-0.369581,0.605569,0.782141,0.161995,0.601675
0.617693,-0.514569,0.338551,-0.043186,-0.599078,0.799525
-0.463840,0.455772,0.490691,-0.053450,-0.626863,0.777294
0.337895,-0.414942,0.830039,0.106114,0.730436,0.674688
0.664654,-0.483894,0.572513,0.280921,0.458738,0.842996
0.231763,0.334115,0.503704,0.689188,-0.225579,0.688574
0.670378,-0.286410,0.555139,-0.533300,0.703365,-0.469967
0.214634,-0.181001,0.729573,0.373524,-0.602131,0.705633
0.542287,0.206416,0.365401,-0.708994,0.028841,0.704625
-0.263876,0.001068,0.583415,0.524598,-0.300176,0.796675
-0.099020,0.548420,-0.125178,0.716430,0.164144,-0.678074
0.217988,0.025597,0.482277,-0.591761,0.415368,-0.690860
0.535578,-0.270994,0.751922,0.818032,-0.243088,-0.521279
0.375553,0.420879,0.237651,-0.239174,0.053055,0.969526
0.105550,0.840793,0.220264,-0.172610,0.515128,0.839553
0.111543,0.524516,0.397437,0.436171,0.295631,-0.849916
-0.180017,-0.097414,0.204120,0.324891,0.668078,-0.669416
0.098618,-0.197771,0.862382,-0.099181,-0.631679,0.768860
-0.786216,0.464261,0.075140,0.219257,-0.307300,0.926009
0.199740,-0.727834,0.478364,0.486498,-0.220572,0.845380
0.189230,0.867823,0.208174,-0.737554,0.445510,-0.507479
0.341786,-0.111111,0.546501,-0.076794,-0.514787,0.853872
0.488617,-0.041221,0.428074,0.459458,0.829915,-0.316449
-0.779507,-0.168294,-0.046362,0.033621,-0.095089,0.994901
0.180509,0.053876,-0.036159,-0.247461,-0.071004,0.966293
0.081980,-0.102622,0.875898,0.974635,0.223746,0.004896
0.489915,0.300419,0.497149,-0.250359,0.066277,0.965882
0.121830,0.750541,0.216532,0.144502,-0.235368,0.961104
-0.395545,-0.005391,0.219327,0.455555,-0.399070,0.795747
-0.226173,0.164336,0.261720,-0.200266,-0.861145,0.467251
0.153048,0.449939,0.395661,0.418756,0.278979,-0.864184
0.006485,-0.199906,-0.191415,-0.397585,-0.523191,0.753789
0.711391,-0.654194,0.586574,0.912955,-0.258987,-0.315339
-0.014223,-0.276203,0.854415,-0.052203,0.993323,0.102878
0.366027,0.583886,0.247295,0.646857,-0.573912,-0.502195
-0.254528,-0.702679,0.691332,0.020826,0.979611,0.199819
-0.345006,-0.393850,0.514075,0.028354,-0.532941,0.845677
0.369739,-0.674244,0.592710,0.453340,0.731015,0.510000
0.399481,0.058667,0.463450,0.296223,0.340268,-0.892451
0.398363,0.632268,0.226050,-0.311056,0.891151,0.330293
-0.106400,0.453428,0.012300,-0.020482,-0.634911,0.772314
0.443803,-0.880999,0.657423,-0.298455,0.756881,0.581425
-0.069950,0.430669,0.013306,0.311223,-0.709451,0.632312
0.234850,-0.120642,-0.394501,0.683929,-0.274300,0.676018
-0.654278,-0.030597,0.208635,0.237691,-0.120682,-0.963815
-0.754595,-0.469156,0.343793,0.780343,-0.353792,0.515651
-0.296794,-0.138400,0.171582,0.102695,0.373338,-0.921994
-0.407398,-0.386715,0.149470,0.331977,0.776026,-0.536260
-0.174516,0.602896,0.013418,-0.221593,-0.441993,0.869217
0.482669,-0.233028,0.784656,-0.078597,0.995450,0.053865
-0.540185,-0.144963,-0.058047,-0.060895,0.081133,0.994841
0.456818,-0.866416,0.657088,-0.258133,0.729163,0.633789
0.379086,-0.352863,0.317502,0.267009,-0.057548,-0.961974
-0.673420,-0.440772,0.348070,-0.101599,0.255515,-0.961452
-0.086185,-0.165065,0.006318,-0.090631,-0.515410,0.852138
-0.275817,-0.440096,0.088908,-0.053604,0.099795,0.993563
0.090747,0.325625,-0.107036,-0.272503,0.010894,0.962093
0.461917,0.636643,0.250175,-0.027146,0.702899,0.710771
-0.065522,-0.331979,0.788500,0.677595,0.332268,0.656097
-0.786440,-0.341457,0.375884,0.390938,-0.596201,0.701222
0.201932,-0.187928,-0.016647,0.822026,-0.001123,0.569448
0.411288,-0.905841,0.376317,0.640104,0.617146,-0.457600
-0.520730,-0.144442,0.476169,0.191532,-0.431024,0.881779
0.578916,-0.211467,0.791924,0.080347,-0.993029,-0.086246
0.747394,0.270213,0.212996,0.622004,-0.460241,-0.633474
0.216691,-0.307346,-0.142510,0.292195,0.948741,-0.120465
-0.181672,0.145171,0.277472,-0.482898,-0.848106,0.218003
-0.189096,-0.321564,0.549493,-0.334996,0.884346,-0.325131
0.526499,-0.186470,0.757499,0.878492,0.383788,-0.284533
0.145847,-0.166315,0.768219,-0.644213,-0.562646,-0.518092
-0.693010,-0.406713,0.335910,-0.151986,0.840261,0.520445
0.891856,-0.660339,0.368979,-0.621291,0.305317,0.721650
-0.565321,-0.232143,-0.048193,-0.177871,0.013703,0.983958
0.357395,0.362863,0.258421,0.149526,0.342085,0.927696
0.139854,0.289639,-0.224317,0.697093,0.103709,0.709441
0.366385,-0.001068,-0.105708,0.284556,0.203849,-0.936736
0.313297,0.521548,0.387723,-0.360164,0.432311,-0.826674
0.626996,0.124339,0.384927,-0.362441,0.127380,0.923261
0.217943,-0.245840,0.923504,0.126620,-0.780652,0.612004
-0.577530,0.174075,0.062547,0.199918,-0.254097,0.946291
0.431594,0.064813,0.468622,-0.250767,-0.431864,0.866377
-0.072588,-0.078249,0.750189,-0.234493,-0.577783,0.781780
-0.507581,-0.204594,0.171596,-0.232999,0.804266,-0.546687
0.171653,-0.413015,-0.976351,-0.243276,0.060182,0.968088
-0.054654,-0.470927,0.869720,-0.572832,-0.594305,-0.564504
-0.780268,-0.369685,0.354248,0.742863,-0.209927,0.635677
0.442685,0.232612,0.490593,-0.323603,-0.120140,0.938535
-0.215886,0.416504,0.474450,0.140428,0.429019,0.892313
-0.121964,-0.679921,0.752104,0.899479,0.110352,0.422801
-0.323270,0.367497,0.034705,0.208330,0.461991,-0.862069
0.840556,-0.587584,0.368071,-0.031871,0.283164,0.958542
0.064672,0.494467,0.202625,-0.600995,-0.144539,0.786075
0.261639,-0.362445,0.733556,-0.489405,-0.466188,0.736988
0.092804,-0.126214,0.877240,0.982577,0.091809,0.161597
0.250905,0.552379,0.506429,0.486562,0.429623,0.760711
-0.539156,0.516288,0.285453,-0.330323,-0.652860,0.681661
0.138109,-0.249382,0.482976,0.909185,-0.040597,0.414408
0.495236,-0.823555,0.396724,0.250126,0.185672,-0.950244
0.444071,-0.367445,0.549185,0.377367,0.644329,-0.665158
-0.387897,-0.334843,0.570039,0.906685,-0.252463,-0.337911
0.186771,0.244278,0.498351,0.634159,-0.116466,0.764381
0.308109,-0.191209,0.703491,0.501173,-0.461130,0.732246
0.192987,0.431138,0.519805,-0.341277,0.206134,-0.917082
-0.153182,0.456449,0.010231,0.286856,0.870250,0.400473
0.231450,-0.212197,-0.132880,-0.501598,-0.838694,0.212112
0.268796,0.194386,0.294957,0.760043,-0.160263,0.629802
-0.143969,0.651798,0.020378,0.156464,0.748113,-0.644861
0.256452,-0.259589,-0.558103,-0.043459,0.999033,0.006620
0.314102,-0.086582,0.445699,-0.257950,-0.224645,0.939679
0.259314,-0.270839,-0.501873,0.273972,0.945339,0.176845
-0.361867,0.168137,0.649666,0.837849,-0.307038,0.451372
0.178675,0.374737,-0.284977,-0.484263,-0.226374,0.845130
-0.099602,0.488634,-0.393537,0.679977,0.725184,-0.108354
0.373586,0.084238,0.630839,0.802196,0.399465,-0.443746
0.411557,0.395620,0.255444,-0.107401,0.013110,0.994129
0.141151,0.732260,0.212954,-0.246322,0.024452,-0.968879
0.245628,0.119496,-0.279345,-0.432106,0.496235,0.753018
0.448276,-0.284327,0.612571,-0.226936,-0.267729,0.936387
-0.748915,-0.426555,0.359559,-0.052977,-0.600060,0.798199
-0.070039,-0.484936,0.748777,-0.409667,-0.119594,-0.904362
0.141822,0.710283,0.402412,-0.476244,-0.035087,0.878613
-0.209982,0.093404,0.756087,0.172144,-0.783352,0.597265
-0.347064,0.201990,0.661183,0.646134,0.714235,0.269034
0.190885,0.196522,0.556355,0.379466,0.762163,0.524513
0.194374,0.712940,0.405641,-0.269200,0.206286,-0.940732
0.110023,-0.690961,0.828292,0.954228,-0.297341,-0.032213
-0.389060,-0.021118,-0.204372,-0.088980,-0.306078,0.947839
0.099378,-0.344114,0.928899,0.652511,0.457769,-0.603884
0.042578,0.171835,0.688117,-0.316589,0.842753,0.435360
0.476586,-0.915840,0.420583,-0.617120,-0.183013,-0.765290
-0.437587,-0.148295,0.470061,0.586152,0.717450,0.376420
0.181091,-0.034451,-0.989587,0.356642,-0.154556,-0.921368
-0.070307,-0.493269,0.618441,0.703305,0.574079,-0.419280
-0.353996,0.580762,0.530833,-0.036372,-0.701740,0.711504
0.367011,0.012264,0.457692,0.304837,0.260276,-0.916150
-0.171609,-0.156681,0.650826,0.590442,0.800697,-0.101307
0.656514,-0.549098,0.570360,0.824290,-0.247012,-0.509442
-0.504674,-0.341406,0.548668,0.628759,-0.021343,0.777308
0.447471,-0.330469,0.553909,0.347379,0.498020,-0.794547
0.413748,0.235528,0.486568,-0.737350,-0.467976,0.487149
0.814080,-0.515558,0.381405,0.346222,0.582626,-0.735308
-0.480791,0.336614,0.249574,0.588657,0.214373,-0.779440
-0.383604,0.645445,0.063721,0.652385,0.325444,-0.684456
-0.337000,0.145691,0.617309,0.650681,-0.375895,0.659786
-0.758487,-0.225009,0.412867,0.401507,0.588547,0.701716
0.181135,-0.220426,0.786249,-0.650819,-0.728270,0.214609
-0.292097,0.609041,0.062575,0.198663,-0.151096,0.968351
0.261595,-0.253288,0.700459,0.241920,-0.583886,0.774953
0.457936,-0.862927,0.396919,-0.564593,-0.459043,0.685940
0.114316,0.454991,0.564979,0.992298,-0.069647,-0.102442
-0.527171,0.172773,0.162958,0.640336,0.256909,0.723856
0.042846,-0.227560,0.706259,0.348241,0.829044,0.437509
0.275057,-0.286618,-0.712157,0.410779,0.905587,-0.105697
-0.167449,-0.413588,0.848643,0.827841,0.543946,-0.137123
-0.042802,-0.627581,0.702709,-0.603440,-0.591844,-0.534397
0.496176,0.185012,0.175300,0.778127,-0.212365,-0.591117
0.144729,0.709866,0.534509,0.034972,-0.273779,0.961157
0.088555,0.245424,-0.113717,-0.721945,-0.297917,0.624533
0.430386,0.332553,0.502292,0.053780,-0.010016,0.998503
0.630887,-0.195115,-0.153649,0.462735,-0.848276,-0.257494
-0.324165,-0.695961,0.655355,-0.258992,0.965844,0.008286
-0.371215,0.091269,0.220054,0.002000,-0.347280,0.937759
0.280289,-0.194542,-0.864213,-0.752927,-0.648172,-0.113905
0.132967,-0.053771,0.667780,-0.046072,0.531659,0.845704
-0.088510,-0.678723,0.744598,0.285681,0.511663,0.810301
0.556644,-0.076009,0.585721,0.017374,-0.754052,0.656585
0.567109,0.112882,0.217371,0.553158,-0.666708,-0.499516
0.672794,-0.248028,0.563176,0.703665,-0.549894,0.449968
0.690281,-0.649611,0.577894,0.813337,0.229007,-0.534826
-0.760052,0.211885,-0.191681,0.170201,0.351727,0.920500
0.348539,-0.663255,0.414670,0.575208,0.543782,-0.611095
0.507670,-0.632841,0.416417,-0.724463,0.006608,-0.689282
0.177065,-0.151056,0.490593,0.868889,-0.111755,-0.482226
0.267141,0.171835,-0.022671,-0.552989,0.338795,-0.761197
0.269556,-0.301253,0.748665,0.022583,0.469377,0.882709
0.310613,-0.242142,-0.592654,0.338130,-0.935542,0.102127
-0.685004,-0.443846,0.346099,-0.101599,0.255515,-0.961452
-0.800886,0.160065,-0.174629,0.086687,0.265643,0.960166
-0.753880,-0.084603,0.432603,0.261349,-0.713960,0.649583
0.455298,-0.731011,0.428563,0.694380,0.139144,0.706027
0.106534,-0.109809,0.881740,0.674212,0.525206,0.519227
0.657722,-0.566701,0.567327,-0.497310,0.655300,0.568564
0.281721,-0.288962,-0.779694,0.941656,0.297547,0.157322
0.245047,0.019191,-0.982780,-0.203279,0.212640,0.955752
-0.481641,-0.646278,0.096707,-0.247265,0.350259,-0.903426
0.422828,-0.340052,0.325693,0.177523,-0.367706,-0.912840
0.247507,0.516392,0.281092,0.988252,0.016143,-0.151977
0.116687,0.246101,0.537640,0.556455,0.742767,0.372364
0.024733,0.515611,-0.107385,-0.043887,0.102527,0.993762
0.138200,0.545765,-0.441786,0.469757,-0.308485,-0.827143
0.557538,0.403120,0.503452,0.061072,0.206614,0.976515
0.460083,-0.916152,0.375255,0.031062,-0.814913,0.578750
0.109620,-0.140276,0.862242,-0.008251,-0.600950,0.799244
-0.494298,-0.408171,0.645752,0.813846,0.030147,0.580299
-0.385438,0.387861,0.474939,-0.132553,0.348210,-0.927998
0.109710,-0.247975,-0.991348,-0.311873,0.198427,0.929173
0.260611,0.141057,-0.280631,0.571486,-0.309330,-0.760078
-0.389105,0.099966,0.228944,-0.514013,0.247042,-0.821438
0.089628,0.508424,0.508107,-0.292812,-0.003997,0.956162
0.486784,-0.309429,0.604241,-0.379044,-0.646656,0.661938
0.010958,-0.700909,0.418765,0.239108,0.919627,-0.311631
0.196297,0.346093,0.503690,0.033026,0.022270,0.999206
-0.411021,-0.369789,0.613675,0.840922,-0.073889,-0.536089
0.270629,0.544827,0.285634,-0.514450,0.015819,-0.857374
-0.412452,0.707002,-0.443477,-0.176836,0.141898,-0.973958
0.143029,0.339948,0.507659,-0.218128,-0.545471,-0.809247
0.399884,-0.490092,0.760308,0.867839,-0.046951,-0.494622
0.213426,-0.268026,0.354821,-0.522921,0.848035,0.085968
-0.607764,0.306096,0.174377,-0.477552,-0.510050,0.715397
0.442416,-0.876832,0.403377,0.781012,0.578683,-0.234832
0.507491,0.149494,-0.195329,0.800936,-0.178368,-0.571564
0.517107,-0.442336,0.210815,0.494111,0.279901,-0.823110
-0.038329,-0.275213,0.401895,0.268122,0.839225,-0.473088
0.366832,-0.209437,0.391329,-0.647747,0.744026,-0.163853
-0.281989,0.160118,0.152196,0.222716,-0.115255,0.968046
0.260387,-0.239747,-0.435454,0.855475,-0.517653,-0.014063
0.144819,-0.170950,0.937788,0.603827,0.757388,-0.248509
0.274699,-0.250527,-0.713094,0.900683,-0.425172,-0.089432
-0.055101,-0.247559,0.634082,0.751326,0.631398,-0.191951
0.292410,0.959795,0.211081,-0.442265,0.505274,-0.741013
0.280156,0.012161,-0.980390,-0.106051,0.210808,0.971758
-0.368487,-0.337291,0.590264,0.796362,-0.295026,-0.527984
-0.086364,-0.074187,0.700137,0.544816,0.385980,0.744443
-0.192764,-0.136682,0.610111,-0.525293,-0.708003,0.472016
-0.163648,0.598521,-0.464960,0.278406,0.332541,0.901058
0.044456,0.873187,0.193121,0.101303,-0.429534,0.897351
0.158996,0.095488,0.504249,-0.277657,-0.907503,0.315191
-0.435842,0.744760,0.072373,-0.466059,-0.276407,0.840469
-0.265486,-0.706794,0.368937,-0.301690,0.542606,-0.783940
0.006753,-0.112517,0.117994,0.432238,0.396782,0.809774
0.793238,-0.561388,0.360132,0.245905,0.716770,-0.652512
0.160293,0.900060,0.182554,-0.365284,0.762677,0.533752
-0.172503,0.562325,0.000978,-0.614302,0.328947,-0.717236
0.542824,-0.152618,-0.962080,-0.147410,0.118748,0.981921
0.149560,-0.451136,0.767143,-0.102012,0.612589,0.783791
0.256362,0.144546,-0.015095,-0.461537,0.246075,-0.852309
0.242900,-0.463167,0.467266,0.151332,-0.261221,0.953343
0.080817,0.300784,0.647849,0.926052,0.282884,0.249807
-0.449394,-0.313960,0.633243,-0.828421,0.185830,-0.528381
0.006843,0.537536,-0.123878,-0.346985,-0.003507,0.937864
0.126750,-0.172304,-0.990174,-0.317047,0.092491,0.943889
0.084843,-0.669557,0.555139,-0.600371,0.317529,0.733982
-0.574981,0.153973,-0.192659,0.116526,0.317466,0.941083
0.361331,0.184283,-0.249168,0.705664,-0.406817,-0.580119
-0.593407,0.284848,0.260713,0.677284,0.733287,-0.059808
0.686032,-0.027056,0.259721,0.667038,0.024385,-0.744625
0.046514,-0.445356,0.851299,0.772750,0.224315,0.593751
-0.110023,0.598365,-0.464275,-0.149634,-0.337220,-0.929458
0.688224,0.076895,0.386814,0.866371,0.471071,0.165813
-0.348272,-0.418587,0.094764,-0.004799,0.383066,0.923709
0.309093,-0.105903,0.664929,-0.691756,0.286758,0.662754
0.018158,0.048720,0.702401,0.916541,-0.300026,-0.264454
-0.390313,-0.366091,0.519204,0.332993,0.673325,0.660112
0.240351,-0.565034,0.779708,0.283326,-0.246397,0.926830
0.182298,-0.238914,0.480963,0.956963,0.147723,-0.249799
0.214276,0.215634,0.499930,-0.410842,0.128217,-0.902646
0.501856,0.206677,0.334903,0.837262,-0.372339,-0.400445
0.243302,-0.122881,-0.982305,-0.466039,0.067346,0.882197
0.617558,0.016431,0.415062,0.077744,0.653933,0.752547
-0.203229,-0.335625,0.570947,-0.616124,-0.343215,-0.708939
-0.340489,0.725595,0.073617,0.137295,-0.254884,0.957175
-0.507089,-0.320783,0.462695,0.429670,0.431200,0.793379
0.074780,0.015338,0.804895,-0.274198,0.950461,-0.146421
0.243705,-0.728042,0.748567,0.794588,0.591115,0.138607
0.882239,-0.128245,-0.116065,0.606682,0.770632,0.195098
0.333378,-0.368539,-0.967671,-0.048731,-0.111630,0.992554
0.418713,-0.048876,0.766374,0.788445,0.310879,-0.530763
-0.238249,-0.022160,0.014634,-0.028637,-0.383416,0.923132
0.532269,-0.006276,0.361110,0.987196,0.113132,-0.112451
-0.071694,-0.045127,0.122592,-0.522107,-0.574636,0.630236
0.112035,0.424681,0.204945,-0.337426,-0.108098,0.935125
-0.519523,0.316824,0.241257,-0.529706,-0.035524,0.847437
-0.459457,-0.503528,0.088139,0.004533,0.240475,0.970645
0.429581,0.598625,0.259120,-0.052685,0.479105,0.876175
0.125185,-0.199281,0.256702,0.403040,0.819234,-0.407938
-0.689208,-0.120798,0.468342,-0.519728,0.813369,-0.261370
-0.445414,-0.209697,0.531225,-0.732678,-0.234794,-0.638792
0.447471,0.073041,0.637576,-0.025567,-0.711849,0.701867
-0.294512,0.313700,0.292875,0.787894,0.439252,-0.431601
0.487768,-0.255215,-0.097238,-0.061736,0.394010,0.917030
0.105729,-0.488894,0.821891,0.941990,0.286818,0.174327
0.114272,0.041065,-0.029002,0.264458,0.163103,-0.950505
0.642024,-0.726584,0.345288,0.833045,-0.082974,-0.546947
-0.826870,-0.443846,0.352137,-0.559069,0.240586,-0.793448
0.396932,-0.654090,0.424720,-0.142629,-0.057326,0.988115
0.105863,-0.069917,0.871998,-0.661523,-0.296465,-0.688837
0.343844,-0.662370,0.400036,-0.491149,-0.497473,0.715048
0.529004,-0.283545,0.635326,-0.368059,0.665628,0.649208
0.372691,0.309116,0.497121,-0.374196,0.059804,0.925419
-0.168612,0.072051,-0.192589,0.494759,0.136707,-0.858210
-0.040879,-0.317137,0.559975,0.975575,0.216056,-0.039663
-0.406413,0.429784,0.281358,-0.218624,-0.257069,0.941339
-0.487142,0.078457,-0.194462,0.375154,-0.135318,0.917033
0.752627,-0.282035,0.561862,0.432965,0.707035,-0.559145
0.235744,-0.311720,-0.299625,0.844798,0.528990,-0.080532
0.434501,0.135224,0.732592,-0.661920,-0.243071,0.709069
-0.416521,-0.484884,0.084771,0.030525,0.193801,0.980566
0.492330,-0.917663,0.421226,0.617702,0.060784,0.784059
0.137216,-0.218654,0.244402,-0.562892,-0.811188,0.158514
-0.222103,-0.272609,0.147192,0.095952,0.592514,-0.799826
0.170938,-0.346613,0.610041,0.300493,0.942748,-0.144675
0.467194,-0.160638,0.222612,0.345169,-0.213140,-0.914018
-0.377566,0.535870,0.288975,0.313463,0.689136,-0.653325
-0.236907,-0.548369,0.368113,-0.267565,0.835919,0.479216
0.907196,-0.055803,-0.088656,-0.528045,0.656490,0.538693
0.808176,-0.595032,0.352822,0.357135,-0.912268,-0.200554
-0.022318,-0.084082,0.109496,0.311542,0.125106,0.941961
0.827363,-0.245163,0.582269,-0.076173,-0.668667,0.739650
-0.250726,0.589615,-0.458376,0.057195,-0.231071,0.971254
-0.495908,-0.432545,0.515445,0.440583,-0.194987,0.876280
0.590947,0.164961,0.485352,0.878181,0.307218,0.366627
0.114540,0.634925,0.527018,-0.271142,-0.730015,0.627344
-0.395143,0.727573,-0.440807,0.106199,0.056393,0.992744
-0.306991,-0.510090,0.745772,-0.570225,0.820346,-0.043311
0.606199,0.244017,0.382230,0.519150,-0.244232,-0.819045
0.639653,-0.434784,0.343765,0.220603,-0.404586,-0.887493
0.178586,0.589095,0.520337,0.033528,0.169457,-0.984967
0.537770,-0.153035,-0.963366,-0.147410,0.118748,0.981921
-0.009482,-0.095747,0.245534,0.407819,0.834123,-0.371380
0.238920,-0.500560,-0.972940,-0.286598,0.179831,0.941022
-0.639116,0.418848,-0.195958,-0.188856,0.183181,0.964769
-0.314370,0.140900,0.229545,0.473204,0.798304,-0.372543
-0.402702,-0.417285,0.501286,0.835222,0.323322,0.444822
0.413480,-0.901935,0.650602,-0.185602,0.679955,0.709375
0.083277,0.248756,0.091787,0.094737,0.995486,0.005619
-0.248580,-0.627477,0.364213,0.262899,-0.513149,0.817045
0.254618,-0.260110,0.919031,-0.647088,0.448647,0.616435
-0.091954,0.829024,0.052288,-0.135025,0.535408,-0.833730
0.225502,-0.030597,-0.015682,-0.315435,-0.101222,0.943533
-0.306499,0.336458,0.284614,0.702879,0.603534,-0.376440
-0.094771,0.269640,0.665013,0.785511,-0.485499,-0.383749
-0.294289,-0.349426,0.593576,0.538059,0.065645,0.840347
0.657363,-0.058719,0.423168,-0.126257,0.945972,-0.298658
-0.443177,-0.138036,0.416320,-0.055187,-0.878127,0.475235
0.449886,-0.242664,-0.964778,-0.149141,0.185340,0.971291
-0.415135,-0.602739,0.086895,0.179681,-0.393566,0.901565
0.184266,0.346821,0.202849,-0.199835,-0.048943,0.978606
0.046335,0.377288,0.552316,-0.509841,-0.125607,-0.851049
0.298537,-0.487540,0.829942,0.150177,0.718455,0.679168
0.354890,-0.013619,-0.088181,0.186598,0.203467,-0.961136
0.185384,-0.281514,0.688550,0.214406,-0.864212,0.455157
0.044009,-0.090956,0.651078,0.890436,-0.127596,0.436855
0.407755,-0.110486,0.571828,-0.285171,-0.854790,0.433602
0.523145,0.618467,0.235010,0.127771,-0.671743,-0.729682
0.168612,-0.164440,0.147975,-0.024579,-0.758773,0.650892
0.549801,-0.625185,0.295726,0.542120,0.458118,-0.704438
0.089673,-0.661173,0.563400,-0.352621,0.381342,0.854539
0.242229,-0.427805,0.467867,-0.281058,-0.204521,0.937645
0.670916,-0.463063,0.356763,-0.637500,0.024010,0.770076
-0.013597,0.256256,-0.143488,0.739960,0.228459,-0.632666
0.288743,-0.892821,0.724555,0.570191,-0.807976,0.148516
-0.228052,-0.720022,0.354988,0.485841,-0.657803,0.575546
0.342457,0.080072,0.460892,0.492364,0.205572,-0.845765
-0.189230,-0.107726,0.172980,-0.419983,-0.683957,0.596504
0.281452,-0.174648,0.721997,-0.190088,-0.255768,0.947866
0.834787,0.317293,0.203589,-0.137974,0.922774,0.359793
0.114316,0.191938,0.413287,0.837241,0.157108,0.523779
-0.417371,-0.401505,0.608448,-0.789806,0.081061,-0.607976
-0.255244,-0.661120,0.374137,-0.424520,0.510984,-0.747448
-0.620824,0.525974,-0.204162,-0.405052,0.176839,0.897029
0.883179,-0.093613,-0.068375,-0.373012,0.252173,-0.892900
0.210116,-0.045179,-0.018478,-0.528915,-0.029927,0.848147
-0.253276,-0.688149,0.640958,0.168799,0.792652,0.585842
-0.595286,-0.196625,0.475820,0.856583,0.416436,0.304707
-0.640995,-0.123194,0.189598,0.022991,0.999637,0.014052
0.282213,-0.716741,0.678165,0.757701,0.630505,-0.168384
0.603113,0.240684,0.656333,-0.512138,0.858467,-0.027376
-0.049018,0.595032,-0.109594,0.085339,0.297740,0.950825
0.207075,0.567273,0.521874,0.144358,0.096917,0.984768
0.602308,0.146578,0.377086,0.668184,-0.159441,-0.726711
0.079118,0.410984,0.198488,-0.403513,0.183282,0.896429
0.025045,-0.114028,-0.621684,-0.569557,-0.821854,-0.012708
0.442640,-0.127256,0.207209,-0.213940,0.489033,0.845622
-0.265665,0.089551,0.211570,-0.009381,-0.673570,0.739064
0.259135,-0.309481,0.561303,0.063232,0.495466,0.866323
-0.331455,-0.197666,0.393355,0.164337,-0.069679,0.983940
0.559417,-0.124183,0.441981,-0.057840,-0.986585,-0.152658
0.242408,0.694399,0.275068,-0.003586,0.767392,0.641168
-0.270406,0.345989,0.283300,-0.116898,-0.985498,-0.122996
0.009035,0.553368,0.582856,0.171508,-0.735486,0.655473
0.242229,0.581908,0.252481,-0.017281,-0.260605,0.965291
-0.138602,0.006848,0.734325,-0.301782,0.697140,-0.650326
-0.831880,-0.220999,-0.056104,-0.257396,0.367902,-0.893529
0.354801,-0.177096,-0.971669,0.027210,0.311639,0.949811
0.115747,-0.263183,0.845624,-0.001480,-0.322611,0.946530
-0.301490,-0.548212,0.085414,-0.123113,0.230792,-0.965183
0.535578,0.241934,0.347720,0.778412,-0.217421,-0.588900
0.374167,-0.377341,0.767981,0.197178,0.975872,0.093781
-0.261818,0.346093,0.033126,0.153986,0.523977,-0.837697
0.139362,-0.265787,-0.012705,0.319183,0.947590,0.014003
-0.242990,0.006015,0.750636,0.031120,-0.801955,0.596574
-0.283779,-0.435149,0.569857,-0.757579,0.594840,-0.268774
0.421575,-0.365518,0.682428,-0.227172,-0.874587,0.428357
0.143298,0.813191,-0.460669,0.429218,0.155751,-0.889670
0.160249,0.875427,-0.462877,-0.507433,0.153102,0.847981
0.330874,-0.747207,0.628784,-0.296912,0.721920,-0.625040
0.003488,-0.095800,0.120873,0.432238,0.396782,0.809774
0.060065,-0.265474,0.796411,0.631994,-0.295438,-0.716450
-0.215886,0.038252,0.753431,0.448748,-0.686487,0.572155
0.063107,-0.205740,-0.998351,-0.364552,0.143339,0.920085
-0.136500,-0.052418,0.016353,0.034678,-0.439762,0.897444
0.095353,0.684296,-0.275194,-0.404992,0.065345,0.911982
-0.292500,-0.292659,0.577209,0.229734,0.683996,0.692367
0.102241,-0.096529,0.790932,0.664337,0.149541,-0.732321
-0.405295,0.528110,0.278953,0.230284,0.654669,-0.719984
-0.251442,-0.016223,0.725324,0.494747,0.848875,-0.186110
-0.305828,0.307294,0.259735,-0.117187,-0.457228,0.881595
0.119370,0.487175,0.207950,-0.255583,-0.196057,0.946699
-0.842167,-0.376768,0.367190,-0.587108,0.617387,-0.523581
0.385974,-0.056897,0.671093,-0.572097,0.497611,0.651988
-0.138557,0.055439,0.565398,-0.381906,-0.140228,-0.913501
0.528289,-0.364633,0.220865,0.488088,0.372985,-0.789083
0.353996,0.473426,0.252467,-0.305245,-0.266452,0.914237
0.237220,-0.317501,0.861669,-0.704367,0.432774,-0.562649
0.350955,0.387964,0.256534,0.018163,0.215434,0.976349
0.063733,0.113767,0.133145,0.071242,0.428962,-0.900509
-0.109173,0.445669,0.647122,0.895155,-0.435725,-0.094024
-0.130059,0.650965,0.028611,-0.066117,-0.656233,0.751656
0.152556,-0.361091,0.854499,-0.429891,-0.900772,0.061666
-0.087884,0.048824,0.271504,-0.201051,0.822688,0.531755
-0.622613,-0.171210,0.464261,-0.364864,-0.817659,0.445317
0.338521,0.551077,0.254088,-0.662188,0.113659,0.740667
0.042354,0.697628,0.147975,0.881008,-0.111330,-0.459816
-0.239367,0.704711,-0.169066,0.953048,-0.005527,-0.302768
-0.382307,0.174492,0.230537,0.022465,-0.452819,0.891319
-0.320945,0.159180,-0.215092,-0.079321,0.618487,0.781781
0.194239,-0.077572,0.824113,-0.435097,0.645718,-0.627486
0.438570,-0.210322,0.816859,-0.633329,-0.434595,0.640329
-0.485219,-0.453636,0.519428,0.496167,0.012122,0.868143
0.124782,0.655495,0.523677,-0.039511,-0.695884,0.717066
0.389776,0.556025,0.256422,-0.401340,0.256204,0.879367
0.288340,-0.458949,0.832429,-0.339499,-0.672284,-0.657856
-0.650476,0.435669,0.181785,-0.520300,-0.425673,0.740331
0.139943,-0.381038,0.526570,0.602495,-0.277457,-0.748343
0.476855,0.187407,0.652238,0.492309,0.462245,-0.737537
0.337985,-0.193813,0.209082,-0.477015,-0.055632,0.877133
0.223892,-0.065386,0.748721,-0.421293,0.252948,-0.870936
0.387674,-0.266568,0.747170,-0.360874,0.891265,-0.274623
0.409813,-0.181730,-0.968468,0.185873,-0.129035,-0.974064
-0.353639,0.656954,0.071730,0.048407,-0.422595,0.905025
0.130865,0.129287,0.603136,0.859465,-0.392761,-0.327198
0.524308,-0.290836,0.549241,0.309361,0.274119,0.910579
0.466076,0.316980,0.494968,0.215533,0.062659,0.974484
-0.193658,-0.341822,0.572639,-0.621831,-0.331540,-0.709512
-0.220269,-0.185064,0.162776,0.341843,0.707121,-0.618970
-0.381994,-0.354426,0.574120,0.983332,0.116466,0.139623
0.097455,-0.066948,0.585651,0.979858,0.145831,0.136427
-0.529183,0.250944,-0.274858,0.080884,0.903369,0.421168
0.457936,0.061896,0.618749,0.219780,-0.913324,0.342836
-0.143925,-0.265370,0.847050,-0.590828,0.329747,0.736335
0.674941,-0.395933,0.339124,0.125505,0.910553,0.393880
-0.506373,-0.465354,0.338076,0.333978,-0.189875,0.923259
0.289592,0.105799,0.693652,-0.649658,0.506816,0.566641
0.051881,0.031274,0.842577,-0.603626,0.794871,-0.061780
0.124111,-0.381975,0.919576,0.758240,0.642214,-0.112396
0.623865,-0.437544,0.571031,0.477260,0.519741,0.708584
0.692875,-0.466812,0.566894,0.219921,0.462869,0.858712
0.109978,0.680285,0.395382,0.796066,-0.369402,-0.479398
0.031486,0.329896,0.658807,0.851098,-0.122990,0.510398
0.145758,-0.368800,0.892712,0.805518,-0.576331,0.137779
0.041370,0.602323,0.160652,0.863824,-0.204318,-0.460502
0.129254,-0.267817,0.967280,0.627611,0.226854,0.744742
-0.091641,0.534515,0.000321,0.266914,0.039666,-0.962904
-0.879512,0.305263,-0.205951,-0.000181,-0.001707,0.999999
0.956304,-0.546911,0.377030,0.458709,-0.189842,-0.868070
0.485353,-0.883134,0.388771,-0.197755,-0.832617,0.517341
-0.175142,0.526235,-0.467294,-0.043181,0.128808,0.990729
-0.150767,0.651798,0.019708,-0.044467,-0.791456,0.609607
0.207925,0.558316,0.522810,0.291076,0.171293,0.941240
-0.000537,0.885373,-0.130769,-0.326102,0.615285,0.717692
-0.199920,0.017108,0.236757,0.668341,0.456995,-0.586920
0.413793,0.204072,0.476309,0.621008,0.091033,-0.778500
0.783353,-0.600709,0.352766,-0.546913,0.825302,0.140577
-0.324165,0.220530,0.639589,0.635236,-0.654497,0.410012
-0.537457,-0.336250,0.063917,-0.496646,0.334069,0.801087
-0.718413,-0.671380,0.089285,-0.230291,-0.681488,0.694651
-0.062749,-0.299118,0.859489,0.175949,0.951031,0.254130
0.742743,-0.666380,0.611760,-0.374319,0.745781,0.551087
0.149470,0.561232,-0.436041,-0.412278,0.312232,0.855884
0.119862,0.284171,0.579334,-0.602967,-0.583786,-0.543714
-0.006306,-0.219019,0.412727,-0.310199,-0.819732,0.481473
0.286954,0.354008,0.447922,0.952233,-0.141649,-0.270531
0.783085,-0.610395,0.594848,-0.688836,0.353217,0.633043
0.532447,-0.765383,0.423839,0.007984,-0.551611,0.834064
-0.390983,0.762206,0.070486,-0.228948,-0.165113,0.959333
-0.131401,-0.240945,0.834149,0.166389,-0.982244,0.086672
0.126794,0.514569,0.401336,0.833253,0.174477,-0.524641
0.163424,-0.549670,0.778380,0.848222,0.237790,0.473260
-0.723512,-0.113715,0.399254,-0.095512,-0.719753,0.687628
-0.490451,-0.319793,0.458670,0.117305,0.393337,0.911880
-0.130999,-0.739864,0.763257,-0.063097,0.955649,0.287671
-0.318619,-0.353749,0.594359,-0.327999,0.494881,-0.804680
0.161456,0.579877,-0.434462,-0.330459,0.411914,0.849190
0.233508,-0.405828,-0.975107,0.346483,-0.052509,-0.936585
-0.552798,0.497852,0.261203,0.170016,-0.474966,0.863424
-0.760589,-0.516757,0.351899,-0.470035,0.257059,-0.844386
-0.075540,0.520037,-0.130028,0.722115,0.180646,-0.667771
-0.281274,-0.176575,0.440136,0.076191,0.552417,0.830079
-0.020618,-0.565190,0.594093,-0.542436,-0.674324,-0.501050
-0.591887,-0.301096,0.572121,0.742563,-0.164413,0.649283
0.434501,-0.999479,0.368350,-0.033080,0.998975,0.030908
0.170401,0.729240,0.212283,0.092540,0.007573,0.995680
0.238830,-0.819546,0.775361,-0.432021,-0.706017,-0.561158
0.197907,-0.262610,0.356931,-0.465793,0.875198,0.130633
-0.003533,0.457022,-0.109762,0.153431,0.188922,0.969932
-0.163737,0.523996,-0.454561,-0.036456,0.113782,0.992837
0.085021,0.215738,-0.113815,-0.632913,-0.158524,0.757820
-0.075585,0.011796,0.565608,0.104668,-0.166023,0.980551
-0.772485,-0.038617,0.219439,0.245848,-0.272672,0.930166
-0.063420,-0.396453,0.736435,-0.701911,-0.271817,-0.658359
0.046603,-0.791683,0.753515,-0.088965,0.491605,0.866262
-0.433070,0.005755,-0.215204,-0.094315,-0.313040,0.945045
-0.459725,-0.502539,0.510217,0.316130,0.106709,0.942696
-0.718324,-0.296618,-0.069927,0.134747,-0.562371,0.815832
-0.058545,-0.162410,0.582129,0.754252,-0.182009,0.630854
0.072141,0.376768,0.627037,0.014303,0.842459,0.538571
0.300729,-0.442804,0.826266,0.028559,0.712988,0.700594
0.001476,0.521496,0.012300,0.556398,-0.203033,0.805729
0.035154,-0.294118,0.466819,0.384030,-0.617216,-0.686707
0.275907,0.001745,0.651455,-0.446555,-0.182615,0.875923
0.297017,-0.637007,0.406368,-0.434123,-0.123535,0.892343
-0.415985,0.195167,0.051953,-0.222984,0.178990,-0.958249
-0.350015,-0.739291,0.354401,0.074949,0.178124,0.981150
-0.081086,0.791371,-0.127610,-0.653892,0.378048,0.655367
0.455790,-0.745645,0.430199,-0.369593,-0.093462,-0.924482
0.535981,-0.463532,0.209557,0.494111,0.279901,-0.823110
0.316293,-0.151941,0.139798,-0.608462,0.495090,0.620210
0.140346,-0.563316,0.846337,0.927002,-0.056046,-0.370844
0.142850,0.465458,0.395228,0.478235,0.238610,-0.845196
-0.009795,-0.396141,0.582884,-0.659710,-0.151960,-0.735996
0.450467,-0.647996,0.421519,-0.511814,0.036130,-0.858336
-0.539201,0.303491,0.180136,0.401874,0.870417,0.284379
-0.195044,-0.272713,0.377519,-0.175385,-0.476903,0.861280
0.550070,-0.187303,0.230984,0.217607,0.492093,-0.842907
-0.492777,0.169909,0.033084,0.097524,-0.330659,0.938698
0.044456,0.339322,-0.303930,0.634590,0.120979,-0.763321
0.099334,-0.125016,0.714869,-0.409093,-0.578763,0.705461
0.470593,-0.411452,0.320507,-0.361379,-0.155017,0.919443
0.408560,-0.696065,0.604324,0.715018,0.200417,-0.669762
0.357127,0.285889,0.245520,0.353619,-0.220142,-0.909116
-0.533208,0.300680,0.258896,0.117845,-0.088142,0.989113
-0.131401,0.364581,-0.014802,0.117560,-0.472373,0.873524
-0.465764,-0.558941,0.098258,-0.060876,0.310987,0.948463
-0.670200,0.357446,0.188494,0.383576,0.306119,0.871298
0.542779,-0.518840,0.307984,0.254877,0.762715,-0.594393
-0.513976,0.190740,0.223940,0.881625,0.145190,-0.449062
0.336866,-0.472854,0.740922,0.813972,-0.239820,-0.529089
0.821280,-0.573366,0.355394,-0.610983,0.739775,-0.281837
-0.258777,-0.655027,0.631174,-0.454549,-0.420834,-0.785038
0.764211,-0.601125,0.352263,-0.393388,0.780844,0.485312
0.421397,0.160014,0.731473,-0.638985,-0.389027,0.663593
-0.101481,0.479989,-0.159059,0.830928,0.311398,-0.461074
-0.022139,0.151264,-0.462905,-0.571321,-0.211777,0.792933
0.107562,-0.421035,0.923685,0.256821,0.936091,0.240368
0.752403,-0.267245,0.580074,-0.482069,-0.464439,0.742904
-0.556867,-0.451085,0.344436,0.342667,0.594780,0.727197
0.309405,-0.802880,0.622215,0.376815,0.648406,-0.661499
-0.285388,0.550608,0.053336,0.008704,-0.164768,0.986294
0.289458,-0.235008,0.852473,0.972814,-0.212079,-0.093032
0.006441,0.801213,-0.312303,0.913133,-0.163807,-0.373305
0.613310,-0.348176,0.546655,-0.489482,-0.539855,-0.684809
0.302965,0.067000,0.449613,0.663670,0.175332,-0.727186
-0.187441,0.701273,-0.161393,0.810876,-0.187868,-0.554243
0.171474,-0.377341,0.905054,-0.737252,0.671625,-0.073341
0.354533,-0.286045,0.709907,0.641669,0.625280,-0.444167
-0.156402,-0.035648,0.208663,-0.340987,-0.829836,0.441701
0.039179,-0.169909,0.547857,0.012895,0.267134,0.963573
0.242229,0.109289,-0.284432,-0.044483,0.024855,0.998701
0.513216,-0.087571,0.036801,-0.456890,0.812910,0.361148
0.466926,-0.118662,0.566419,-0.023315,-0.816519,0.576847
0.763316,-0.123246,0.257233,-0.293562,0.739167,-0.606180
0.357082,0.148244,-0.986344,-0.088537,0.122849,0.988468
-0.165213,-0.401557,0.090655,-0.008730,-0.015166,0.999847
0.551501,0.320314,0.502837,-0.464398,-0.312225,0.828764
0.322420,0.519360,0.244514,-0.243868,0.242427,0.939020
-0.534639,-0.343853,0.547983,-0.425582,0.288443,-0.857718
-0.456058,0.365519,0.257876,0.568914,0.492912,-0.658313
-0.699674,0.171680,-0.194295,0.381478,-0.265529,-0.885420
-0.205912,-0.025649,0.731711,0.201034,0.866477,-0.456951
0.641621,-0.124235,0.570039,-0.202707,-0.140550,0.969101
0.246701,-0.498216,0.636164,0.445741,0.882281,0.151315
