0.752688,-0.362105,0.618978,0.435344,0.752888,-0.493594
0.867569,-0.205590,0.649568,-0.441198,0.410537,0.798000
-0.468262,-0.206138,0.714341,0.121098,0.192243,0.973847
0.626708,-0.402877,0.558772,-0.585893,0.566568,0.579422
0.325773,-0.248664,0.364105,0.511090,0.806593,0.296977
-0.031356,-0.458062,0.741520,0.013481,0.109403,0.993906
-0.002566,0.266639,0.607366,0.211384,-0.657385,0.723299
-0.276864,0.161200,0.539418,-0.067635,-0.768689,0.636037
0.001734,0.645321,0.403550,-0.778194,0.575005,0.252554
0.121054,-0.696725,0.682289,0.835320,0.420581,-0.354051
-0.026569,-0.292944,0.786550,0.604113,0.791834,-0.089699
-0.329031,-0.496041,0.611793,0.895363,0.135738,0.424146
-0.263406,-0.088094,0.762573,0.555229,-0.560515,0.614446
0.368506,-0.325661,0.820133,0.888229,-0.455596,-0.059000
0.499410,0.047157,0.693985,0.853181,-0.441453,-0.277852
0.173638,-0.144923,0.599262,-0.298198,0.942377,0.151672
-0.440304,-0.937361,0.575912,-0.383279,-0.865665,-0.322056
0.222684,-0.458940,0.715316,-0.470669,-0.787381,0.398123
-0.762816,-0.015427,0.648092,0.162023,-0.953982,0.252322
-0.033922,0.606631,0.307560,-0.098991,-0.620808,0.777688
-0.374332,-0.319797,0.654511,0.964087,0.064053,-0.257745
-0.066112,-0.483053,0.711417,-0.224771,-0.955670,-0.190190
0.386820,-0.199781,0.725299,0.785520,-0.203509,-0.584417
-0.167879,0.665160,0.292787,-0.170621,-0.512810,0.841377
0.267708,0.128757,0.724603,0.889186,-0.249824,-0.383322
0.436004,-0.438772,0.744305,-0.302539,0.049229,0.951865
-0.191051,0.141855,0.670370,-0.852572,0.521476,-0.034422
-0.075268,-0.005562,0.735686,0.431677,-0.423490,0.796437
0.579605,-0.525140,0.606627,-0.551558,-0.286016,0.783568
-0.186749,-0.130730,0.728766,-0.673669,0.553623,-0.489562
0.265627,-0.264721,0.195377,0.923369,0.020834,-0.383347
-0.786680,-0.177915,0.647424,0.811599,0.252787,-0.526694
-0.133750,-0.046390,0.736355,-0.356329,0.448817,-0.819508
-0.147693,-0.612769,0.662726,-0.258475,0.271136,0.927187
-0.536870,0.155994,0.478905,-0.083717,-0.277632,-0.957033
-0.128684,0.602685,0.438109,0.184239,-0.669019,0.720048
-0.179673,-0.176051,0.833528,-0.695538,-0.206663,-0.688126
0.208394,-0.127552,-0.984754,0.024922,-0.121906,0.992229
0.066319,-0.150239,0.914926,0.207775,0.836389,0.507230
-0.199305,0.139937,0.755973,0.158093,0.897433,0.411851
0.929864,-0.256008,0.662726,0.011491,-0.922536,0.385740
-0.352479,-0.007590,0.454177,0.000126,0.957533,0.288322
0.201179,-0.419866,0.691130,0.814293,-0.494572,-0.303851
0.091224,-0.157748,0.468045,-0.313265,0.933510,0.174426
-0.322927,-0.640718,0.577610,0.988165,-0.141105,-0.060154
-0.291501,0.446555,0.529379,-0.180382,-0.483359,0.856637
0.105932,-0.067434,0.043386,0.534769,-0.049641,-0.843539
0.199652,-0.080861,0.949346,0.797599,-0.360444,0.483649
0.085189,-0.141800,0.695544,-0.608204,0.761592,0.223755
0.042526,-0.747417,0.579448,-0.218719,-0.428302,0.876766
0.262781,-0.131388,0.935380,0.931186,0.364505,0.005274
-0.017758,-0.047212,0.602395,-0.517155,-0.846008,-0.129697
0.176553,-0.041019,0.490810,-0.019143,-0.343566,0.938933
0.464307,0.409398,0.683598,-0.066081,0.379043,0.923016
-0.544225,-0.415975,0.211835,0.683738,-0.729371,0.022818
-0.347415,0.187779,0.732038,0.029060,-0.914036,0.404591
0.204371,-0.181093,0.614021,-0.542510,-0.624800,-0.561522
0.182309,-0.123606,0.431885,0.873236,-0.483195,-0.063104
-0.369128,-0.489738,0.679685,-0.308629,0.736644,-0.601750
0.074366,-0.660227,0.673893,0.654764,0.639614,-0.402714
-0.631842,-0.076860,0.525090,0.013203,0.148415,0.988837
0.516269,-0.304781,0.740768,0.659331,0.082210,-0.747345
0.193966,-0.112755,-0.034183,0.891957,-0.451909,-0.013823
0.109192,0.137964,0.801921,0.933358,0.271046,0.235324
-0.363649,-0.337114,0.777597,0.327953,0.893688,0.306216
-0.378077,-0.505028,0.701740,0.713308,-0.634778,0.297069
0.306486,0.226195,0.766625,-0.501681,0.714347,0.487878
-0.258757,-0.329826,0.709677,-0.110640,-0.933902,0.339978
0.037809,0.092259,0.756001,-0.633673,-0.641689,-0.432080
0.370587,-0.300507,0.761320,-0.723251,0.684372,0.092427
-0.097675,0.671023,0.365873,-0.660403,0.485048,-0.573233
0.216303,-0.233703,0.709496,0.825193,0.402551,0.396244
0.287894,-0.074120,0.754957,-0.688822,0.149742,0.709297
-0.068401,0.341005,0.375299,0.599593,0.045281,0.799023
-0.371696,0.070503,0.520663,0.058255,-0.955512,0.289142
-0.377037,-0.685436,0.604107,-0.547956,0.280804,0.787968
0.381686,-0.436690,0.751211,0.129396,-0.870662,-0.474557
0.122443,0.217865,0.496310,0.901541,-0.281391,0.328700
0.051822,0.050116,0.754567,0.879883,-0.432570,0.196697
0.439334,-0.432909,0.579629,0.101948,0.961518,-0.255127
-0.286992,0.546019,0.564606,0.292360,0.929743,0.223839
-0.341450,0.044362,0.392439,0.843889,-0.197674,0.498775
-0.328753,0.687957,0.596978,-0.234576,-0.583113,0.777788
0.004994,0.043431,0.918658,-0.089985,0.984201,-0.152486
-0.021435,0.027319,0.929421,0.969201,0.129687,0.209359
0.136248,-0.164652,0.925104,0.213231,-0.975217,-0.059029
-0.203814,-0.095218,0.359468,-0.073512,0.984723,0.157851
-0.472354,-0.100370,0.691103,-0.664149,0.270207,0.697061
0.034756,-0.146075,0.149944,-0.572114,0.755685,-0.318789
-0.450711,-0.247952,0.533584,-0.678595,0.552366,0.484150
0.518904,-0.292671,0.825132,-0.389943,-0.860018,-0.329110
0.177038,-0.667077,0.669201,-0.516786,-0.525747,-0.675665
0.589248,-0.506946,0.536563,0.932112,-0.050661,-0.358610
-0.059244,-0.211290,0.914870,0.687214,0.124536,-0.715701
0.171279,-0.113906,0.427416,0.933080,-0.348074,-0.090591
-0.346029,0.217975,0.792356,0.882613,0.280150,0.377505
-0.323552,-0.068201,0.395614,0.819791,-0.089903,0.565562
-0.079015,-0.222085,0.872584,0.202602,0.860523,-0.467389
0.259591,0.305822,0.759454,-0.333156,-0.572066,0.749498
0.096151,0.186080,0.344695,0.432563,-0.306382,0.847950
0.170795,-0.115276,0.997772,-0.597597,0.331922,-0.729867
0.188900,-0.001452,-0.742203,-0.002718,0.999577,0.028968
0.412418,0.431045,0.695168,-0.051266,-0.647895,-0.760003
0.652655,-0.115331,0.685672,-0.572751,-0.804988,-0.154761
0.717377,-0.063598,0.731119,-0.207391,0.758315,-0.618019
-0.015609,0.828579,0.351128,-0.535235,0.109422,0.837586
-0.067221,0.660666,0.313840,-0.295818,-0.702093,0.647732
0.223241,-0.045020,-0.738931,-0.151805,0.987955,-0.030004
-0.330210,0.323523,0.391367,0.075927,-0.661079,0.746465
0.281791,-0.019756,0.602632,0.446180,0.367225,-0.816131
-0.232952,-0.070722,0.756990,-0.611918,-0.231952,-0.756145
0.120639,-0.651404,0.793706,0.148195,0.938632,0.311463
0.385154,-0.147335,0.567168,0.370634,0.923344,0.100332
0.061880,0.368023,0.244598,0.432228,-0.588891,0.682925
0.151995,-0.551938,0.622180,-0.638480,0.564266,0.523400
0.547902,0.203672,0.621693,0.826880,-0.160531,0.538979
0.345959,0.289546,0.704052,0.485826,0.825364,-0.287660
-0.117864,0.770324,0.468853,-0.161017,-0.003158,0.986947
-0.533679,0.044965,0.476483,0.479500,0.187696,0.857234
0.261602,0.223400,0.755472,0.165333,-0.427613,0.888714
0.125426,-0.111714,0.644974,-0.028094,0.951125,0.307525
0.104336,-0.224003,0.835408,-0.644979,-0.545553,-0.535139
-0.031633,0.208768,0.356140,-0.237029,0.494291,-0.836358
-0.240791,-0.457899,0.512016,0.762666,0.645681,0.037904
-0.256261,0.310481,0.700083,-0.564604,-0.778719,0.273530
0.128756,0.106069,0.584182,0.932763,0.191503,-0.305417
0.060908,0.295629,0.708326,0.687967,0.714639,0.126460
-0.322720,-0.504918,0.668755,-0.247885,0.909559,-0.333549
-0.423238,-0.133141,0.663617,0.148316,-0.439683,0.885822
-0.232605,0.559885,0.561334,-0.337280,-0.747322,0.572496
0.067846,-0.197369,0.716346,0.736711,-0.571284,-0.361789
0.126465,-0.064858,-0.670802,0.851135,-0.521149,0.063032
-0.332778,0.006987,0.717307,0.840518,0.465543,0.277126
-0.559209,-0.124866,0.528446,0.215752,0.141080,0.966203
0.297607,0.037950,-0.994987,-0.397890,-0.293396,-0.869254
-0.690529,-0.245595,0.590532,0.708254,0.216417,-0.671967
-0.005064,-0.434169,0.730521,-0.141713,-0.411539,-0.900307
-0.293513,-0.256611,0.740963,0.228533,0.273042,0.934463
-0.150469,0.332785,0.460471,0.188424,0.679260,-0.709297
-0.281443,-0.609206,0.599095,0.608223,-0.731819,-0.307417
0.025945,-0.045294,0.937705,-0.693888,-0.710764,-0.115472
0.819285,0.092698,0.683960,0.264657,0.759208,0.594609
-0.271593,-0.841074,0.569089,-0.551727,0.323883,0.768568
0.741381,-0.563009,0.619966,0.218994,-0.975220,-0.031437
0.256955,0.009124,0.810220,0.521164,-0.030085,0.852926
-0.501214,-0.120428,0.765915,0.925057,0.256459,-0.280175
-0.246132,0.106124,0.582804,0.861626,0.019786,-0.507158
0.263545,-0.306973,0.835310,-0.724050,-0.643533,0.248228
0.037599,-0.454665,0.615079,0.401856,0.498072,-0.768398
0.105862,0.099000,0.679908,0.114405,-0.704334,0.700589
0.212141,-0.101137,0.242899,-0.761354,0.624928,-0.172642
0.209505,0.088807,0.912907,0.665895,0.744435,-0.048990
0.342698,-0.097739,0.893066,0.299824,0.940182,-0.161751
0.230109,-0.462831,0.660666,-0.584787,0.763627,-0.273674
-0.579048,-0.243567,0.582567,0.078373,-0.622586,0.778617
0.465903,0.228223,0.562211,-0.301630,-0.181500,0.935990
-0.663267,0.612769,0.474798,0.731356,0.322697,-0.600820
-0.309329,-0.243732,0.739836,0.813922,0.566549,-0.128656
0.240791,-0.064804,0.412893,0.887788,0.459923,-0.017425
0.168366,0.029402,0.929031,-0.171046,0.163396,0.971620
-0.378424,-0.174462,0.706683,-0.210286,0.727870,0.652675
-0.348247,0.173530,0.738777,-0.285159,0.491968,0.822588
0.069235,0.195890,0.337914,-0.003423,-0.551069,0.834452
0.160944,0.093793,0.901935,0.275430,-0.464024,0.841914
-0.421434,0.085080,0.549721,-0.131379,-0.688660,0.713082
0.166078,-0.285491,0.055820,0.988012,-0.023398,0.152593
0.235797,-0.373010,0.750209,0.225290,-0.732653,0.642234
0.474228,-0.097684,0.684280,-0.509289,0.671321,0.538472
0.049393,0.053404,0.422988,-0.669718,-0.373913,0.641613
0.014430,-0.509686,0.741061,0.267283,0.857140,0.440308
-0.224973,-0.822715,0.573977,0.724141,-0.675240,-0.140249
0.442110,-0.151774,0.563715,0.352829,0.929273,0.109372
-0.089768,0.237430,0.752172,0.797750,0.224217,-0.559752
0.591120,-0.163338,0.619660,0.812752,0.572791,-0.106513
-0.445023,0.361118,0.612573,0.646421,0.762107,-0.036510
-0.101700,0.131497,0.343010,0.070262,-0.438896,0.895786
-0.182032,0.314098,0.603244,-0.064867,0.485548,0.871800
-0.024348,-0.043704,0.495572,0.069020,-0.653534,0.753743
0.271108,-0.077846,0.795377,0.887321,-0.457332,-0.059240
0.130975,-0.528319,0.733486,0.838127,-0.408298,-0.361711
0.369755,0.059050,0.806293,0.618137,-0.018612,-0.785850
0.298924,0.268502,0.762545,-0.729819,-0.059313,-0.681062
0.323414,-0.145307,0.891353,-0.455225,0.267534,-0.849233
-0.014150,-0.280778,0.710150,0.934154,-0.334856,0.123402
-0.405618,-0.271407,0.755820,-0.665012,0.746539,0.020954
0.346583,0.081847,0.760596,-0.592222,-0.804758,-0.040467
0.106349,-0.034278,0.871234,0.775500,-0.630456,-0.033541
0.188138,0.864036,0.383514,-0.055890,0.731699,0.679333
-0.125146,-0.402932,0.823601,-0.638822,-0.735154,-0.226838
0.200139,-0.059323,0.304302,0.994702,-0.051383,-0.089036
-0.216371,0.050665,0.426692,0.446207,-0.021036,0.894682
-0.151648,-0.849458,0.569799,0.547532,0.681365,-0.485748
0.136316,-0.166735,0.916959,-0.021769,-0.997202,0.071515
-0.361428,0.202575,0.764968,-0.649840,-0.459172,0.605697
0.391537,-0.348733,0.852186,-0.401154,-0.891273,-0.211444
0.126605,0.029511,0.907129,-0.531238,0.810886,-0.245456
-0.458688,-0.110508,0.595879,0.656107,-0.662920,0.360638
-0.265972,0.032690,0.494444,-0.169417,0.942982,-0.286500
-0.181407,0.552377,0.570872,0.877333,-0.142388,-0.458270
0.082068,-0.584107,0.640977,0.269752,0.747787,0.606671
0.135277,-0.103549,0.290379,0.991988,-0.082645,-0.095546
0.048144,-0.126018,0.892258,0.749695,-0.617189,0.238823
-0.372388,0.420468,0.640894,0.553157,-0.763139,0.334120
0.078113,-0.765667,0.601796,0.807401,0.589981,-0.005060
0.142282,0.226360,0.791228,0.294340,-0.869652,-0.396319
-0.581199,0.501849,0.421916,0.699835,0.707045,0.101580
0.324593,-0.307631,0.539710,0.172102,0.655491,0.735332
0.368575,-0.520702,0.694946,0.411507,0.727111,-0.549520
-0.493652,0.377339,0.635004,0.189615,-0.873166,0.449030
-0.080055,-0.191396,0.834294,0.027774,0.431437,-0.901716
0.532710,-0.028305,0.721303,-0.558802,-0.494457,-0.665772
-0.073117,-0.242307,0.911919,0.391895,0.912812,-0.114854
-0.460422,0.316783,0.595948,0.382910,0.640831,-0.665368
-0.277766,0.002329,0.431927,-0.605101,0.598539,-0.524980
-0.021575,-0.020907,0.879560,-0.648459,-0.663629,0.372957
-0.489142,-0.067598,0.772473,0.293447,0.929278,-0.224345
-0.159485,-0.387204,0.817766,0.655800,0.754934,0.000789
0.193479,-0.716838,0.678098,-0.022333,-0.999643,-0.014645
-0.511967,-0.144266,0.593665,-0.685579,0.695312,-0.215691
0.330420,-0.047267,0.925800,0.718683,0.642587,0.265662
0.134375,-0.181805,0.073085,0.989772,-0.116240,0.082697
0.227540,-0.086560,0.860916,0.003424,-0.896318,0.443399
0.104890,-0.734867,0.593344,-0.638868,-0.220372,0.737078
0.017206,-0.703740,0.644054,0.202749,0.965874,0.161184
-0.710023,-0.119112,0.484642,0.031212,0.949690,0.311633
0.004509,0.413508,0.323587,0.991195,0.062647,0.116653
0.115088,-0.164707,0.911292,0.501886,0.634788,0.587498
0.354493,0.225592,0.755806,0.944221,0.318301,-0.084450
0.233022,-0.039101,0.922347,0.927320,-0.324124,-0.187139
0.083662,-0.068858,0.630145,-0.323933,-0.802879,0.500452
0.130143,-0.227017,0.881579,-0.454768,-0.889092,0.051982
0.472494,-0.303904,0.729936,0.533771,0.375202,-0.757834
-0.057163,0.849020,0.351476,0.745245,-0.186726,-0.640112
0.343463,0.183614,0.714940,0.889148,-0.297525,0.347698
0.250642,0.082779,0.624923,-0.331744,0.585402,-0.739764
0.163787,0.000356,-0.941618,0.185346,0.975503,0.118492
-0.230316,-0.400630,0.667989,-0.099515,0.455725,0.884540
-0.067706,-0.303850,0.826622,-0.082980,0.603356,0.793143
-0.023934,0.591341,0.290518,-0.695505,-0.637375,0.331702
0.543670,-0.158131,0.711710,0.096435,-0.995161,-0.018836
-0.129586,-0.539334,0.712002,0.402233,-0.656135,0.638511
0.573916,0.279189,0.742885,0.315912,0.823547,-0.471137
-0.277141,-0.071927,0.765079,-0.302320,0.011817,-0.953133
-0.405618,-0.477901,0.712420,-0.612774,-0.014841,-0.790119
-0.276379,0.114618,0.715901,-0.085561,-0.653374,0.752185
0.012071,-0.538293,0.760220,-0.176653,-0.376192,-0.909546
-0.181547,-0.094670,0.741618,0.907086,-0.375302,0.190639
-0.083802,-0.559282,0.726148,-0.644801,0.406483,0.647305
0.503435,0.137471,0.820774,-0.001498,0.510415,0.859927
-0.333750,0.011481,0.660638,-0.597161,0.781152,0.182212
-0.093653,-0.033512,0.736591,-0.408118,0.473110,-0.780773
0.086091,-0.385669,0.480479,0.300595,0.797742,0.522734
0.160804,-0.691903,0.535157,0.664423,-0.267183,-0.697965
0.136733,-0.744294,0.673587,0.886766,0.147260,-0.438132
0.600903,-0.202137,0.615260,0.923671,0.278303,-0.263400
-0.103918,-0.550349,0.600432,-0.434363,-0.548854,-0.714204
-0.264308,-0.326702,0.739919,-0.482772,0.558610,0.674453
-0.095594,-0.070229,0.672988,-0.686657,0.187940,-0.702268
0.101630,-0.239183,0.737260,-0.483817,-0.647590,-0.588683
-0.143946,0.605754,0.361835,0.774372,0.153656,-0.613789
0.100591,-0.570242,0.744110,-0.184702,0.963146,-0.195540
-0.532847,-0.101575,0.665720,-0.476789,-0.476838,0.738443
0.079500,0.150678,0.480284,0.841726,-0.226809,-0.489954
-0.030871,0.163447,0.317140,-0.611329,0.760572,-0.218648
-0.205411,0.566625,0.421972,-0.307630,-0.811405,0.496977
0.306071,-0.715139,0.657825,0.934755,0.187384,0.301861
-0.174887,-0.617427,0.578042,-0.612122,0.790002,0.034677
0.173638,-0.272831,0.578321,0.911243,0.391032,-0.129344
0.055222,0.106124,0.745531,-0.519379,-0.674776,-0.524331
0.263753,-0.109193,0.894444,0.072405,-0.081496,0.994040
-0.239542,0.474119,0.546561,0.979374,-0.118446,0.163699
0.378286,-0.173640,0.570342,0.386177,0.918435,0.085703
-0.240097,-0.423811,0.663005,0.835681,-0.344584,0.427667
0.189109,-0.776353,0.467516,0.839742,-0.542253,-0.028189
-0.315712,-0.615783,0.595377,0.018576,-0.940979,0.337954
0.886161,0.059433,0.686912,0.632220,-0.677483,-0.375918
0.005689,-0.809453,0.084447,0.936866,-0.053936,0.345504
0.499340,-0.398986,0.561668,-0.358960,-0.742303,-0.565804
-0.008879,-0.258912,0.793456,0.897360,-0.434183,0.078931
-0.076725,0.519715,0.560345,0.406482,0.714102,-0.569940
0.021992,0.012851,0.925647,0.504102,0.397542,0.766709
0.343670,-0.227017,0.715943,0.574642,-0.149348,-0.804662
0.420882,-0.361611,0.835171,0.115069,0.976331,-0.183131
0.514533,0.068201,0.687120,0.801465,-0.279810,-0.528546
0.242387,0.371475,0.781690,0.731998,0.681071,-0.017925
-0.324106,0.198740,0.739056,-0.716375,0.691208,0.095071
0.248908,-0.130894,0.961403,0.508624,0.569452,0.645776
-0.161566,0.092643,0.334043,0.089616,-0.492412,0.865736
0.172251,-0.267461,0.562406,-0.786038,0.238949,0.570130
0.678599,-0.316235,0.634614,-0.692870,-0.142409,0.706860
-0.033992,0.539937,0.270217,0.560549,0.511076,-0.651603
0.131946,0.439321,0.255249,-0.100354,-0.820976,0.562075
0.367396,-0.364022,0.831746,0.383621,0.917994,0.100612
-0.193409,0.158460,0.714118,0.795645,-0.459880,-0.394284
0.657024,0.434772,0.747159,-0.426079,0.609825,-0.668259
0.488103,-0.064365,0.729783,0.787938,-0.460171,-0.409141
0.050780,0.066557,0.768630,0.115180,0.969373,0.216910
-0.409018,-0.579669,0.410972,-0.049800,-0.987039,0.152559
-0.630453,-0.075654,0.669897,-0.285915,-0.930386,0.229422
0.588831,-0.414385,0.557936,0.235067,0.779528,0.580585
0.198960,-0.062063,-0.104623,-0.778761,0.626063,-0.039708
0.154631,0.229319,0.773517,0.576492,0.617551,0.535059
0.015539,0.450828,0.351337,0.943697,0.330154,0.020834
0.056886,-0.001123,0.907017,0.427792,0.557896,-0.711159
0.004717,-0.072695,0.882595,0.516250,0.201884,-0.832303
0.036697,-0.536868,0.753369,0.401556,0.697783,0.593171
0.198406,-0.122181,0.377374,0.835489,0.545820,-0.063546
0.771280,-0.154569,0.670315,0.345182,0.667739,-0.659526
0.067568,0.223126,0.304762,0.999504,0.030845,0.006311
-0.028233,-0.575777,0.763088,-0.351065,0.237512,0.905727
-0.041277,-0.026661,0.735088,-0.050385,-0.252708,0.966230
0.107388,0.119934,0.562155,0.858622,-0.180736,0.479691
-0.263961,0.282861,0.735840,0.305094,0.882872,0.357009
-0.273604,0.280614,0.382038,0.385092,-0.629252,0.675090
-0.293235,-0.083491,0.495851,0.446999,0.659721,-0.604119
-0.047103,-0.787313,0.600459,-0.723857,0.475522,-0.499909
0.179466,-0.262912,0.798023,0.250366,0.870046,0.424660
-0.582518,-0.597370,0.523434,0.214062,0.180778,0.959946
0.071106,-0.188601,0.695461,0.559675,-0.555196,-0.615240
-0.150606,0.628333,0.445141,-0.208072,-0.440877,0.873117
0.200764,0.084039,0.390852,0.965459,-0.255740,0.049861
-0.527853,0.103549,0.476246,0.173354,0.225569,0.958680
-0.309746,0.214522,0.759677,-0.179732,0.594814,0.783513
0.244052,0.066119,0.730437,-0.576002,0.669492,0.469043
-0.291918,0.453405,0.556516,0.885356,0.227546,0.405422
0.172528,0.102233,0.902283,-0.504036,0.788852,-0.351653
0.153869,-0.090286,0.921735,-0.240270,-0.727968,-0.642132
0.154770,0.412686,0.668142,0.680263,-0.730754,-0.056927
0.360111,-0.333991,0.830952,0.813966,-0.526232,-0.246046
0.032190,-0.909248,0.550766,-0.104627,0.108996,0.988521
0.262089,-0.690917,0.648162,0.736957,0.620260,-0.268647
-0.120569,-0.491382,0.515790,-0.220747,-0.969433,-0.107100
-0.187373,-0.364406,0.698607,0.279259,0.562653,-0.778098
-0.250155,0.300397,0.247020,-0.142941,0.065250,0.987578
-0.165521,0.239129,0.354093,0.406827,-0.380467,0.830504
0.445370,0.259186,0.721052,0.068243,-0.174827,0.982231
-0.650711,0.562734,0.411264,0.961147,0.237368,-0.140903
-0.279430,0.135553,0.739905,0.659585,0.275880,0.699169
0.250572,-0.116865,0.528209,0.207602,0.870328,-0.446576
0.143046,-0.082230,0.332303,-0.316730,0.947552,0.042742
0.316129,-0.089190,0.846491,0.218582,-0.483545,-0.847588
-0.474505,-0.095493,0.776399,0.181616,0.982328,-0.045239
0.073327,0.058994,0.838165,0.154928,-0.634634,0.757125
-0.275198,-0.503055,0.675480,0.768234,0.107628,0.631057
0.253348,0.353829,0.777081,0.832630,0.550344,-0.062037
0.219216,-0.069297,-0.527179,-0.220554,0.973905,-0.053529
-0.712658,-0.115002,0.525188,0.439408,-0.897002,-0.048049
0.014777,-0.130072,0.665455,-0.600645,-0.588250,-0.541468
-0.780921,-0.311686,0.461014,0.252765,0.958206,0.133982
-0.332638,-0.017893,0.678906,0.419147,-0.886278,0.197044
0.027334,-0.547883,0.604971,-0.429806,0.371302,0.823044
0.471245,0.052363,0.849986,0.079436,-0.921401,-0.380408
0.460077,0.037677,0.858326,-0.492052,0.088234,0.866083
-0.039750,-0.194903,0.874909,-0.668299,-0.661126,0.341012
0.228720,-0.267845,0.033988,0.996416,0.073199,-0.042388
0.281236,-0.049678,0.896157,0.436275,0.618702,-0.653355
-0.098507,0.688340,0.367043,-0.314465,0.632763,-0.707617
0.540202,0.127935,0.685129,-0.728922,-0.333248,0.598012
-0.016996,-0.520263,0.735213,0.586480,0.707866,0.393659
0.363926,0.062392,0.846059,0.044378,-0.429922,0.901775
0.124037,-0.340677,0.450473,0.064917,0.895646,0.440004
-0.419493,-0.084532,0.664842,-0.554887,-0.393918,-0.732755
0.262851,-0.354432,0.927179,0.959032,0.095290,0.266790
0.446897,-0.290587,0.768045,-0.066119,0.794168,0.604090
-0.212001,-0.306809,0.724673,0.897426,-0.396960,0.192482
0.803331,-0.221921,0.649373,-0.447737,0.575176,0.684620
0.530419,0.185806,0.698064,0.845653,0.481971,-0.229294
-0.300658,-0.723743,0.570036,0.919698,0.381603,-0.092380
0.099411,0.183450,0.829226,-0.655182,-0.137593,0.742836
0.572667,0.032909,0.817404,-0.636059,0.633690,0.440302
-0.146861,-0.028469,0.850780,0.285651,-0.374169,0.882270
-0.000207,-0.701931,0.615037,0.882320,-0.455778,0.117377
0.298092,-0.594136,0.759677,-0.343630,0.799765,0.492234
0.243912,0.351253,0.785519,0.599539,0.739762,-0.305460
-0.187791,-0.081024,0.759566,0.797866,-0.099897,0.594500
-0.274019,0.397561,0.569159,0.791285,-0.607863,0.066110
0.181755,-0.100973,0.147967,-0.424641,0.905362,-0.000714
-0.366632,-0.326209,0.614244,0.400072,-0.578638,0.710719
0.090947,0.155117,0.208633,0.083634,-0.391742,0.916266
-0.420465,-0.501520,0.713979,0.724413,-0.419819,0.546790
0.154770,-0.003315,0.319465,0.371787,-0.055140,0.926679
0.043982,-0.860748,0.550654,-0.575402,0.774783,-0.261961
0.189941,-0.003315,0.045725,0.974149,-0.087159,-0.208417
0.226848,-0.050665,-0.833347,0.558505,0.829395,0.013273
0.970101,-0.494451,0.367418,0.401336,0.897525,-0.182698
0.053555,0.303028,0.709440,0.720977,0.683217,0.115790
-0.578424,-0.034772,0.633055,0.772460,0.615468,-0.156537
0.177523,-0.369447,0.866736,-0.433496,-0.763050,-0.479412
-0.371556,-0.701274,0.591312,0.962276,0.196572,0.188105
-0.647728,0.553473,0.470704,-0.417729,-0.545209,0.726808
-0.296913,-0.072585,0.748162,-0.185171,0.811545,0.554172
0.197641,-0.009015,-0.780827,-0.205135,0.976231,-0.069948
0.042041,0.373558,0.702256,0.737613,0.275888,-0.616289
0.246965,-0.003590,0.913562,-0.119832,-0.196789,0.973095
-0.122163,-0.572435,0.612183,0.445262,-0.894531,-0.039451
-0.376620,-0.150350,0.750724,-0.564781,0.805923,-0.177512
-0.497467,0.374106,0.405207,0.257443,-0.766229,0.588741
0.210197,-0.123277,-0.986717,0.024922,-0.121906,0.992229
-0.114603,-0.090670,0.343985,-0.457218,0.810610,-0.365875
-0.506346,-0.096040,0.771958,0.980862,0.094319,-0.170332
-0.170862,-0.758761,0.669368,-0.451169,0.441447,0.775610
-0.130210,0.486395,0.583319,0.542606,0.680034,0.493084
-0.034269,0.726702,0.343261,0.944787,0.250241,-0.211559
0.017206,0.405069,0.324144,0.014390,-0.903751,0.427816
0.238363,0.005233,0.877806,0.410875,0.659186,-0.629806
-0.115850,0.131716,0.343400,0.121901,-0.458036,0.880536
-0.313908,-0.041732,0.401197,0.742076,-0.128566,-0.657871
-0.399792,-0.209810,0.753453,0.971135,0.156901,0.179661
-0.133680,0.250144,0.735116,-0.279018,0.943856,-0.176875
0.265557,-0.191341,0.509705,0.651851,0.736534,-0.180579
0.306556,-0.573311,0.759022,-0.381060,0.890095,0.250049
0.484149,-0.411426,0.704400,-0.885834,0.460027,-0.060607
-0.147831,0.157090,0.721874,0.351101,-0.236692,0.905928
0.197781,-0.290807,0.838805,0.339627,-0.925473,0.167790
0.365938,-0.003754,-0.999708,0.393859,0.164224,0.904381
0.151301,-0.066173,0.535199,0.669465,0.110180,0.734627
-0.555809,0.398493,0.428335,-0.088137,-0.714704,0.693851
-0.156502,0.324291,0.460387,0.188424,0.679260,-0.709297
0.357961,-0.046993,-0.990810,-0.354142,-0.111830,-0.928481
-0.115920,-0.332182,0.790894,0.311464,0.451507,0.836141
0.019771,-0.363968,0.714578,0.520592,0.363957,0.772346
0.150121,-0.609809,0.635825,-0.152712,0.789722,0.594153
-0.354838,-0.131662,0.735227,0.050828,0.280515,0.958503
0.122720,-0.081902,0.952562,0.523826,0.798139,0.297625
0.201249,-0.035375,0.418505,0.637955,0.752133,0.165254
0.114256,-0.061241,0.978432,0.199142,-0.974906,-0.099499
-0.169893,-0.042225,0.726288,-0.122290,-0.972302,-0.199182
-0.199445,0.214522,0.596658,0.877101,-0.412484,0.246069
0.433298,-0.017071,0.863395,-0.592316,0.657635,-0.465487
-0.398820,0.002823,0.610011,0.037937,-0.992019,0.120245
0.590150,0.265981,0.740448,0.006538,-0.881249,0.472607
0.320084,-0.490067,0.738708,-0.380988,0.870685,0.311057
0.272010,0.304288,0.812100,0.965611,0.005149,-0.259941
0.050435,-0.494889,0.318922,0.977175,-0.154323,0.145994
0.676448,-0.543444,0.604971,-0.109319,0.327111,0.938641
-0.687686,0.298753,0.391075,0.056949,0.487094,0.871491
0.190913,0.033237,0.886146,-0.368511,0.857980,-0.357868
-0.223933,0.379970,0.570050,0.493117,-0.542750,0.679896
0.296498,-0.065351,0.890198,0.347597,0.789408,-0.505975
0.089351,-0.190684,0.911988,-0.423278,-0.903111,0.072295
-0.214290,0.396848,0.606419,-0.398346,-0.422886,-0.813933
0.282138,-0.248061,0.518324,0.292807,0.677666,0.674561
0.098232,-0.649706,0.786424,0.070398,0.956233,0.284011
-0.089558,-0.359474,0.789877,0.725818,0.632503,0.270423
0.414291,-0.102562,0.864202,0.917254,-0.065105,-0.392946
0.089006,0.010440,0.823461,0.461632,0.240949,0.853721
-0.044744,0.298753,0.469604,-0.501093,-0.716986,0.484600
-0.363649,0.051870,0.571804,0.501168,0.792843,0.346743
0.612625,-0.223784,0.654483,-0.709644,0.167071,0.684465
-0.242038,-0.177038,0.727541,0.761399,-0.600502,0.244272
-0.553798,0.344348,0.400195,-0.450380,0.665562,0.595135
0.184877,-0.147007,-0.082442,0.873541,-0.486737,0.003587
0.677488,-0.570242,0.605263,-0.082735,0.723402,0.685452
0.046340,0.793725,0.349499,0.791771,-0.179628,-0.583809
0.242455,0.202137,0.724185,-0.294118,-0.811490,0.504954
0.143393,-0.872092,0.602896,-0.477536,-0.722197,0.500391
-0.101213,-0.936977,0.556822,0.237728,0.931426,-0.275557
-0.423238,-0.082011,0.754720,0.427431,-0.767657,0.477499
0.402150,0.268721,0.724227,0.800513,0.122010,0.586765
-0.442525,-0.159557,0.729783,0.874250,0.317997,0.366832
0.268957,-0.160104,0.893873,0.135876,0.636083,0.759563
-0.003260,-0.870448,0.587399,0.045532,-0.644239,0.763468
0.648630,-0.559282,0.637747,0.020274,-0.995936,0.087747
-0.183141,0.413289,0.514467,0.997379,0.048045,-0.054098
0.157753,0.182956,0.738234,-0.558014,0.787937,0.260339
-0.314603,0.149417,0.622640,-0.210690,0.058511,-0.975800
-0.107111,-0.029949,0.876260,-0.076366,-0.996941,0.016654
0.201526,-0.084532,0.452325,-0.376728,-0.885638,-0.271515
-0.457579,-0.401397,0.210512,-0.684036,0.729442,0.003021
-0.420465,-0.034772,0.461222,0.044469,0.993324,0.106443
-0.120360,0.121797,0.778836,-0.838645,0.446249,-0.312308
0.760875,-0.297547,0.639710,0.508921,0.108543,-0.853943
0.017343,0.373065,0.322696,0.972670,-0.011496,0.231905
-0.245855,-0.874613,0.571651,-0.457830,0.875406,0.155102
0.076380,0.052089,0.927903,-0.020476,-0.924277,0.381172
0.218454,0.032909,0.811612,0.471253,0.856986,-0.208557
0.093930,-0.517906,0.498552,0.258421,0.748852,0.610278
0.156018,-0.458337,0.728516,-0.490307,0.692898,-0.528669
0.037669,-0.390985,0.719660,0.719107,0.649616,0.246748
-0.706972,-0.332566,0.447020,0.301338,-0.508502,0.806611
0.395629,-0.222907,0.693665,0.812022,-0.562645,0.155086
0.487616,0.036361,0.679797,-0.714367,0.295701,0.634225
0.646132,-0.113577,0.723392,0.127234,-0.808019,-0.575253
-0.338951,-0.503658,0.578738,0.756892,0.612026,-0.229213
0.561013,-0.534183,0.536717,0.731813,-0.266344,-0.627304
-0.344849,-0.093958,0.786243,0.769028,0.454887,0.449081
-0.472354,-0.038499,0.683654,-0.517005,-0.177745,-0.837325
0.061672,-0.048856,0.888388,0.235748,-0.816362,0.527234
0.123205,-0.047047,-0.713158,-0.368436,0.927695,0.060301
0.210822,-0.074229,-0.820148,-0.291125,0.956423,0.022404
-0.119250,0.783587,0.463019,-0.362971,0.008317,0.931763
-0.308497,0.033128,0.462865,0.434628,-0.807661,-0.398475
-0.392437,0.291081,0.381955,-0.057897,-0.728652,0.682433
-0.344015,-0.528209,0.694806,-0.574123,-0.409867,-0.708796
-0.186124,-0.636662,0.633542,0.380092,-0.124823,0.916487
-0.248004,0.649595,0.589265,-0.095767,-0.548573,0.830600
-0.097605,-0.007645,0.874269,-0.582340,0.168786,0.795230
0.366632,-0.487107,0.745753,-0.705417,0.658225,0.262919
0.364828,-0.556925,0.766820,-0.098985,0.894680,0.435603
0.837947,-0.295081,0.653383,0.390576,0.719702,-0.574003
0.061810,-0.514125,0.724589,-0.295418,0.229815,0.927315
0.089213,-0.119112,0.779504,0.025781,-0.372082,0.927842
-0.414429,-0.247458,0.730716,0.923955,-0.324643,0.202272
0.406729,-0.304343,0.730228,-0.088547,-0.624356,0.776105
-0.470135,0.312289,0.634586,-0.673675,0.387860,-0.629068
-0.264100,-0.381230,0.751671,0.033033,0.439110,0.897826
-0.157544,0.044143,0.421999,-0.571317,-0.110113,-0.813309
0.040305,0.127223,0.697772,-0.405167,0.822967,-0.398202
0.163927,0.094999,0.828557,0.603508,0.776257,0.182216
0.665696,-0.241979,0.622779,0.882805,0.105076,-0.457837
-0.855775,-0.165420,0.530716,0.153525,-0.984016,0.090236
-0.162191,0.482833,0.491813,0.424484,0.665206,-0.614259
0.320709,-0.480641,0.732317,-0.112274,0.850866,0.513247
0.131182,-0.520865,0.752576,-0.203355,0.954898,0.216370
-0.271036,0.199671,0.560109,0.016792,-0.872469,0.488381
0.195560,-0.055870,0.915873,0.751678,-0.397311,0.526425
0.262504,-0.216879,0.752186,0.648884,0.525126,-0.550628
-0.387165,-0.209645,0.754288,0.982066,0.121228,0.144394
-0.011862,0.086451,0.764745,0.293958,0.943157,0.155058
-0.039958,0.079490,0.879630,-0.895987,0.443649,-0.019557
-0.063129,0.125360,0.342606,0.177639,-0.264535,0.947874
0.177802,-0.780189,0.675035,-0.642341,0.660026,0.389569
-0.511897,-0.515714,0.726622,0.845743,0.426071,0.321220
0.664794,0.132429,0.664132,-0.157310,-0.338028,-0.927896
-0.316961,0.002877,0.653843,-0.767418,0.546762,0.334845
0.712313,-0.313331,0.632359,-0.453696,-0.120770,0.882935
-0.102949,0.648061,0.450738,0.364512,-0.605612,0.707364
0.329448,-0.017016,0.927165,-0.563204,-0.475801,0.675584
-0.069025,0.443814,0.389195,0.856263,-0.140988,0.496927
0.190219,-0.424414,0.726427,-0.093311,-0.994785,-0.041189
-0.056746,-0.011645,0.892049,0.122030,-0.852817,0.507752
0.435450,0.083820,0.660415,0.903317,0.284126,-0.321388
0.011585,-0.451267,0.736967,-0.393437,0.357475,-0.847006
0.283732,-0.045458,-0.982749,-0.481130,0.223357,-0.847718
0.371002,-0.300835,0.779852,-0.267025,0.923164,0.276524
0.672009,-0.074010,0.735561,0.291322,-0.194772,0.936587
-0.000415,-0.078230,0.772863,-0.431246,-0.831458,-0.350292
-0.138050,-0.145307,0.849150,-0.059557,-0.595612,0.801061
0.821990,0.124538,0.670092,0.354294,0.813494,0.461197
0.184670,0.011974,0.867140,0.808077,-0.417142,0.415938
-0.253208,-0.476860,0.674742,0.032541,-0.672677,0.739220
-0.244259,0.481628,0.409997,-0.006130,-0.162621,0.986670
-0.185500,0.011426,0.507964,0.195395,0.912970,0.358200
-0.291501,0.222743,0.761877,-0.325218,0.311166,-0.892978
0.087410,-0.159282,0.501197,-0.744188,0.609447,-0.273420
0.008257,-0.218962,0.887093,0.867582,-0.497050,-0.015565
-0.252029,0.276833,0.711793,0.969118,0.133170,-0.207550
0.176623,0.293163,0.747591,0.890425,-0.430380,0.148043
0.484773,-0.442883,0.587496,0.508427,0.840344,0.187946
0.203192,-0.020414,-0.683069,0.881527,-0.470602,0.038001
-0.252306,-0.344568,0.669326,-0.081768,-0.689834,0.719336
-0.110926,0.034662,0.420050,0.206688,-0.610836,0.764303
0.077974,-0.091437,0.786355,-0.226651,0.705148,-0.671860
0.218314,-0.053679,-0.436995,0.238425,0.970288,0.041168
-0.144918,0.327908,0.573698,-0.569239,0.164122,-0.805625
0.625458,-0.086834,0.709148,-0.603742,0.463924,0.648282
-0.580644,0.660556,0.500445,0.606856,0.546168,-0.577430
0.537841,-0.444527,0.567432,0.313059,0.842898,0.437626
-0.087270,0.070886,0.521749,0.405998,-0.330798,0.851903
0.184183,0.212056,0.735491,0.747731,0.573704,-0.334308
0.285398,-0.290478,0.894486,0.994185,0.021054,-0.105605
-0.541656,0.063160,0.614843,0.159757,0.134054,-0.978012
0.286647,0.256117,0.557240,-0.355179,0.092503,0.930210
-0.424627,-0.046281,0.492913,-0.217370,0.879495,0.423365
0.262227,-0.021126,0.823141,0.082773,0.911130,0.403722
0.259244,-0.250473,0.877040,-0.110999,0.687812,0.717352
0.042595,0.917523,0.366318,-0.559191,-0.616001,0.554841
0.134860,-0.766489,0.670384,0.799234,0.492745,-0.344134
-0.177800,0.103658,0.779546,0.932398,0.295299,0.208406
0.536802,-0.138457,0.746477,-0.182129,0.517759,0.835916
-0.472007,0.400356,0.641785,0.102166,-0.993784,0.044210
-0.357406,0.654035,0.595586,-0.195173,-0.605388,0.771630
-0.264238,0.298205,0.740253,0.289111,0.882932,0.369927
0.794727,-0.151117,0.682136,0.548807,0.609466,-0.572156
-0.294137,0.387916,0.478014,0.827264,0.117045,-0.549485
0.176483,-0.134676,-0.256948,0.586846,-0.809555,0.015229
0.060770,-0.178298,0.941228,0.876520,-0.478521,-0.052250
0.108775,-0.383148,0.063186,0.912524,-0.035531,0.407477
-0.139646,-0.555556,0.723545,-0.612348,0.752945,0.241047
0.263683,-0.385176,0.871832,-0.574104,-0.662132,-0.481650
-0.309329,0.221976,0.456962,-0.081995,-0.359104,0.929689
-0.640304,-0.016633,0.682191,-0.249810,0.798382,0.547888
0.467500,-0.432689,0.562336,0.404232,0.856802,0.320137
-0.682344,-0.267790,0.582595,0.783315,0.381618,-0.490699
-0.486714,0.486505,0.445739,0.246536,-0.628898,0.737365
-0.285188,0.449240,0.531370,0.158142,0.716266,-0.679672
-0.210058,-0.161145,0.845475,0.659502,-0.746438,-0.088805
-0.273604,0.222414,0.737691,-0.040235,-0.763183,0.644928
0.311827,0.001726,0.933013,0.987011,0.110749,-0.116377
-0.367949,-0.346650,0.786731,0.338625,0.840888,0.422185
0.114118,0.009070,0.533069,0.884847,-0.058911,-0.462142
-0.213942,0.578517,0.579142,0.534036,-0.079541,0.841712
0.381339,-0.578627,0.513269,-0.344634,0.902014,0.259997
-0.018452,0.606905,0.430214,-0.391261,0.466242,-0.793431
-0.579950,0.510070,0.440504,-0.258459,-0.814867,0.518836
0.233854,-0.080751,0.931676,0.791667,-0.172918,0.585972
-0.277766,-0.640718,0.638109,0.219675,0.957520,0.186812
0.759209,-0.025784,0.731092,-0.561901,-0.246994,0.789469
-0.267638,0.190574,0.607755,-0.113072,0.152854,0.981759
0.654666,-0.190848,0.649582,0.340440,0.846534,-0.409244
0.332778,-0.282861,0.819827,-0.245578,0.555506,0.794421
0.653694,0.092368,0.682150,-0.201667,0.709964,0.674745
0.593063,-0.543006,0.608661,0.971451,-0.152321,-0.181884
0.726604,-0.255898,0.633319,0.698509,0.012850,-0.715486
0.408186,-0.307906,0.785366,-0.169771,0.447705,0.877917
-0.116407,0.386765,0.578084,0.744950,-0.395331,0.537366
-0.282413,0.289766,0.766416,0.719586,0.407360,-0.562364
-0.020396,-0.369228,0.806739,-0.630341,0.596565,0.496769
-0.263613,0.148760,0.672932,0.888899,-0.260781,-0.376631
-0.560111,-0.183176,0.707839,0.021329,0.840128,0.541968
0.452723,-0.614084,0.551573,-0.446207,0.310921,0.839183
0.084634,-0.125469,0.616680,-0.209894,0.971112,-0.113515
-0.737633,-0.349336,0.572333,0.572402,0.081958,-0.815867
-0.164551,-0.271078,0.830660,0.962875,0.262084,0.064688
-0.159972,-0.136046,0.279588,-0.538878,0.547894,-0.639861
0.165730,-0.064255,-0.018449,0.986638,-0.108387,0.121644
-0.669718,0.487053,0.403982,0.955180,0.172629,0.240481
-0.376066,0.316619,0.386564,-0.149230,-0.722206,0.675388
0.729517,-0.137526,0.672556,-0.119056,-0.885252,0.449615
-0.523759,-0.057350,0.632804,0.964037,0.261678,0.046457
0.182172,-0.126072,0.957672,-0.126236,-0.881843,-0.454331
-0.181270,-0.784409,0.574561,0.035176,0.997547,-0.060516
-0.005064,-0.263680,0.774074,0.129844,0.360250,0.923775
-0.126812,-0.171996,0.850738,-0.707395,0.443180,0.550621
-0.494137,0.009892,0.673823,-0.170749,-0.860188,0.480542
0.626847,-0.105686,0.708716,-0.614212,0.193919,0.764944
0.447521,-0.139279,0.679226,0.452116,-0.474351,-0.755369
0.144086,0.147445,0.896408,0.888432,-0.397304,-0.229864
0.287826,-0.135115,-0.990142,0.217343,-0.216298,0.951828
-0.167672,0.212659,0.744806,-0.538572,-0.182264,0.822630
-0.012971,-0.324510,0.816694,0.752890,-0.008942,0.658085
0.419563,-0.267571,0.528878,0.402814,0.693158,0.597723
-0.254594,-0.581313,0.679630,0.852861,0.405877,0.328470
0.184183,-0.019975,0.958104,0.801421,0.492971,0.338681
-0.163857,-0.254583,0.623447,-0.633886,0.746417,-0.202611
-0.373013,0.499438,0.525230,0.779575,0.496550,0.381707
-0.447659,-0.498288,0.726260,-0.579890,-0.634821,-0.510617
-0.297675,-0.277874,0.738053,0.493338,0.197452,0.847131
0.436351,-0.333223,0.727555,0.370996,0.533617,-0.760010
-0.621851,0.526839,0.418184,0.966461,0.238624,-0.094928
-0.342836,0.134895,0.720732,-0.608942,0.109430,-0.785630
-0.686923,0.090944,0.490936,-0.533662,-0.171751,-0.828074
-0.218661,0.244225,0.711626,0.861094,0.390496,-0.325623
-0.290669,-0.093903,0.699081,-0.482078,0.797807,-0.362083
0.113354,-0.062119,0.920955,0.286314,0.875398,0.389489
0.261534,0.308125,0.799025,0.920796,-0.337214,-0.196014
-0.064585,-0.263242,0.785032,0.847305,-0.512879,0.137951
0.088104,-0.200384,0.327221,-0.521801,-0.199128,-0.829501
0.041764,-0.254309,0.705653,0.874704,0.204160,-0.439559
-0.013181,-0.236114,0.899276,0.994881,0.002136,0.101031
0.034549,0.343691,0.312114,-0.305050,0.579576,-0.755669
-0.836003,-0.047979,0.652088,0.328600,-0.911210,0.248434
-0.508427,-0.045951,0.679184,-0.590426,-0.550530,-0.590181
0.755601,-0.253596,0.661069,0.728448,0.593854,-0.341614
-0.231008,-0.864639,0.551921,-0.026900,-0.340123,0.939996
-0.004856,-0.250034,0.902144,0.892697,0.449923,-0.025706
0.061187,0.239293,0.221791,-0.160948,-0.486705,0.858612
-0.947069,-0.033073,0.490031,0.161921,0.831184,0.531897
0.649879,-0.364954,0.376525,0.352508,0.935595,-0.019985
-0.047380,-0.215181,0.895823,0.818572,-0.569342,0.076090
0.571418,-0.206576,0.584001,0.666613,0.697079,-0.264022
-0.335483,-0.436799,0.696853,-0.604821,-0.714967,0.350734
0.212279,0.131716,-0.993985,0.045759,0.701244,0.711451
-0.530836,0.321825,0.425926,-0.729547,-0.159641,0.665038
-0.017690,0.512481,0.346157,0.785039,0.096123,-0.611943
0.355462,-0.362597,0.698816,-0.002281,-0.807538,0.589811
0.549358,0.073572,0.852645,-0.083486,0.974377,0.208851
0.511967,0.185477,0.701699,0.809349,0.451411,-0.375742
0.302879,-0.327908,0.790337,-0.603467,-0.711700,-0.359597
0.119528,-0.089739,0.973823,0.885122,0.258256,0.387122
-0.017898,-0.633046,0.757031,-0.301293,0.455971,0.837444
0.053903,-0.054391,0.914634,0.784559,0.565039,0.255338
-0.063476,-0.001562,0.882233,-0.541671,0.778048,0.318172
0.745820,0.336841,0.711793,-0.551376,0.824364,-0.128096
0.085536,-0.618249,0.771749,0.871893,-0.489441,-0.015796
0.539993,-0.417674,0.553300,0.591927,0.756258,0.278741
0.130073,0.171393,0.808424,0.600372,0.712758,-0.362671
-0.260978,0.510454,0.552701,0.444183,0.414217,-0.794434
0.106209,-0.086560,0.625759,-0.010342,0.999617,-0.025662
0.136248,-0.056309,-0.872640,0.597967,0.801379,0.015045
-0.870829,0.056473,0.636396,0.888444,0.235491,-0.393968
0.329170,-0.389889,0.718017,-0.082430,0.723449,0.685439
0.353244,0.330264,0.771067,-0.179012,-0.950037,0.255702
0.164067,-0.081737,0.079880,0.962709,-0.252827,0.096275
0.054458,-0.132374,0.455750,-0.368539,0.735594,0.568401
-0.079360,-0.313988,0.764467,0.796181,-0.510729,-0.324426
0.446757,0.192328,0.568365,-0.404036,-0.197932,0.893072
0.141937,0.365337,0.537636,-0.500669,-0.616965,-0.607194
0.158168,-0.076257,0.705235,-0.195997,0.779945,-0.594367
0.146791,-0.072201,0.263715,0.978683,-0.176553,0.104926
0.008047,-0.620880,0.750348,-0.146589,0.775087,0.614615
-0.252306,-0.218249,0.734962,0.455328,-0.174771,0.873002
0.049323,-0.087601,0.710429,0.462602,-0.511952,0.723812
-0.241761,0.160378,0.790713,0.490754,0.785360,-0.377319
-0.004787,0.344020,0.309983,0.093694,-0.644222,0.759078
-0.353798,-0.373777,0.687023,-0.083161,0.560112,0.824232
0.081096,-0.084313,0.905291,0.945765,0.092209,-0.311491
0.341312,0.142677,0.631370,0.269316,-0.331864,-0.904066
-0.112313,-0.070667,0.727207,-0.479582,0.876550,-0.040755
-0.548524,0.010495,0.659273,0.096428,0.738212,0.667642
0.305862,-0.289656,0.402005,0.518485,0.682833,0.514697
-0.096773,0.133306,0.761696,-0.705096,0.318979,-0.633318
-0.210960,0.486614,0.561334,0.952944,0.299145,-0.049088
0.650851,-0.674421,0.612058,0.877426,0.424518,0.223401
0.092681,0.150295,0.845015,0.966711,0.241749,0.083825
0.360249,-0.526675,0.745099,0.726344,-0.083633,-0.682225
0.527646,0.062447,0.821080,0.208098,0.913809,-0.348780
-0.104543,-0.680285,0.176357,-0.646913,-0.418153,0.637692
-0.240791,0.407809,0.242607,-0.474545,0.264456,0.839565
0.318973,-0.396685,0.644862,-0.715809,0.369519,0.592515
-0.617204,0.518564,0.436480,0.437630,-0.893957,0.096545
-0.085744,-0.504589,0.727332,-0.535335,0.448690,0.715607
0.180021,-0.050775,-0.305695,-0.456795,0.887418,0.061869
-0.734581,-0.144595,0.500682,0.977192,0.190372,0.094099
-0.014083,-0.143609,0.907588,0.706188,-0.699627,-0.108723
-0.050155,0.986573,0.364049,-0.719016,-0.647492,0.252528
0.493652,-0.623784,0.543316,-0.063858,0.406963,0.911210
-0.214152,0.368023,0.596449,0.216637,0.717080,0.662469
-0.110439,-0.577038,0.704442,-0.486830,0.872957,-0.030720
0.224767,-0.159282,0.945878,0.331604,-0.817935,0.470129
0.028026,0.123606,0.726483,0.371395,0.879793,-0.296699
-0.322650,0.474229,0.407129,-0.084559,-0.052389,0.995040
-0.425182,-0.266914,0.300097,-0.694721,0.718909,-0.023080
-0.031079,-0.736347,0.613617,-0.743802,0.488650,0.456048
1.000000,-0.461734,0.369730,0.368536,0.757079,-0.539455
0.199237,0.010714,0.756948,0.852452,-0.428436,0.299613
0.249810,-0.310810,0.627444,0.922808,0.079588,-0.376951
-0.353521,-0.637703,0.582888,-0.539906,0.710502,-0.451317
0.014430,0.460693,0.619577,-0.773733,0.590241,0.230114
0.474575,-0.070283,0.886856,-0.005342,0.999837,0.017231
0.512452,-0.608220,0.229894,-0.154649,0.200452,0.967421
0.239265,-0.281052,0.889404,0.870511,0.278375,0.405855
0.166078,-0.044362,0.344180,-0.668033,0.733500,0.125336
0.104128,-0.216495,0.944876,0.656084,0.586935,0.474406
-0.198958,-0.081737,0.747619,0.969037,0.153120,0.193706
-0.417065,0.376243,0.638151,0.354203,-0.905158,0.235009
-0.591814,0.111768,0.480354,0.208533,0.364870,0.907405
0.658203,-0.501520,0.577527,-0.562442,0.626889,0.539137
0.304058,-0.491766,0.731189,0.131573,0.906389,0.401431
-0.448698,0.039485,0.681133,0.732854,-0.412491,0.541088
-0.201456,-0.311413,0.503328,-0.820140,-0.043342,-0.570519
0.053138,0.139389,0.882943,-0.679164,-0.732726,0.043000
-0.206520,-0.830661,0.559719,-0.128510,-0.892652,0.432039
0.214707,0.398219,0.787483,0.600315,0.792907,-0.104501
-0.026014,0.705165,0.367906,-0.776111,0.586898,0.230656
0.106417,-0.033402,0.284113,0.889056,-0.205650,0.409007
-0.338951,0.318153,0.250237,0.165660,-0.069377,-0.983740
-0.063406,-0.218140,0.750919,0.186278,-0.852109,0.489092
-0.495386,-0.076202,0.773712,-0.509710,0.796681,0.324800
0.181477,-0.245321,0.932902,0.839018,0.514828,0.176069
-0.510995,0.409672,0.419939,0.161775,0.325548,0.931583
-0.459938,0.341280,0.618240,0.902084,0.142753,0.407267
-0.494969,-0.603178,0.519785,0.216476,0.818026,-0.532889
-0.256261,0.442280,0.536633,0.133191,-0.988179,-0.075916
0.505099,0.085080,0.833709,0.320694,0.936812,-0.139782
-0.235310,-0.526784,0.675522,-0.218625,-0.619609,-0.753849
-0.128616,0.501959,0.242453,-0.470899,0.423806,0.773720
0.124732,-0.112262,0.844528,-0.074366,0.996696,0.032666
-0.165868,0.801562,0.454163,0.616656,0.396564,-0.680053
-0.499548,-0.147061,0.576845,-0.635826,0.653542,-0.410619
-0.681165,-0.252445,0.582929,0.761732,0.283223,-0.582709
0.138259,-0.253104,0.543762,-0.314502,0.431435,0.845549
0.186334,-0.112043,0.943038,0.496980,0.858768,0.124613
0.485258,-0.523770,0.693929,0.822370,-0.429328,-0.373342
-0.550121,0.046062,0.678683,0.289164,0.710417,0.641632
-0.135414,-0.407973,0.681997,0.789822,0.612232,-0.036779
-0.027541,-0.043759,0.868644,-0.227864,-0.824769,0.517527
-0.324938,0.598246,0.444319,0.310750,0.820278,-0.480185
0.031496,-0.207015,0.507853,0.784834,-0.593881,-0.177034
0.662296,-0.144101,0.722988,-0.177257,0.690618,0.701161
0.031910,0.011043,0.922863,0.236446,0.329967,0.913901
0.274298,0.223675,0.737441,0.290661,0.606241,-0.740262
-0.025043,0.277436,0.293679,-0.479785,-0.472687,0.739170
0.475130,-0.311522,0.804316,0.465314,0.882488,-0.068535
0.449462,-0.089245,0.780911,0.195515,-0.675641,0.710833
-0.316961,0.656829,0.597897,-0.234576,-0.583113,0.777788
-0.490877,-0.336951,0.210192,-0.684036,0.729442,0.003021
0.796186,-0.346376,0.643609,-0.161466,-0.887590,0.431407
-0.751924,-0.165255,0.522166,-0.404249,0.867187,-0.290808
0.321955,-0.511495,0.705778,0.392338,-0.918896,0.041251
-0.283315,0.437128,0.238374,0.513244,-0.040165,-0.857303
-0.392994,0.128593,0.612573,0.917613,-0.128656,0.376076
0.156642,0.088478,-0.997424,-0.146530,0.491373,0.858535
-0.548941,0.071928,0.638290,-0.537301,-0.545209,-0.643471
0.110579,0.456583,0.467961,-0.500903,0.766628,0.401717
-0.319320,-0.507274,0.690128,-0.106287,-0.942938,-0.315548
0.129725,-0.609426,0.700933,0.783817,0.604794,-0.140908
0.378703,-0.532977,0.668351,0.636602,0.526991,-0.563044
-0.735690,0.125743,0.494737,-0.539688,-0.201655,-0.817357
-0.186124,0.416523,0.247647,-0.397970,0.350909,0.847634
0.293028,-0.329223,0.789571,-0.603467,-0.711700,-0.359597
0.405203,0.004028,0.832721,-0.234397,-0.595553,0.768358
0.118696,-0.091985,0.528516,-0.065854,-0.217634,0.973806
-0.119735,0.402603,0.584141,0.462693,-0.052754,0.884948
-0.037462,-0.074613,0.885881,-0.371913,-0.119062,0.920600
0.065557,-0.172489,0.765970,-0.847542,0.432136,0.308108
0.384600,-0.123716,0.898496,-0.300395,-0.951123,0.071608
0.470483,-0.588711,0.733709,0.964144,0.072218,0.255363
-0.189039,0.560378,0.422612,-0.211275,-0.805336,0.553893
-0.072148,0.129360,0.533709,0.876303,0.305166,0.372783
0.343878,0.091218,0.757199,0.727702,0.562859,0.391969
-0.214012,-0.741882,0.652896,-0.602322,0.590768,0.536844
0.141727,-0.089793,0.383278,0.854909,-0.506536,-0.112032
0.434547,0.017071,0.827485,-0.109625,0.101561,0.988771
-0.162400,-0.550021,0.597494,-0.614625,0.666498,0.421920
-0.185917,0.180874,0.804163,-0.018188,-0.974191,0.224992
-0.210752,-0.688670,0.649387,0.997832,0.052000,-0.040328
-0.146027,-0.253487,0.560067,-0.848342,0.307383,-0.431082
-0.018452,-0.783312,0.616555,0.347396,0.225835,-0.910118
-0.107319,-0.359967,0.698468,-0.394544,0.031387,0.918341
0.063129,0.149637,0.856252,0.771190,0.539000,0.338740
0.033022,-0.373996,0.726887,0.812289,0.254279,-0.524908
-0.147901,-0.888478,0.563910,0.572929,0.552264,-0.605605
-0.421712,0.350158,0.631133,0.303026,-0.673585,0.674135
0.732085,-0.188601,0.662615,-0.262689,-0.770683,0.580553
0.264655,-0.229922,0.900613,0.346356,-0.682115,0.644016
0.275895,0.027428,0.915441,0.943178,0.147999,-0.297511
0.125773,-0.173750,0.866987,0.876454,0.335173,-0.345669
0.470968,-0.083326,0.911181,-0.416890,-0.908872,-0.012466
-0.185569,0.015043,0.712740,-0.473097,-0.286804,-0.833020
-0.228720,-0.527168,0.666151,-0.469855,-0.871778,0.138705
0.204856,-0.491711,0.712712,0.363622,-0.710538,0.602424
-0.252513,-0.497027,0.559914,0.147506,0.825383,0.544963
0.130212,-0.120756,0.973057,0.973192,0.058144,0.222525
0.596046,-0.119606,0.708479,-0.593660,0.444589,0.670751
0.528548,0.264173,0.721707,-0.155491,-0.976560,-0.148843
-0.168157,0.201370,0.356154,0.411060,-0.394723,0.821720
0.230386,0.381833,0.760095,0.894659,0.254651,-0.367066
-0.079430,-0.121359,0.844765,-0.604439,0.788312,0.114970
-0.198403,-0.632607,0.632553,0.164415,-0.215818,0.962492
0.581756,-0.149308,0.650390,-0.752337,-0.070788,0.654964
0.036005,-0.636662,0.788290,0.284622,-0.914985,-0.285995
-0.479777,-0.459926,0.665748,0.713443,0.492619,0.498323
0.546930,0.076860,0.821735,0.580785,0.413309,0.701331
0.241900,-0.301987,0.850849,0.941055,0.305667,0.144859
-0.159278,0.066283,0.698594,0.359552,0.566354,0.741597
-0.401733,0.274531,0.615051,-0.424525,0.331955,-0.842368
0.227193,-0.030662,-0.818240,-0.202343,0.978518,0.039504
0.709538,-0.037622,0.738499,-0.197485,0.362066,0.910993
0.140688,-0.494013,0.632456,0.954791,-0.200082,-0.219866
0.465071,-0.458665,0.697953,0.927927,0.359624,0.098090
0.521680,-0.387094,0.536174,0.700645,0.709781,0.072846
-0.160734,-0.736457,0.653843,-0.552169,0.801925,0.228090
0.261395,-0.297000,0.780562,0.554535,0.611116,0.564827
0.089351,-0.060419,0.821679,-0.520187,0.810722,-0.268581
0.111690,-0.108974,0.866054,-0.409116,0.712236,0.570390
-0.213041,-0.024195,0.420969,0.416733,-0.403837,0.814401
-0.034963,-0.762488,0.609914,0.897208,-0.441374,0.014357
0.201873,0.342321,0.747396,0.931910,-0.177474,-0.316303
-0.249740,0.417126,0.611654,0.537151,-0.833392,0.130104
-0.000762,-0.118893,0.566305,0.753651,0.639306,0.152636
