0.054046,-0.603701,-0.975496,-0.117634,-0.020816,-0.992839
0.073758,0.057056,0.782123,-0.246407,0.860057,-0.446749
0.550955,0.199398,0.871243,0.945997,-0.017806,-0.323687
0.231380,-0.760758,-0.976659,0.076959,0.222660,0.971854
-0.701142,0.229776,0.557746,-0.766994,0.584837,0.263981
-0.608000,-0.832961,-0.967392,-0.073999,0.094737,0.992748
-0.386692,-0.396645,0.859810,0.970447,-0.238307,-0.037977
0.155130,-0.808090,0.705968,0.767090,-0.049457,-0.639630
-0.204955,0.009294,0.959254,-0.372440,0.795588,0.477836
-0.247483,-0.687092,0.624987,-0.034585,0.030268,0.998943
0.084802,0.440791,0.734383,-0.729126,-0.063301,-0.681445
0.385538,-0.722118,-0.981538,-0.167467,0.049710,0.984624
0.099174,0.054131,0.851777,-0.138664,0.864922,0.482371
-0.325104,0.106540,0.985854,0.880930,-0.078405,0.466707
0.099028,0.191136,0.931614,0.113453,-0.025878,0.993206
-0.313980,-0.113080,-0.311771,-0.324901,-0.711802,0.622718
0.340696,0.338899,0.948666,-0.247310,-0.543701,0.802015
-0.317088,0.084681,0.477398,0.767680,0.489043,-0.414130
-0.546768,-0.252582,0.752387,0.578514,0.449435,0.680683
0.655437,-0.102495,0.733203,-0.404509,0.133731,-0.904704
0.518321,0.736489,0.698869,-0.117909,-0.042846,0.992100
-0.180765,-0.811274,-0.951591,-0.257501,-0.305536,0.916701
-0.062132,0.000775,0.917574,0.847443,-0.452775,-0.277193
-0.009640,-0.317298,0.941091,0.832788,-0.420586,-0.359962
-0.672263,-0.466437,0.421960,-0.122424,-0.264115,0.956690
-0.033685,-0.166954,0.929183,0.062405,0.722933,0.688094
-0.342071,0.503184,0.808759,0.880205,-0.299226,-0.368379
-0.141340,0.216437,0.909752,0.795887,0.549101,0.255055
0.422649,0.828399,0.768189,0.051543,-0.603562,0.795648
0.146902,0.556024,0.852200,0.781075,-0.429283,0.453473
-0.419471,-0.219794,0.764824,0.516873,0.574920,0.634278
-0.539550,0.404044,0.555544,0.352113,-0.826117,-0.439941
-0.379976,-0.661360,0.712839,-0.401566,-0.379372,0.833560
0.219393,-0.470568,0.799457,0.856899,-0.377856,-0.350642
0.044804,-0.579346,0.780185,0.121248,0.947149,0.296997
-0.411098,-0.285370,-0.987880,-0.022699,0.184045,0.982656
0.750386,0.566266,0.739192,-0.490139,0.305269,-0.816441
-0.222932,0.079432,0.509072,0.036019,0.297229,0.954127
0.770531,-0.421688,0.734771,-0.085296,0.098485,0.991476
-0.016573,0.241911,0.892700,0.037112,-0.699415,0.713752
-0.225170,0.097247,0.968749,-0.076656,0.839046,0.538633
0.154552,-0.688469,0.770373,-0.639069,-0.694376,0.330806
-0.615438,0.249913,0.552021,-0.006887,0.107924,0.994135
-0.451387,-0.776249,0.549766,0.058128,-0.586264,0.808032
-0.047907,-0.465577,-0.798348,-0.434287,-0.853107,-0.289142
0.124082,0.091394,0.939242,0.248245,-0.173414,0.953049
0.459113,0.718416,0.476659,0.344975,-0.542724,-0.765795
-0.079536,-0.146730,-0.075450,0.378306,0.925679,-0.001835
0.555362,0.282703,0.701265,0.182713,-0.624836,0.759075
-0.297807,-0.104647,0.574904,0.257578,-0.471898,0.843188
0.647566,-0.319450,0.755206,-0.519956,-0.315549,-0.793772
-0.239251,0.159725,0.886781,0.735274,-0.543620,0.404782
-0.593774,0.358777,0.761054,-0.432583,0.670688,0.602536
0.707206,-0.444665,0.744248,-0.511844,0.645688,-0.566658
0.652696,0.093804,0.702921,0.045124,0.666613,0.744037
-0.383153,-0.366524,0.848747,0.866182,-0.335103,-0.370722
0.092673,-0.778916,0.544463,0.043106,0.216679,0.975291
-0.468861,-0.607660,-0.973364,0.005906,0.123660,0.992307
-0.283872,-0.075817,0.843815,-0.758862,0.381795,-0.527600
-0.077367,-0.112651,0.769369,0.991912,0.090255,-0.089241
-0.750602,0.313597,0.559666,-0.241591,0.358678,0.901656
-0.579336,0.002754,0.667089,0.733498,-0.674203,0.086205
0.390517,0.273666,0.735352,-0.141561,0.264466,0.953949
0.180043,0.107142,0.759768,0.868055,-0.283263,-0.407728
-0.191522,-0.283219,-0.987704,-0.064512,0.004654,0.997906
-0.243005,0.176506,0.377761,0.607333,0.596874,-0.524297
-0.770676,-0.258348,-0.996072,-0.253529,0.121386,0.959682
0.006679,-0.431153,0.765423,0.774575,-0.547692,-0.316334
-0.195855,0.446300,0.953529,0.662602,-0.534364,0.524798
-0.710965,0.300689,0.540588,-0.138437,0.567429,0.811702
-0.510811,-0.266351,0.617359,-0.662407,-0.475628,0.578787
0.170440,0.638210,0.876863,-0.138765,0.368493,0.919216
0.537597,-0.678830,0.662967,0.140393,-0.217987,0.965801
-0.078958,-0.242599,-0.015379,-0.784363,-0.619139,-0.037970
0.177442,-0.187006,0.496371,0.573667,0.779831,-0.250540
0.541859,-0.093116,0.863122,0.516413,-0.804258,0.294086
0.606554,-0.581411,0.742821,-0.109598,0.434807,0.893830
-0.339687,0.414114,0.706972,-0.612342,0.141851,0.777763
0.403514,0.744062,0.760649,0.172370,-0.370325,0.912769
0.037727,-0.413253,0.800391,0.911611,0.019682,0.410582
0.344596,-0.266610,0.810168,0.399497,0.798512,-0.450312
-0.070942,-0.601894,0.641475,0.950020,-0.308377,0.048632
-0.405537,-0.908606,-0.971902,-0.059495,0.109555,0.992199
0.370950,-0.320998,0.609819,0.449322,-0.023088,-0.893071
-0.363586,-0.517729,0.614082,-0.008735,0.268396,0.963269
0.079677,0.083477,0.672832,0.402642,-0.883016,0.241167
0.032672,0.661791,0.892647,-0.109230,0.359283,-0.926814
0.691253,-0.477367,0.797537,0.060703,-0.994545,-0.084820
0.112818,-0.528142,0.753920,0.708927,0.658469,0.252667
0.578900,0.477453,0.773403,0.089449,0.350257,0.932373
0.396079,0.166351,0.794014,-0.696720,-0.449896,0.558726
-0.651320,0.193460,0.752070,0.941607,0.321974,-0.098537
-0.234703,0.439328,0.935701,-0.409589,0.776756,0.478422
0.560633,-0.558090,0.668041,-0.316772,0.466673,-0.825755
0.254702,-0.452926,0.953634,0.217272,-0.960535,0.173684
-0.263441,-0.747333,0.730279,0.965816,0.205462,0.158065
-0.184736,-0.754991,0.625321,-0.430684,0.034474,0.901844
-0.167407,-0.470482,-0.965138,0.297398,-0.858040,-0.418715
-0.678759,-0.493461,0.502819,0.347604,0.065564,0.935346
-0.197084,-0.437608,0.741659,0.688708,0.695446,0.205027
0.102206,-0.454476,-0.985837,0.085353,0.193108,0.977458
0.002347,-0.876334,0.559278,-0.773777,-0.092215,-0.626711
-0.377957,-0.074957,0.829088,0.817621,-0.046076,0.573910
0.250586,0.220224,0.740725,-0.069408,-0.348670,0.934672
0.789882,0.623838,0.737360,-0.648742,-0.682753,0.336128
0.502725,0.172117,0.716485,0.080596,0.983611,0.161287
0.400843,-0.365318,0.905753,0.769669,0.632416,0.087521
0.409362,-0.775302,0.584452,0.015965,-0.000392,0.999872
-0.052098,-0.483907,-0.895624,0.506332,0.859659,-0.067921
-0.231741,-0.103098,0.810802,0.222487,0.429695,0.875135
-0.218313,0.177108,0.563172,0.281449,0.741607,0.608937
0.664247,-0.543373,0.761072,0.565389,-0.278846,0.776260
-0.217158,0.180637,0.497551,-0.175214,-0.039071,0.983755
-0.427849,-0.812737,0.551950,0.005430,-0.490519,0.871414
0.473048,0.263683,0.701106,-0.005205,-0.382809,0.923813
0.470232,0.400086,0.736339,0.368025,-0.926780,0.075078
-0.082132,-0.190791,-0.050470,0.145903,0.972992,-0.178884
0.134699,0.229948,0.953053,-0.806855,-0.043286,0.589161
-0.083431,-0.357660,-0.353416,0.403790,0.897270,-0.178497
0.243147,-0.539416,0.739844,0.376920,0.480768,-0.791703
0.380337,-0.318675,0.802646,0.410267,0.716476,-0.564219
-0.124518,-0.467299,-0.844696,-0.673255,0.739374,-0.007396
-0.084731,-0.295010,0.456382,-0.526874,-0.319607,-0.787563
0.246615,0.362392,0.982348,0.023550,-0.765048,0.643542
-0.451242,-0.395180,0.488638,-0.545971,-0.829171,0.119964
-0.212897,-0.415147,0.718511,0.419911,0.774902,-0.472443
0.762519,0.486402,0.707871,-0.098927,-0.779829,0.618127
-0.620419,0.174183,0.733150,0.890916,0.120503,0.437890
-0.354415,-0.466524,0.412359,0.328900,-0.810446,-0.484771
0.014334,0.544751,0.881267,-0.504430,0.236419,-0.830456
0.258241,0.819794,0.853856,-0.691563,0.676690,-0.252647
-0.214919,-0.007917,0.723796,-0.365157,0.550703,-0.750591
-0.638108,-0.197419,0.492883,0.638349,0.749152,0.176868
0.171378,0.035714,0.902759,-0.434341,-0.885051,0.167430
-0.554569,0.373409,0.802029,-0.656068,0.657157,-0.371105
0.899850,0.932014,0.460170,0.097603,0.568377,0.816958
-0.678040,0.246644,0.749445,0.849417,0.174954,0.497878
0.152098,-0.764286,-0.970229,0.207819,0.496737,0.842653
0.426118,-0.229088,0.948737,0.944753,0.154191,-0.289251
-0.214558,-0.498624,0.759645,0.417029,0.109332,0.902293
-0.179033,-0.003443,0.935560,0.899721,-0.088484,-0.427402
-0.507925,-0.211102,-0.991720,-0.048661,0.149597,0.987549
-0.397956,-0.410844,0.860286,0.959810,0.058288,0.274533
0.141631,-0.614545,0.755981,-0.445082,0.176128,-0.877998
-0.055416,0.309381,0.879822,-0.661750,-0.696815,-0.276649
-0.065380,-0.267729,-0.030599,0.802924,0.576866,-0.150126
0.550091,0.183649,0.733978,0.927286,-0.081147,0.365452
0.573920,-0.192169,0.730983,-0.197931,0.037197,0.979510
-0.682659,-0.229519,-0.987845,0.045248,0.429472,0.901946
0.704826,-0.085112,0.720607,-0.627145,0.160058,-0.762280
0.107044,-0.234768,0.545045,-0.442740,-0.311760,0.840706
-0.459042,-0.287178,0.864232,0.779819,0.510320,-0.362568
0.637099,0.147590,0.688828,-0.451445,-0.577705,-0.680040
-0.311385,-0.250259,0.824173,-0.539896,-0.316981,0.779767
-0.422649,-0.255163,-0.990241,0.143166,0.119501,0.982458
-0.893641,-0.468072,0.506078,0.297338,-0.134546,0.945245
0.436368,-0.253873,0.880228,-0.000017,-0.693130,0.720813
-0.030507,-0.454648,0.793926,-0.237197,-0.893538,0.381219
-0.150295,0.023838,-0.745587,0.671083,0.405994,-0.620336
-0.768728,-0.087349,0.497851,0.347422,-0.307460,0.885870
0.200619,-0.069707,0.937233,0.123050,0.988056,0.092762
-0.225100,-0.326851,-0.988109,0.054762,-0.160648,-0.985491
-0.338100,0.150000,0.957721,0.392506,0.444138,0.805407
0.571682,0.458348,0.774284,-0.073312,0.057170,0.995669
0.456658,-0.179777,0.891678,0.762627,0.060494,-0.644003
-0.053900,-0.358779,0.807984,-0.162279,0.282479,0.945448
-0.456803,-0.239157,0.858472,-0.497166,0.122792,0.858923
0.251092,-0.165748,0.930539,0.300324,-0.625261,-0.720316
0.643234,0.546816,0.744742,-0.359239,0.924958,-0.124102
-0.679772,-0.214802,-0.995332,0.137543,0.209578,0.968070
-0.309071,-0.320913,0.617059,0.611074,0.303023,-0.731277
0.290875,-0.665060,-0.983000,-0.007355,0.052474,0.998595
0.263296,0.299655,0.958954,0.999100,-0.015272,0.039572
-0.483303,-0.891739,-0.972536,0.007231,0.241279,0.970429
0.324377,0.218331,0.688881,-0.206923,-0.430260,0.878669
0.606338,-0.799657,-0.965155,-0.350595,0.194672,0.916071
-0.161705,-0.183821,0.098968,-0.084805,0.995151,-0.049827
-0.463445,-0.068503,0.624705,0.605537,0.762058,-0.229332
0.001047,0.255422,0.911778,-0.259838,0.889026,0.376984
0.184013,0.183907,0.725223,-0.588489,0.642096,0.491317
-0.614932,-0.268761,0.497340,0.323227,-0.136843,0.936375
0.249431,-0.381412,0.898478,-0.347056,0.929169,0.127264
-0.530815,0.192254,0.601240,-0.756441,0.368763,0.540195
-0.200548,-0.062565,0.915654,-0.736693,-0.484039,-0.472218
0.976678,0.911532,0.458620,0.190195,0.722813,0.664355
-0.124880,-0.424871,-0.547123,-0.756204,-0.551712,0.351810
0.453481,-0.070138,0.982877,-0.635270,0.685850,0.355023
-0.185820,0.435371,0.947046,0.522757,0.145811,0.839919
-0.037294,-0.324269,-0.110453,0.548196,-0.831554,0.089439
-0.176940,-0.469966,-0.954198,-0.656011,0.691543,0.302354
0.001695,-0.218590,0.917768,-0.079930,-0.867590,-0.490814
-0.042565,-0.351378,0.531674,0.415910,0.386362,-0.823251
0.054046,-0.398624,-0.984304,-0.199492,-0.144175,-0.969235
-0.674427,-0.800345,0.475478,-0.350999,-0.936344,-0.007727
-0.384889,-0.092600,0.838918,0.986895,0.005797,-0.161258
-0.763889,-0.446213,0.414473,0.323675,0.289095,-0.900921
-0.334632,0.135457,0.978191,-0.849272,0.433165,-0.301835
0.946349,0.884682,0.387662,0.026988,-0.967950,0.249689
-0.066319,-0.231928,-0.181887,-0.744686,-0.638361,-0.194776
-0.657244,0.291910,0.729997,0.851704,0.068330,0.519549
0.378244,-0.193976,0.947733,-0.392886,0.193367,0.899027
-0.224015,0.023236,0.869764,0.764541,0.508964,-0.395516
0.561140,-0.559381,0.583465,0.256829,-0.152289,0.954383
-0.264305,-0.942169,0.544886,0.191661,-0.873279,0.447940
0.823098,0.946644,0.450234,0.028159,-0.929011,-0.368980
-0.085309,0.040017,0.470281,-0.654028,0.097047,-0.750219
0.421710,-0.104476,0.933710,-0.018613,0.938018,0.346087
-0.029639,-0.740620,-0.974351,0.074175,0.105488,0.991650
-0.060907,-0.170052,0.564810,0.413861,0.233139,0.879980
0.035417,-0.479691,0.941391,-0.275336,0.771289,0.573850
-0.223945,0.132358,0.960962,-0.183984,0.899406,0.396508
0.370805,-0.378485,0.857591,0.980645,-0.162283,-0.109543
0.505034,-0.509725,0.589173,0.314112,-0.190364,0.930105
-0.158236,-0.736317,0.718141,0.177752,0.644173,0.743939
0.466984,-0.651893,0.753056,0.075986,0.075205,0.994269
-0.138237,-0.225044,0.109661,0.113362,0.979547,-0.166244
-0.420124,-0.939330,0.524680,0.127337,0.114318,0.985250
0.469439,-0.044235,0.910404,0.516573,0.663837,0.540807
-0.597749,-0.489243,-0.984815,0.307261,-0.404527,-0.861364
0.068197,-0.365318,0.760578,0.221523,-0.817063,0.532292
0.035342,-0.091997,0.382888,0.463884,0.843351,0.271237
0.016136,0.285972,0.877691,0.994522,-0.059492,0.085946
-0.090002,-0.241652,-0.316757,0.115316,-0.971393,0.207600
-0.037872,0.309381,0.908819,0.835051,0.545128,-0.074327
0.339396,-0.492599,0.750326,0.766650,0.596679,-0.237113
0.101990,-0.527367,0.768893,-0.176329,0.799197,0.574623
0.383731,0.230982,0.697336,-0.029293,-0.379822,0.924596
0.354561,0.821945,0.451644,-0.264091,-0.037997,0.963749
-0.284017,-0.469709,-0.201423,-0.845583,0.509994,-0.157781
0.063071,0.086058,0.643255,-0.139949,-0.869790,0.473160
0.301707,0.828658,0.624652,-0.494741,-0.828640,-0.261891
-0.302284,0.307746,0.933199,0.670184,-0.055600,-0.740110
-0.213474,-0.360758,0.833192,-0.424597,-0.565778,0.706833
0.205026,0.406282,0.814590,0.376451,0.790886,-0.482477
-0.133689,0.280809,0.835165,0.705700,0.466579,-0.533189
0.488283,-0.339587,0.758006,0.235378,0.910388,0.340281
-0.369580,-0.269192,0.850544,0.377017,-0.900998,-0.214617
-0.072026,-0.198107,-0.000511,0.131159,0.970091,0.204258
-0.160836,0.096041,-0.841349,-0.245026,-0.222349,0.943675
-0.124086,-0.323236,0.462583,-0.215937,0.386930,0.896469
0.381206,0.769536,0.768700,-0.232654,-0.249749,0.939946
-0.017798,-0.387608,-0.983546,0.271461,0.199403,0.941567
-0.291959,0.400430,0.971109,0.203099,0.800326,-0.564118
0.645473,0.436488,0.720819,0.540909,0.831543,0.126307
-0.120332,-0.307746,0.753620,0.113103,0.565094,0.817237
0.252895,-0.730810,0.757108,0.105058,-0.993133,0.051477
-0.128634,0.135628,0.962724,0.940730,0.323199,0.102808
-0.801508,-0.688555,0.520558,0.803551,0.379386,-0.458663
-0.164084,-0.175817,-0.760948,-0.568057,-0.333878,0.752221
0.651898,0.419793,0.742310,0.697921,0.600689,0.389974
0.153252,0.597332,0.821284,0.757314,0.429956,-0.491542
0.379037,0.667385,0.755294,-0.157675,-0.280287,0.946878
0.023646,0.261016,0.944474,0.767858,0.152379,0.622233
0.072313,-0.127453,0.918173,-0.707148,-0.635356,0.310266
0.220186,0.553099,0.722510,0.238648,-0.744732,0.623235
-0.229070,-0.034940,-0.793521,-0.193451,-0.842047,0.503521
-0.398824,0.150431,0.703573,0.584827,0.810087,-0.041679
-0.077799,-0.678745,-0.971268,-0.094622,0.313582,-0.944835
0.021769,-0.513426,-0.633161,0.812383,0.582642,-0.023714
-0.160766,-0.654218,-0.966776,-0.224937,-0.276120,0.934431
0.202064,0.139414,0.993817,0.564682,0.422173,-0.709157
-0.120689,-0.115836,0.845277,0.512784,0.471739,-0.717297
0.359616,0.375732,0.702568,-0.723713,0.486037,-0.489905
0.198958,0.021343,0.830832,0.544921,0.663342,-0.512873
0.050145,0.272978,0.971744,-0.121867,0.306969,0.943885
0.262282,-0.670998,0.751735,0.498554,0.110557,-0.859780
-0.737896,-0.051118,-0.997340,-0.133035,0.107074,0.985310
-0.595074,-0.056799,-0.996124,-0.017799,0.173454,0.984681
-0.263727,-0.415750,0.761424,0.014116,-0.299480,0.953998
0.464815,0.678399,0.717366,-0.610642,-0.522548,-0.595030
-0.166253,0.112221,0.563330,0.122566,0.417603,0.900325
0.454058,0.620568,0.750502,0.115764,-0.486902,0.865751
-0.005740,-0.071601,0.237008,0.978888,0.203049,-0.023439
-0.114047,0.154303,0.956329,0.604244,0.728465,0.322843
0.379905,0.120654,0.781137,0.622094,0.078063,-0.779041
-0.595003,0.338468,0.792816,0.716554,-0.583320,0.382478
-0.190659,-0.265491,-0.310027,-0.293714,-0.950598,0.100472
-0.240480,0.240103,0.923845,0.592382,0.579302,-0.559904
-0.165384,0.308778,0.418578,0.816894,0.537287,0.209779
-0.619334,0.051462,0.606490,0.973906,-0.207632,0.091633
-0.033469,-0.501980,0.779481,-0.127656,-0.984505,0.120223
-0.764682,-0.536662,0.514199,-0.000253,0.385969,0.922512
0.317665,-0.014027,0.952718,0.901991,0.363505,-0.232973
0.241851,-0.318244,0.589684,0.594213,0.175839,-0.784852
-0.150295,-0.186662,0.696297,0.224471,0.864977,0.448806
0.792482,-0.352151,0.736990,0.855918,0.475237,0.203847
0.026175,-0.054475,0.406863,0.196592,0.931617,-0.305682
-0.412323,0.337780,0.781330,0.354666,0.525766,0.773164
0.307485,-0.649484,0.748652,-0.552847,-0.088682,0.828550
-0.058162,-0.072806,0.568633,0.753835,-0.567997,0.330320
0.292752,-0.427023,0.750590,0.712888,-0.017522,-0.701059
-0.025453,-0.137866,0.521580,-0.611245,0.601456,0.514422
0.825337,0.937866,0.463587,-0.115182,0.667760,0.735411
0.333332,0.322461,0.732622,0.396867,-0.094208,0.913029
-0.133614,0.217297,0.804918,-0.645268,-0.202221,0.736706
-0.060616,-0.324957,-0.283497,-0.540125,0.827744,0.152006
-0.376366,0.338899,0.788412,-0.538869,-0.276622,0.795676
-0.646050,0.265061,0.744935,0.899577,0.291806,0.324978
0.736019,-0.273924,0.720484,0.701864,0.324239,0.634236
-0.232318,0.140620,0.387380,0.778469,0.439764,-0.447876
-0.321274,-0.461877,0.758447,-0.404327,-0.316374,0.858153
-0.395070,0.308865,0.734577,0.788294,-0.598401,0.143210
0.562872,-0.611361,0.737572,0.294980,0.426474,0.855048
0.658976,0.930293,0.592520,-0.274958,0.951473,-0.138195
-0.192536,-0.353098,-0.981292,-0.000737,0.217746,0.976005
0.206903,-0.079518,0.914438,0.807054,0.549686,0.215660
0.620419,-0.322376,0.765176,0.779894,0.037523,0.624786
0.309142,-0.518676,0.752827,-0.739810,-0.412906,0.531215
-0.225747,0.039329,0.872071,0.438490,0.827337,-0.351057
-0.847790,-0.397418,0.511257,0.417162,0.110381,0.902104
-0.070581,0.349741,0.839428,0.917260,0.095449,-0.386682
0.781218,0.629260,0.748459,0.578283,0.617157,-0.533578
0.063287,0.440878,0.724360,0.908911,-0.044690,0.414588
-0.264234,-0.856885,-0.968943,-0.064231,-0.165082,0.984186
-0.700062,-0.569966,0.505338,-0.342079,-0.039693,-0.938833
-0.109208,-0.865664,0.678064,0.824291,0.565749,0.021722
0.166901,-0.200689,0.914755,-0.112201,0.493183,0.862659
0.058810,0.056281,0.929077,0.244138,0.743076,-0.623085
0.096719,0.422633,0.853557,0.988567,-0.146072,-0.037404
0.226325,0.685628,0.868337,-0.215160,-0.253079,0.943217
0.067474,0.514458,0.765264,0.952852,-0.249337,-0.172930
-0.131234,-0.443891,-0.591745,-0.759991,0.645272,0.077705
0.065235,0.004561,0.673132,-0.571409,0.780106,-0.254809
-0.193114,-0.120568,0.937991,-0.073495,-0.592064,0.802533
0.309794,-0.711877,0.758852,0.071654,-0.438565,0.895839
-0.456512,-0.471429,0.623930,0.034596,-0.258611,0.965362
0.140908,-0.044063,0.578145,0.444194,0.817670,-0.366207
0.064155,-0.115061,0.488461,-0.548125,-0.819033,0.169541
-0.073106,-0.320138,-0.451679,-0.318431,0.947378,-0.032818
0.039533,0.240018,0.947627,0.816193,0.000086,0.577780
-0.163437,0.029690,0.630219,-0.117357,-0.497132,0.859702
-0.248206,-0.068072,0.514357,-0.647298,-0.231825,-0.726129
0.495577,-0.000516,0.642955,0.552750,0.504743,-0.663101
0.184445,0.699828,0.853645,-0.161185,0.986568,0.026519
-0.829598,0.185800,0.552109,-0.055554,-0.036381,0.997793
-0.349365,-0.104217,0.741289,0.533801,0.378463,0.756189
0.442291,-0.201291,0.763996,0.524567,0.509958,-0.681743
-0.584607,-0.341481,-0.982789,0.138147,0.147442,0.979375
0.396079,-0.193718,0.876828,-0.522910,-0.376493,0.764734
-0.800137,-0.398193,0.501409,0.108349,0.390192,0.914336
0.246615,0.300345,0.969172,-0.606669,0.787857,-0.105986
0.006679,-0.482014,0.942518,-0.370516,0.644161,0.669160
0.136215,-0.155766,0.905084,-0.171209,0.799579,-0.575639
-0.218599,-0.251980,-0.983828,0.100971,-0.040774,-0.994053
-0.645111,-0.137350,0.479530,0.876478,-0.257813,0.406593
-0.455358,0.093804,0.678276,0.763722,-0.238385,-0.599918
-0.182788,-0.293632,-0.987352,0.076907,-0.041039,0.996193
-0.483232,-0.240018,0.488285,-0.503561,-0.556790,0.660615
-0.305391,0.012220,0.977698,0.082327,-0.457075,0.885610
0.073974,-0.688038,-0.971796,0.340037,-0.231099,-0.911574
-0.126611,0.166695,0.971479,0.040350,0.972529,0.229258
-0.562872,-0.261273,0.746521,0.629752,0.743121,0.226238
-0.055275,-0.030722,0.380386,-0.810287,0.057332,0.583223
-0.020111,-0.141051,0.631804,-0.135750,-0.213984,0.967359
-0.351819,-0.079002,-0.795159,0.842358,-0.482665,0.239722
-0.687568,-0.394837,0.507504,-0.181642,-0.137130,0.973756
0.483519,-0.317212,0.735916,0.579828,0.650687,0.490312
0.152675,-0.285629,0.946447,0.775683,-0.393811,-0.493183
-0.667856,-0.091997,0.766497,-0.093200,-0.075991,0.992743
-0.462722,-0.762220,0.597699,-0.750645,0.395400,-0.529330
0.295066,-0.668761,-0.979125,-0.007355,0.052474,0.998595
-0.086247,-0.520138,-0.681411,0.181491,0.938623,-0.293340
-0.634067,0.051462,0.720431,0.939814,0.255121,0.227296
0.523592,-0.357745,0.792992,-0.160678,-0.679057,-0.716285
-0.280337,0.100258,0.896769,0.804060,-0.396659,0.442887
-0.215713,-0.580035,0.745975,-0.440746,0.885414,-0.147598
-0.071735,-0.290620,0.784272,-0.523062,0.601238,-0.604085
0.035849,-0.404819,0.771025,0.911428,-0.035034,-0.409965
-0.224663,-0.759897,0.728834,0.637428,0.335680,-0.693545
-0.636592,-0.685543,-0.979442,-0.097270,-0.051346,-0.993933
-0.379328,-0.084854,0.626695,0.025753,-0.150698,0.988244
-0.658544,0.130895,0.546119,-0.330000,-0.167223,0.929051
-0.715584,-0.232961,0.394303,0.035153,0.948693,0.314239
-0.944908,-0.272892,0.251348,-0.213960,0.553241,0.805075
0.516589,0.362995,0.762780,0.781168,-0.139033,-0.608644
-0.135060,-0.498280,-0.829141,0.849314,0.480627,-0.218317
-0.267989,-0.917213,0.605715,-0.231520,-0.952235,-0.199117
-0.856238,-0.529174,0.506571,0.259268,0.364916,0.894213
-0.315139,-0.936920,0.596131,0.471906,0.852809,0.223654
-0.096141,-0.417557,-0.693972,0.108302,0.992898,-0.049230
-0.631974,0.286231,0.746996,0.972467,0.199352,-0.120694
0.315135,-0.073495,0.933041,-0.686930,-0.614243,0.388373
-0.436659,-0.717643,-0.971708,-0.274859,0.053051,0.960020
0.537888,0.236746,0.866822,0.951536,0.256295,-0.169977
0.743238,0.496643,0.717190,-0.571999,0.820253,0.000970
0.432829,0.510499,0.738805,-0.202510,0.942113,0.267230
0.070867,-0.232445,-0.042631,0.022187,-0.994673,0.100661
0.130508,0.109467,0.944368,0.290454,-0.516679,0.805406
-0.439400,-0.347763,-0.987387,-0.127486,-0.186339,-0.974179
-0.712265,0.118933,0.546242,-0.090018,-0.590880,0.801722
-0.613054,-0.281843,0.497992,0.752029,0.369064,0.546117
-0.364670,0.262048,0.947416,0.857240,0.406166,0.316494
0.019605,-0.488039,0.764894,-0.787856,-0.051326,-0.613717
0.359977,0.891051,0.458796,-0.139510,0.088914,0.986221
0.291311,-0.028658,0.928073,0.949831,0.193696,-0.245567
0.109063,-0.521343,0.755593,0.897202,0.294767,-0.328847
0.605977,-0.173151,0.733837,-0.337206,-0.144126,0.930333
-0.056862,-0.219966,-0.204577,-0.684576,-0.708949,0.169550
0.155852,-0.043460,0.712980,-0.501525,0.148236,0.852349
-0.327484,-0.383304,0.762657,-0.161779,0.098461,0.981903
-0.223222,-0.934768,0.596942,0.188819,0.671597,0.716453
-0.049929,-0.105852,0.919018,0.454699,0.661327,0.596570
-0.404095,-0.813684,-0.960927,-0.050527,-0.054494,0.997235
-0.535433,-0.255853,-0.984762,-0.072388,0.056052,0.995800
0.525038,-0.287779,0.618574,-0.528382,0.745539,0.406182
-0.337955,-0.422376,0.552989,0.122623,-0.473339,-0.872304
-0.118525,0.086316,0.625128,0.005642,-0.798971,0.601344
0.227480,-0.189329,0.808107,-0.547845,-0.499255,-0.671275
0.631754,0.567556,0.711870,0.166391,-0.379306,-0.910187
0.577314,-0.108261,0.861061,-0.456878,0.220351,-0.861805
-0.697317,0.250259,0.553307,0.581922,-0.565282,-0.584657
0.419978,-0.070826,0.977398,-0.373974,0.868120,-0.326360
0.860641,0.820913,0.492266,0.043090,0.729185,0.682959
-0.423372,-0.338296,-0.632597,-0.136973,0.769274,0.624064
-0.571827,0.356196,0.815559,0.093717,-0.803279,0.588183
-0.131737,-0.338468,-0.976148,-0.033772,0.053317,0.998006
-0.089861,-0.097591,0.153472,-0.518477,0.840753,-0.155935
0.299252,0.209036,0.699433,-0.271211,0.847556,-0.456172
-0.649373,-0.168504,-0.993482,-0.071470,-0.086715,0.993666
0.359183,-0.276678,0.861924,0.077966,-0.388259,0.918246
-0.461065,0.449829,0.831219,0.606753,-0.154619,-0.779707
0.325677,-0.343890,0.959359,0.686987,0.152836,0.710416
0.078668,0.663942,0.893862,0.374464,-0.334337,0.864867
-0.141701,-0.344149,-0.333298,0.909355,0.236478,0.342275
-0.332900,0.280207,0.958021,0.848051,0.431675,0.307352
-0.349219,-0.294664,0.826075,0.561055,0.819812,-0.114566
-0.024369,0.163425,0.718969,-0.142429,-0.962227,0.232020
0.072599,0.572633,0.808600,-0.579966,0.814586,0.009422
0.318820,0.775818,0.659092,0.172283,0.973155,0.152604
-0.240260,-0.246128,0.934521,0.465270,0.522300,-0.714651
-0.611032,-0.501894,-0.983546,0.277173,-0.221426,-0.934958
0.488212,-0.716352,0.583730,-0.017470,0.001854,0.999846
-0.269143,-0.468244,-0.983441,-0.184248,0.287727,0.939822
-0.717607,0.308175,0.552884,-0.421160,-0.697692,0.579526
-0.392254,-0.428055,0.763344,0.462259,0.486463,-0.741398
0.072529,0.361015,0.788888,0.312059,0.733735,-0.603533
0.190439,-0.047763,0.934292,0.199377,0.973858,-0.108852
-0.482073,0.239502,0.570077,-0.287360,0.133466,-0.948478
0.457381,0.023752,0.862506,-0.585219,-0.322902,0.743809
0.469800,0.179087,0.865588,-0.757623,0.290060,-0.584699
0.234773,-0.462823,0.964362,0.083144,-0.825452,0.558315
-0.071087,-0.217299,-0.154970,0.547795,-0.714867,0.434610
-0.180258,-0.585543,-0.959835,0.871942,0.385296,-0.302100
-0.526263,-0.823753,0.509213,0.469127,0.613901,0.634858
-0.193545,-0.779518,0.621393,0.220909,0.110455,-0.969020
-0.601283,-0.312996,0.527270,-0.167092,-0.154129,0.973820
-0.411169,0.230464,0.804619,0.119170,-0.300089,-0.946438
-0.293911,0.407659,0.793838,0.151566,-0.508696,0.847500
-0.138740,0.155422,-0.752123,-0.603106,-0.550478,0.577267
-0.050943,-0.773839,-0.971779,0.059856,0.171060,0.983441
0.632622,-0.585198,0.651305,0.225575,-0.386093,0.894454
0.004947,-0.468589,0.805183,0.440329,0.824929,-0.354404
-0.102637,-0.302152,-0.462795,-0.306740,0.950912,-0.040954
-0.175781,0.051290,0.942765,0.866416,0.166242,-0.470836
0.107692,-0.592427,0.771025,-0.680169,-0.679541,-0.274942
0.409653,-0.254991,0.866011,0.102079,-0.994759,0.005878
-0.056139,-0.442513,-0.586689,0.128119,-0.985058,-0.115093
0.134699,-0.491136,0.747613,0.266381,-0.014885,0.963753
0.828800,0.448710,0.720044,-0.499054,0.776105,-0.385495
-0.106899,-0.145439,0.933534,-0.303814,-0.080543,0.949321
0.036065,0.159553,0.919970,-0.526853,0.492503,-0.692724
-0.359831,-0.179346,0.555015,-0.691666,0.315228,-0.649792
0.484312,0.406368,0.739210,-0.151891,0.987001,0.052517
0.542150,0.226248,0.689938,-0.141658,0.431381,-0.890979
-0.209067,0.254044,0.941831,0.904165,0.264125,0.335743
-0.639263,0.127538,0.570799,-0.415272,-0.386415,0.823549
-0.227554,-0.332961,0.806557,0.124750,-0.857890,0.498460
0.272101,-0.386403,0.943346,0.334701,0.216798,0.917046
-0.617387,-0.549054,0.612902,0.869013,-0.078728,0.488485
-0.719193,-0.730035,0.500088,0.890845,-0.443219,-0.099760
0.007186,-0.872893,0.726791,0.829512,-0.036251,-0.557312
0.505109,-0.053443,0.890692,0.967365,-0.124878,0.220476
0.339687,-0.868933,-0.979477,0.066375,0.172275,0.982810
-0.579839,0.408950,0.544446,0.103059,0.973632,0.203517
-0.189645,-0.426420,0.831448,-0.280039,-0.944954,0.169236
0.375719,-0.453873,0.720554,0.988591,-0.008903,0.150364
0.025016,-0.207230,0.935630,0.579991,0.309928,0.753363
-0.475216,0.360327,0.774090,0.031127,-0.479786,0.876833
-0.632912,-0.467384,-0.984885,0.102156,-0.284528,-0.953209
-0.314271,-0.680121,0.607194,-0.178737,0.220007,0.958984
0.408423,0.209725,0.837350,0.858449,0.081335,-0.506409
-0.411098,-0.205939,-0.676232,0.280497,0.749759,0.599318
-0.911044,-0.466352,0.500740,0.796541,0.151218,0.585368
-0.381205,-0.341308,-0.988690,-0.063093,0.197803,0.978209
0.251595,0.666351,0.860216,-0.636864,0.067551,-0.768011
-0.364670,-0.359897,0.778459,-0.113749,-0.506536,0.854683
0.330300,-0.265749,0.774108,0.964660,0.041350,0.260232
0.194339,0.094922,0.909382,-0.025558,-0.168095,0.985439
0.022346,-0.170052,0.533805,0.823212,0.296958,0.483877
-0.375503,-0.011963,0.621182,0.329895,-0.333726,-0.883061
0.016066,-0.449313,0.806592,-0.352276,-0.893256,0.279275
-0.715081,-0.176162,0.442325,0.742031,-0.571013,-0.351190
-0.670311,-0.248021,-0.991245,0.038373,0.428126,0.902904
-0.499908,0.500344,0.816792,-0.642580,-0.180787,0.744585
-0.921224,-0.283993,0.257143,0.063249,0.729806,0.680722
0.207190,-0.679002,0.701705,0.626133,0.180027,-0.758648
0.604245,0.633219,0.751101,0.182338,-0.289842,0.939545
-0.649589,-0.367987,-0.986453,0.025375,0.025044,0.999364
-0.246037,-0.023493,0.971796,0.299244,-0.664012,0.685231
-0.106176,-0.463339,-0.670190,-0.037254,-0.982519,0.182397
-0.152243,-0.748365,0.680442,0.489981,-0.795346,0.356852
0.653489,-0.827454,0.570799,0.321458,-0.167846,0.931929
0.067187,-0.223494,0.869446,-0.509024,0.548853,0.663065
-0.133253,0.340706,0.948332,-0.050374,-0.649836,0.758403
-0.336364,-0.139157,-0.992319,-0.084190,-0.007561,0.996421
-0.828439,-0.285629,0.260843,0.351221,-0.726843,-0.590207
-0.246037,0.041136,0.966018,-0.477435,0.039700,-0.877770
-0.025885,-0.475129,0.718071,0.068102,-0.702491,0.708427
-0.336870,-0.224097,0.757672,0.247488,-0.027414,-0.968503
-0.162568,-0.807659,0.723637,-0.064718,0.721371,0.689518
-0.131450,-0.143976,0.650284,0.063754,-0.467590,0.881643
0.437814,0.115233,0.890269,-0.852687,0.263237,-0.451255
0.187913,0.334940,0.968396,0.618416,0.597336,0.510639
-0.010579,0.026937,0.744231,-0.099872,0.142253,-0.984779
-0.077729,-0.198279,0.111968,-0.268175,-0.947130,-0.176147
-0.099967,-0.566007,-0.792446,0.465602,0.620920,0.630613
-0.112315,-0.367212,-0.497763,-0.045394,0.992483,0.113654
0.150220,-0.185284,0.924550,0.139824,0.837764,0.527826
0.964259,0.904475,0.463675,0.064605,0.643510,0.762706
-0.518321,-0.871515,0.535320,0.466732,0.872638,0.143748
-0.466045,-0.543891,-0.971585,0.312169,0.244166,0.918114
0.360338,-0.043201,0.771360,0.174749,0.144930,-0.973888
-0.045597,-0.343890,0.918437,0.983369,0.169072,-0.066341
-0.403659,-0.316094,0.745340,0.544179,0.295366,-0.785257
-0.256724,0.376937,0.916041,0.104164,-0.763138,0.637786
0.173617,-0.526937,-0.980605,0.074718,0.024048,0.996915
-0.084229,-0.432272,0.913346,0.752271,0.653874,-0.080852
-0.521212,0.300086,0.738364,0.525233,0.365803,-0.768322
0.648580,0.082789,0.704629,0.045124,0.666613,0.744037
0.538104,0.807574,0.698200,-0.038379,-0.403911,0.913993
0.558901,0.707831,0.706215,-0.137281,0.116926,0.983607
-0.061339,0.251635,-0.819734,0.679073,-0.125872,-0.723198
-0.067258,-0.223322,-0.298013,0.878519,-0.431465,-0.205042
-0.313187,-0.100775,-0.815294,0.679542,-0.711289,0.179694
-0.149286,-0.891482,0.619825,0.243154,0.933245,0.264442
-0.458610,0.476163,0.814889,-0.572846,-0.300415,0.762626
-0.478825,-0.560500,0.554064,0.996257,-0.021643,-0.083690
0.642656,0.490103,0.744019,-0.534066,0.135664,-0.834487
-0.273982,-0.112307,0.644541,0.490508,-0.234948,-0.839167
0.023576,0.367298,0.903763,0.170047,0.063549,0.983385
-0.517528,-0.121687,0.564687,0.672288,0.671125,0.312441
-0.601283,0.113769,0.567998,-0.064855,-0.177888,0.981911
0.539620,0.054647,0.725628,0.199563,0.071387,0.977281
-0.216576,-0.148021,0.908942,0.834833,-0.423263,0.351997
-0.606193,-0.342341,-0.986259,0.046155,0.177901,0.982965
0.147981,-0.707143,0.722739,-0.276097,0.843966,-0.459883
0.532402,-0.488727,0.725804,-0.740993,-0.156738,0.652964
-0.965268,-0.162651,0.237396,0.367778,0.619160,0.693816
0.242644,0.283907,0.976377,0.399737,-0.913948,-0.070075
-0.113540,-0.080379,0.174118,-0.909136,-0.152419,-0.387607
-0.795950,-0.662049,0.499648,0.805870,-0.230425,0.545416
0.449003,0.970224,0.476694,0.379908,-0.644287,-0.663750
0.502795,-0.148796,0.930768,-0.337149,-0.595106,-0.729506
0.111954,-0.001722,0.972554,0.141837,0.144697,0.979257
0.066681,-0.344234,0.948754,0.848742,0.528446,0.019531
0.002924,0.287522,0.965349,0.445616,-0.060439,-0.893182
-0.917179,-0.378141,0.378836,0.894728,0.368998,-0.251600
-0.446191,-0.490620,-0.977839,0.169966,0.250009,0.953209
-0.533988,-0.833736,0.632474,-0.503176,0.323102,-0.801511
0.634931,-0.490189,0.657066,-0.257110,-0.485579,0.835528
-0.383805,-0.355422,0.862171,0.978445,0.071599,0.193696
0.192748,0.279432,0.944509,0.244966,-0.940927,-0.233770
-0.064155,0.079432,0.714142,-0.643513,-0.150612,-0.750471
-0.430233,-0.651549,0.626572,-0.219397,-0.520387,0.825265
-0.083506,0.024355,0.717630,-0.028527,-0.306452,0.951459
0.180113,-0.701464,0.755012,-0.086913,0.995701,-0.032038
-0.151379,-0.140533,0.917116,-0.676556,0.719815,0.155368
-0.477239,0.338899,0.366276,0.064535,0.766618,0.638852
0.381060,0.075904,0.765317,-0.327245,-0.070927,0.942274
0.038665,0.181928,0.895148,0.579209,0.266747,-0.770300
-0.504677,-0.416867,0.504157,0.419507,0.877076,0.233989
-0.592835,-0.603098,-0.981010,-0.123566,-0.073288,0.989626
-0.358170,-0.617040,0.517387,-0.344524,-0.716818,-0.606197
-0.773999,-0.091566,0.496072,0.347422,-0.307460,0.885870
-0.402720,0.206799,0.437762,0.482349,0.291156,-0.826177
-0.824036,-0.447848,0.410827,-0.571617,-0.192236,0.797684
0.030940,-0.447419,0.939488,-0.408822,0.828212,0.383313
0.219825,-0.390620,0.558503,0.669970,0.073966,-0.738694
-0.614425,-0.015060,0.623190,-0.306597,0.689513,0.656178
-0.115131,-0.327282,-0.420481,-0.013636,0.993999,-0.108538
0.218022,-0.025387,0.791266,-0.723734,-0.428103,-0.541237
-0.460704,0.127453,0.738435,0.165546,-0.260982,0.951043
0.345319,-0.775387,0.738312,-0.490819,0.310269,0.814143
-0.075561,-0.263511,0.798665,0.793278,-0.086970,0.602616
0.100976,-0.448623,0.735053,-0.243475,-0.897485,-0.367750
0.123218,0.294923,0.779111,-0.206080,-0.287353,0.935392
-0.083506,-0.108864,0.156308,-0.437961,0.894932,-0.085365
-0.304378,-0.582789,0.733309,-0.633485,-0.655632,-0.410905
0.386401,0.631584,0.761389,-0.707281,0.182417,-0.682992
0.626989,0.352151,0.701564,-0.187135,0.066119,0.980107
-0.385828,-0.432531,-0.975144,-0.362369,-0.425274,-0.829356
-0.753779,-0.276593,-0.988303,0.230539,-0.143275,-0.962457
-0.053614,-0.274699,-0.214089,-0.704894,0.669666,-0.233820
-0.417162,0.479174,0.827080,0.763162,0.139008,-0.631079
-0.081629,-0.254131,0.063771,0.971402,-0.236335,-0.022886
-0.102928,0.132185,0.415055,-0.461426,-0.259257,0.848452
0.268130,-0.748709,-0.981186,-0.195131,-0.010037,-0.980726
0.428788,-0.343803,0.772223,-0.487887,0.441719,0.752895
0.271091,0.355766,0.782194,0.340627,0.373324,0.862903
-0.166755,-0.897246,0.625233,0.832841,0.122085,-0.539880
-0.074622,-0.034682,0.345946,0.560351,-0.808800,0.178466
-0.119247,-0.159381,-0.022320,-0.679911,-0.732107,0.041719
0.172026,-0.323580,0.952577,0.197025,0.068100,0.978031
0.001263,-0.708348,0.676320,0.156261,0.982767,-0.098755
-0.563304,-0.530552,0.519801,-0.421079,0.732597,0.534784
-0.409798,-0.250688,0.864496,0.552415,0.376808,-0.743541
0.047259,-0.264717,0.932319,-0.661698,-0.109516,-0.741729
-0.624605,-0.412135,-0.989184,-0.059897,0.103885,0.992784
0.018089,-0.208262,0.764542,0.890257,0.313521,-0.330374
-0.046968,-0.294923,-0.200983,-0.647716,-0.749515,0.136714
-0.413191,0.490620,0.833879,0.819017,-0.332957,-0.467280
0.534204,0.499053,0.763978,0.926141,0.316009,-0.205917
0.042927,-0.533478,0.771694,0.093509,0.748731,0.656245
-0.360699,0.420310,0.971673,-0.366859,0.483506,-0.794755
-0.636447,0.144493,0.736797,0.989724,0.087349,0.113207
-0.165816,-0.802754,0.703273,0.797237,-0.074283,0.599078
0.661937,-0.143976,0.741007,-0.678493,0.036563,-0.733697
0.003356,-0.451120,-0.893193,0.721002,0.692283,0.030004
0.325607,-0.684940,0.762182,0.215305,-0.428017,0.877750
-0.149140,-0.146042,0.152627,0.320626,-0.947035,-0.017976
-0.526915,-0.028743,0.621076,-0.090943,-0.748950,0.656356
-0.517528,-0.627022,0.549466,0.738902,-0.160733,-0.654361
-0.513918,0.193889,0.747137,0.811124,0.242296,0.532326
0.788296,-0.369880,0.730014,0.804169,0.162764,-0.571682
0.129282,-0.146042,0.490575,0.543495,0.824366,-0.158220
0.065235,-0.510500,0.751277,-0.156194,-0.941871,-0.297460
0.549730,-0.773839,0.585421,0.162233,0.056237,0.985149
-0.123579,-0.265663,-0.053219,0.367529,0.556613,0.745053
0.194700,-0.572720,0.754536,0.050462,0.315451,0.947599
0.198094,-0.583993,0.713667,0.659905,0.403577,-0.633760
-0.531101,-0.185112,0.775957,-0.157992,0.232978,0.959562
-0.624028,-0.639932,0.409576,-0.010960,0.045352,0.998911
-0.347848,-0.101722,0.866099,0.036132,0.080408,0.996107
-0.091157,-0.384423,0.641986,-0.558358,-0.227342,-0.797842
-0.011156,-0.054475,0.410140,0.431296,0.874116,-0.223393
-0.409366,-0.343632,0.746380,0.942398,0.239090,-0.233926
-0.027185,-0.702926,0.664253,-0.158841,0.389100,0.907398
0.380483,-0.251119,0.937286,-0.309652,0.694880,0.649044
0.081122,-0.437953,-0.986453,0.130600,0.091388,0.987214
0.253472,0.780637,0.876722,0.819585,-0.278619,0.500651
0.003792,-0.859210,-0.952348,0.273065,-0.788003,0.551803
-0.007331,0.241480,0.867227,0.911005,-0.236828,0.337613
0.121125,0.065404,0.938308,-0.198763,0.138575,0.970201
0.115272,-0.475647,-0.983388,0.241019,0.477752,0.844786
-0.155852,-0.444493,0.798629,-0.669490,-0.426636,0.608083
0.073613,0.631584,0.888542,-0.003723,0.619860,-0.784704
-0.049568,-0.261102,-0.258711,0.893450,0.448850,-0.016772
-0.074697,-0.855853,0.589155,-0.409001,0.661785,-0.628298
-0.502725,-0.382875,-0.981133,0.187769,-0.366243,-0.911378
-0.505541,-0.794148,-0.981344,-0.101635,0.103222,0.989452
0.610670,0.210068,0.690942,0.066256,-0.385315,0.920404
0.089355,-0.464114,-0.983670,0.265662,0.337218,0.903166
-0.403082,-0.958692,-0.969084,0.001654,0.240344,0.970686
-0.389578,-0.336575,-0.987933,-0.035958,0.158378,0.986724
0.577314,0.798021,0.702762,-0.004114,0.055320,0.998460
-0.536518,-0.161876,0.595638,0.913651,0.211668,0.347042
0.102853,-0.345697,0.751735,-0.133185,0.889063,-0.437982
0.318242,0.013855,0.903939,0.120414,-0.512451,0.850232
0.182643,-0.364802,0.955149,0.181482,0.306829,0.934302
-0.202210,-0.490620,-0.837702,0.927580,-0.367169,-0.069157
-0.373405,-0.472720,0.756210,0.980613,-0.195803,-0.007703
-0.283656,0.290878,0.942642,-0.310494,0.817559,-0.484965
-0.166253,-0.387264,0.751030,0.258606,-0.039505,0.965175
0.675441,-0.163339,0.716274,0.416331,-0.044683,0.908115
-0.485542,0.093890,0.606948,0.672542,-0.167645,0.720821
-0.093325,-0.056283,0.945108,0.912641,0.321185,0.252838
0.162207,-0.460155,0.958831,-0.165080,0.809654,0.563213
-0.633706,-0.455508,-0.985960,0.118959,-0.318816,-0.940322
0.241631,-0.861532,0.731406,0.390091,-0.840383,0.376278
0.202135,-0.125215,0.867385,0.790049,0.262690,0.553910
-0.036285,-0.463855,0.414368,0.674916,0.490154,-0.551578
0.734067,-0.255507,0.719903,0.035157,0.114827,0.992763
0.133976,-0.070569,0.825001,0.056858,-0.617661,0.784386
-0.600851,-0.471084,0.517775,0.535977,0.153703,-0.830123
-0.625905,-0.302582,0.535497,0.479031,0.212392,-0.851715
-0.040758,0.542254,0.923599,0.947668,-0.204208,0.245407
0.477093,-0.287178,0.743209,0.722141,0.613492,-0.319593
0.546191,0.042685,0.697513,0.356664,0.511363,0.781856
-0.591394,0.036488,0.581651,0.880942,0.470875,-0.047100
0.076138,-0.012307,0.523077,0.738625,0.632495,-0.233203
-0.626342,-0.608004,0.626925,0.735758,0.361303,0.572817
-0.274198,-0.024699,0.824155,0.819634,0.570092,-0.056524
-0.537386,-0.390104,0.482419,-0.478212,0.448817,0.754901
0.058594,-0.431153,0.899905,-0.519715,-0.808377,-0.276445
-0.268350,-0.536145,0.762411,0.208039,0.135796,0.968648
0.304453,0.658520,0.866082,0.482788,0.082771,-0.871817
-0.304378,0.451377,0.965648,-0.629930,-0.353641,-0.691466
-0.665330,0.325904,0.749885,0.217720,0.142665,0.965528
-0.846781,-0.557143,0.520858,0.834964,0.282715,0.472130
0.138017,-0.484510,0.896346,0.176691,-0.981734,-0.070564
-0.468936,-0.281153,0.527305,0.462527,0.811024,0.358203
0.027546,-0.315060,0.946429,0.541412,-0.154996,-0.826347
-0.216219,0.274268,0.513071,0.443634,0.634107,-0.633322
0.348858,0.551893,0.855688,0.850765,-0.107254,0.514487
0.728510,-0.246730,0.720361,0.035157,0.114827,0.992763
-0.822375,-0.687350,0.410985,0.871640,0.048144,-0.487776
0.771324,0.546042,0.732833,0.694497,-0.125529,0.708461
0.035056,-0.585887,0.793256,0.433319,0.823757,-0.365595
0.541859,0.192857,0.724377,0.951071,0.190233,-0.243464
-0.067765,0.183305,0.657841,-0.434418,-0.623711,0.649820
0.591826,-0.476679,0.790861,0.116239,-0.981536,0.151908
0.201848,-0.416351,0.949195,0.068645,0.401023,0.913492
-0.077006,-0.410413,-0.491121,-0.258235,0.839418,-0.478218
0.366332,0.695956,0.754201,0.020676,-0.122948,0.992198
-0.064516,-0.741223,0.634006,0.288073,-0.932184,0.219197
-0.138815,0.382616,0.946482,0.798020,0.474290,0.371770
0.244522,-0.456971,0.959289,0.174716,0.979474,-0.100522
0.039895,-0.053701,0.514974,0.792909,0.263803,-0.549275
-0.139246,0.498796,0.950974,0.061104,-0.962146,0.265595
0.275785,0.117212,0.931878,0.780171,0.612778,0.125846
0.026678,0.597160,0.886816,-0.009990,-0.607414,0.794323
0.441639,0.716179,0.755435,-0.280111,0.202239,-0.938423
0.446333,-0.198194,0.848113,0.342501,0.128644,0.930668
-0.112170,-0.498709,-0.633214,0.685968,0.707485,-0.170040
-0.095850,0.354733,0.921925,0.767057,-0.621261,0.160179
-0.295427,0.174096,0.961279,0.872487,0.252640,0.418258
-0.397308,0.294233,0.579114,0.299936,0.842271,0.447904
-0.014479,-0.109036,0.939946,0.350145,-0.482625,0.802790
-0.617387,0.121772,0.749093,0.855337,-0.009753,-0.517981
-0.259470,-0.027109,0.851707,0.847120,0.408719,0.339612
-0.103506,0.262908,0.891872,0.043096,0.833830,0.550336
-0.120618,-0.429518,-0.765106,0.403000,0.612962,-0.679609
0.097080,0.363511,0.971004,0.232001,0.960864,-0.151381
0.582725,0.600860,0.738541,0.007115,-0.328631,0.944432
-0.392756,-0.692428,0.606684,0.343890,-0.929973,0.129963
0.814720,0.039329,0.679297,-0.371816,0.377862,-0.847923
-0.048127,-0.312393,-0.443716,0.074072,-0.997252,0.001565
0.106322,0.270999,0.692492,0.993124,0.066080,0.096638
-0.549007,-0.232100,-0.991949,-0.092411,0.186080,0.978179
-0.840355,-0.652066,0.347867,0.935524,0.336375,-0.107917
0.111086,0.210930,0.951291,-0.139624,0.782660,-0.606587
-0.142494,-0.169536,0.826604,-0.655528,-0.394306,0.644054
-0.005163,-0.751377,-0.969136,0.055353,0.268979,0.961554
-0.713420,-0.393976,0.499524,-0.099627,0.390754,0.915088
0.431604,0.173321,0.878343,0.622432,0.525849,-0.579708
0.509366,0.596472,0.731741,0.876423,0.435523,-0.205433
-0.310587,0.184165,0.699803,0.447765,-0.122656,0.885699
-0.215206,-0.260500,-0.983282,-0.119884,-0.032311,0.992262
-0.366838,-0.700086,0.643413,0.468119,0.786401,-0.403035
0.605109,0.420482,0.730279,0.175091,-0.984481,0.011878
-0.072313,-0.729432,0.675334,-0.371938,0.448390,0.812778
0.150727,0.292513,0.954779,0.741891,0.668766,0.048480
-0.178597,-0.386919,0.929165,-0.506195,0.835450,-0.213985
-0.775947,-0.671945,0.407374,0.646338,0.049229,-0.761462
0.037149,-0.742170,-0.974738,0.063906,0.153392,0.986097
-0.664683,0.338812,0.748758,0.109150,0.292085,0.950143
-0.776960,0.325388,0.546982,-0.543250,0.838841,-0.035002
-0.334777,0.230895,0.792746,-0.293277,-0.951309,0.094870
0.400557,-0.602841,0.745499,0.449580,0.612542,-0.650131
0.037436,-0.091137,0.592397,0.334562,-0.858108,0.389511
-0.061194,-0.302410,-0.280855,0.991319,0.112775,-0.067592
-0.235496,0.442771,0.962160,0.249558,-0.291963,0.923298
-0.307123,0.134854,0.975425,-0.427508,0.137824,-0.893444
0.161123,-0.381068,0.743914,0.133270,-0.672428,0.728065
0.220984,0.727539,0.866945,0.958263,-0.191059,-0.212668
-0.082709,-0.591481,-0.929923,0.075559,0.761234,-0.644061
0.178742,-0.504991,0.737995,0.080123,0.864270,0.496607
0.530740,-0.535026,0.669749,-0.164630,0.349067,-0.922523
-0.478393,-0.857229,0.535814,-0.970319,0.241798,-0.003802
-0.122566,-0.196901,0.619279,-0.460443,0.613350,-0.641712
-0.949962,-0.143718,0.239809,-0.132407,0.722592,0.678476
0.304378,-0.291394,0.921414,0.882295,0.467271,-0.056683
0.682805,0.113683,0.682785,-0.526823,-0.246566,-0.813427
-0.646050,-0.053184,0.472695,0.936370,0.108294,0.333890
0.517166,0.612736,0.753303,0.425736,-0.211031,0.879895
-0.026537,-0.119621,0.391837,0.926079,-0.088057,-0.366912
-0.684898,-0.170826,-0.992284,-0.016688,0.219240,0.975528
-0.447848,0.060413,0.611317,0.103384,-0.694380,-0.712143
0.360122,0.376334,0.900944,0.112996,0.275894,0.954523
0.273546,-0.465921,0.953405,0.654419,-0.716566,0.241389
0.336293,0.741996,0.456083,-0.652469,-0.048719,0.756248
0.482796,-0.798021,0.581651,0.008418,0.204119,0.978910
-0.237951,-0.084337,0.076718,-0.389303,-0.895511,0.215648
0.199248,-0.066093,0.735105,0.739430,0.453998,-0.497121
0.316219,0.555680,0.845788,-0.249407,-0.800215,0.545392
0.272753,0.828658,0.850826,-0.899817,0.419411,-0.120094
-0.056932,-0.459639,-0.621252,-0.089975,-0.830442,0.549792
0.251454,-0.755422,-0.978561,0.074881,0.143161,0.986863
-0.197084,-0.472375,0.738135,-0.423160,-0.902662,0.078345
-0.513628,0.366437,0.787655,-0.587947,0.454856,-0.668897
-0.081629,-0.106197,0.952031,0.988140,0.150165,-0.032080
0.148127,0.292513,0.975302,-0.610246,0.277170,-0.742143
0.358531,-0.160844,0.847321,0.017027,0.307885,0.951271
0.503518,-0.391480,0.792411,-0.477224,-0.823370,-0.307114
-0.549659,-0.018073,0.543530,0.405726,0.854923,-0.323253
-0.252463,0.073149,0.508649,0.113810,0.228190,0.966942
0.042059,0.412651,0.952542,0.340539,-0.605863,0.719002
-0.554498,0.255250,0.573547,0.253185,-0.258294,-0.932299
-0.029930,0.294148,0.943840,-0.359403,0.426823,0.829850
-0.092748,-0.069278,0.379171,0.857390,-0.020632,-0.514254
0.118595,-0.780121,0.673414,0.150302,0.959529,0.238144
-0.455287,-0.684768,0.583642,0.668428,0.597982,0.442291
-0.239682,-0.058950,0.918261,0.947917,0.316476,-0.035989
-0.238960,-0.742686,0.718159,0.827783,0.200977,-0.523817
0.356077,-0.409812,0.884878,-0.279767,-0.954873,0.099743
-0.307339,-0.305680,-0.989554,-0.015591,0.270656,0.962550
-0.594712,-0.140276,0.452454,0.954219,-0.224616,-0.197516
-0.264018,-0.590965,0.493394,-0.304364,0.931868,0.197445
-0.682372,-0.467987,-0.986136,0.022660,0.266053,0.963692
-0.096287,-0.700345,0.628827,-0.698075,0.465105,-0.544397
-0.371818,0.218760,0.442272,-0.641898,-0.203672,0.739246
0.161123,0.055163,0.919424,0.938406,0.162596,0.304887
0.634208,-0.283391,0.774249,0.810872,0.110055,0.574782
0.198958,-0.683993,0.756632,-0.367624,-0.911453,-0.184678
-0.390231,-0.299398,-0.986999,0.134224,-0.120412,-0.983608
0.231309,0.486574,0.860585,-0.511790,0.455045,0.728701
-0.201125,0.416523,0.946781,0.848101,0.434603,0.303058
-0.229793,-0.103529,0.730472,-0.118448,-0.205841,0.971391
0.005886,0.036660,0.481767,0.232959,-0.940108,0.248853
0.432327,0.226161,0.783708,-0.139424,-0.921408,-0.362724
0.036933,0.332961,0.942906,-0.161550,-0.253668,0.953706
0.624028,0.375990,0.711024,0.319278,0.212289,-0.923577
0.134769,0.453958,0.793732,0.190092,0.088941,0.977729
-0.280262,-0.591395,0.609097,0.277808,0.261139,0.924462
-0.259973,0.407487,0.764401,-0.353928,-0.812585,0.463077
-0.575506,0.361962,0.547123,-0.196420,0.787427,0.584275
0.302355,-0.006454,0.907198,0.943163,0.199972,0.265433
0.641573,0.407056,0.715675,0.524454,0.828156,0.197751
0.686630,-0.451120,0.781489,0.027767,0.916762,0.398469
-0.113761,-0.725818,0.708346,-0.532345,0.372262,-0.760283
-0.882954,-0.547161,0.506624,0.461403,0.285114,0.840130
0.217009,0.350516,0.869129,0.233688,-0.226343,0.945600
0.700058,-0.804820,0.566959,-0.409516,-0.073870,-0.909307
0.386908,-0.231411,0.964415,0.222913,0.001204,0.974838
-0.191955,-0.135026,0.831431,-0.703604,0.435070,0.561833
-0.277662,-0.610844,0.472078,-0.597905,0.593557,-0.538702
0.102276,-0.391826,-0.985238,-0.037385,-0.026210,0.998957
-0.601283,-0.233735,0.742680,0.816323,0.234802,0.527716
0.624967,-0.618675,0.747560,-0.219189,0.812956,-0.539498
0.275137,0.682014,0.744742,-0.515488,0.218707,0.828517
-0.837610,0.296299,0.555385,-0.634370,0.457777,0.622909
0.245315,0.599570,0.856199,0.331776,-0.345226,0.877920
0.202496,0.286231,0.864813,0.107661,-0.605732,0.788351
-0.131234,-0.207918,-0.161347,-0.631379,0.755843,0.173380
-0.203796,0.034079,0.962935,0.629253,-0.046590,0.775803
0.263296,0.248794,0.869394,0.047647,-0.387031,0.920835
0.280188,-0.389416,0.944509,0.252148,0.220353,0.942266
0.511459,-0.723581,0.583007,-0.099651,0.034032,0.994440
-0.300552,-0.763426,-0.962707,-0.252978,-0.536958,0.804785
-0.419401,-0.593718,0.579009,0.912558,0.000251,0.408947
0.164300,-0.043545,0.963904,-0.302872,0.651170,-0.695878
-0.012240,-0.477022,-0.441074,0.844222,0.489719,-0.217862
-0.048629,-0.053787,0.432389,0.463538,0.830323,0.309349
0.189500,-0.745096,0.714565,0.737797,-0.087157,-0.669372
-0.644463,-0.179777,0.467304,-0.839413,0.436370,-0.323985
-0.211090,-0.033822,0.898284,0.718343,0.591350,0.366454
0.377014,0.676334,0.771060,0.003687,0.627303,0.778767
-0.301275,-0.475388,0.726421,-0.321239,-0.711628,-0.624812
