-0.536949,-0.000494,0.247972,0.393328,-0.233069,0.889366
-0.233381,0.607737,0.380524,0.233891,0.237289,0.942862
0.267146,0.133983,0.444794,0.407528,0.431936,0.804582
0.232027,0.616985,0.804727,-0.165804,0.960946,-0.221567
0.166859,0.347855,0.683315,-0.486278,-0.134171,-0.863442
-0.799931,0.169347,0.310850,-0.817737,0.566844,0.099971
-0.145388,0.537764,0.514070,0.580686,0.727676,-0.365091
-0.722119,-0.474887,0.249389,0.834591,-0.124975,0.536507
-0.229670,0.061976,0.393453,0.249053,-0.059515,0.966659
-0.511715,-0.206630,0.049864,-0.858847,0.217116,-0.463941
0.481114,0.629199,0.523687,0.281353,-0.452815,0.846049
-0.278383,0.277185,0.583175,-0.409073,-0.833169,-0.372140
-0.404003,0.030160,0.620555,-0.117755,-0.992196,0.040997
0.493502,0.029460,0.439827,-0.242095,-0.223730,-0.944105
-0.803391,-0.148639,0.339502,0.346357,0.937750,0.025732
0.033514,0.553062,0.675274,0.780238,0.390867,0.488316
0.395977,0.557831,0.397585,-0.215318,0.317190,-0.923595
0.458537,-0.350356,0.238779,0.470582,-0.207035,-0.857723
0.023480,0.378741,0.815947,0.954494,-0.293973,-0.050221
0.098481,0.276429,0.115896,0.864984,0.411933,0.286554
0.156726,0.136484,0.599852,0.763912,0.109434,-0.635974
0.185522,0.759605,0.711688,-0.202058,-0.979318,-0.010461
0.195807,0.724240,0.713674,0.917773,-0.190591,0.348378
-0.860635,-0.461567,0.278636,0.610739,-0.050977,0.790190
-0.126676,0.817596,0.695236,0.145691,-0.687002,0.711900
-0.300859,0.030043,0.688838,-0.201595,-0.529722,0.823865
-0.023528,0.464534,-0.973654,-0.263633,0.077612,0.961496
-0.202779,0.121827,0.749598,0.941948,0.237293,0.237542
0.473186,0.261075,0.748180,0.858035,0.125321,-0.498067
-0.097326,0.327264,0.408884,-0.279147,0.574675,-0.769302
0.042090,0.601222,0.572711,-0.047951,0.915397,0.399686
-0.009884,0.714295,0.790899,0.104459,0.920870,-0.375615
-0.030703,-0.504667,0.084211,-0.114210,-0.113836,-0.986913
0.351728,0.067849,0.274040,-0.298223,-0.209631,0.931192
-0.278031,0.314818,0.144163,0.251666,-0.946368,0.202612
-0.350825,-0.290503,0.272172,0.599280,0.622071,-0.503876
0.213616,0.817652,0.654836,0.273958,0.806390,-0.524101
-0.089399,-0.195288,0.569942,-0.720118,0.610119,-0.330432
0.608389,-0.206280,0.368576,0.566636,0.635700,-0.524223
0.383735,-0.490649,0.489738,0.196668,-0.894346,0.401830
-0.465610,0.108333,0.657233,0.567623,0.172551,0.805003
-0.588122,0.435626,0.336693,0.459098,-0.868494,0.186944
0.337480,-0.279219,0.587334,-0.490874,0.386816,0.780651
0.420510,0.335990,0.322003,-0.006568,-0.435962,0.899941
-0.380324,-0.043419,0.491155,0.508125,0.258474,0.821584
0.069131,0.001134,0.784488,0.561721,0.660902,0.497673
-0.439271,0.103505,0.643153,-0.697177,0.499514,-0.514227
0.192194,0.406487,0.729172,0.169820,-0.492601,0.853525
-0.420761,0.692133,0.451841,-0.234089,-0.388987,0.891006
-0.393016,0.651185,0.687885,0.583693,-0.397435,0.708059
-0.266092,-0.369434,0.579930,0.745372,0.626369,0.228217
0.443285,0.700045,0.731133,0.746632,-0.515244,0.420791
0.254151,-0.194473,0.749651,-0.794635,0.271052,0.543218
-0.229520,0.341167,0.737319,-0.108911,-0.976889,0.183921
0.033664,0.467559,-0.446741,-0.428825,0.890846,0.150008
0.386145,0.688237,0.714045,-0.599347,-0.471724,0.646730
-0.071691,0.454704,0.484545,0.299901,0.946917,-0.115791
0.150354,0.293762,0.874653,0.722152,0.657648,0.214466
0.311493,0.419572,0.532906,0.050212,0.596487,0.801051
-0.407916,0.354195,0.514693,-0.645736,-0.061979,0.761041
0.318719,0.172080,0.740405,0.199223,-0.954336,-0.222603
0.545829,0.345297,0.663552,0.629515,-0.204949,-0.749471
-0.357950,0.230421,0.600792,-0.106985,0.528164,0.842376
0.320174,0.427367,0.639126,0.122333,-0.409427,0.904104
0.223800,0.542069,0.455960,0.906215,0.382097,-0.181043
-0.000603,-0.237807,0.548815,0.566686,0.120562,0.815065
-0.040936,0.757104,-0.970965,0.344316,-0.107682,-0.932658
0.153563,-0.466860,0.283643,-0.756978,0.641665,0.123490
0.271460,-0.439057,0.483671,0.804375,-0.347934,0.481583
0.654041,0.636878,-0.945175,-0.128726,-0.019489,0.991489
-0.003059,0.531482,-0.971932,0.179688,0.092957,-0.979322
0.193348,0.495420,0.839127,-0.546222,-0.163770,0.821475
-0.437767,0.099492,0.649339,0.837961,-0.213896,0.502066
0.422065,0.672531,0.717940,-0.054313,-0.842864,0.535379
-0.327697,0.886636,0.372855,0.913766,-0.156895,-0.374720
-0.010986,0.487102,0.871633,-0.139862,0.845966,0.514569
0.132392,0.686492,0.744485,0.330302,-0.919015,0.215201
-0.809864,0.149512,0.302373,0.410614,-0.700444,0.583759
0.183314,-0.367631,0.491923,0.760594,0.539095,-0.361764
-0.430293,0.680210,0.530999,-0.383207,0.011553,-0.923590
0.209451,0.546023,0.848479,-0.184896,-0.703298,0.686429
-0.107308,-0.530783,0.258410,0.238411,-0.896544,-0.373322
0.374855,0.418816,0.424845,0.033243,0.240235,0.970146
-0.219838,0.511183,0.615840,-0.460032,-0.836655,0.297288
-0.996690,-0.054354,0.307234,-0.387137,0.119028,-0.914307
-0.304067,0.489138,-0.980992,-0.128956,0.103960,0.986186
0.287965,0.313888,0.429270,0.426842,-0.230826,0.874371
0.127126,0.560274,0.843843,-0.667219,-0.437377,-0.602926
0.337832,0.292367,0.639139,-0.628310,-0.124957,0.767862
0.018161,0.370888,0.246780,0.712133,0.645375,-0.276329
0.141625,0.559691,0.831630,0.960440,0.082424,-0.266011
-0.460243,-0.182200,0.219678,0.115648,-0.096832,0.988559
-0.090253,-0.721913,0.302188,0.568400,0.619621,-0.541287
0.118246,0.768794,0.640199,-0.331185,-0.517483,0.789004
-0.312396,0.025390,0.663790,0.025413,0.964882,0.261453
0.137059,0.567951,0.805959,-0.790800,0.571337,-0.219566
-0.556767,0.966148,0.431230,0.661019,0.750226,0.014672
-0.505092,-0.052785,0.490771,-0.523387,0.629805,-0.573944
0.653790,0.427367,0.685778,-0.575910,-0.759184,0.303260
-0.286109,0.629373,0.441006,0.866284,0.448250,0.220508
-0.201074,0.423062,0.810423,-0.369308,0.873046,-0.318437
-0.035369,0.533692,0.761254,0.441841,-0.035593,-0.896387
0.262280,-0.429692,0.655286,-0.550758,0.538191,0.637978
0.200271,0.380544,0.546868,0.175883,0.715758,0.675837
-0.026490,0.448016,0.751280,-0.322271,0.928644,0.183745
0.246927,0.231236,0.392976,-0.236486,-0.887741,0.394956
-0.000251,0.398692,-0.510031,0.958467,-0.257938,0.121690
0.089800,0.345354,0.938870,0.987229,0.145643,-0.064561
-0.272161,0.779090,0.472624,0.369359,-0.003514,-0.929280
0.028345,-0.763734,0.307950,-0.136788,0.519278,0.843587
-0.598205,0.684280,0.569810,0.709635,-0.343171,0.615347
-0.318416,-0.266190,0.405533,0.666262,0.504474,-0.549182
-0.385392,0.182608,0.283471,0.306062,-0.951964,0.009574
-0.563136,0.553876,0.325421,0.766596,0.635473,-0.092223
-0.362463,0.689574,0.565068,-0.389069,0.671217,-0.630946
-0.005619,0.462557,-0.496838,0.821231,-0.568718,-0.046257
-0.751517,-0.008346,0.513236,0.784270,0.534941,0.314258
0.379121,0.819282,0.606501,-0.302923,0.110820,-0.946550
-0.178950,-0.017420,0.205863,0.599091,0.271805,-0.753134
0.241106,0.083962,0.763387,0.948163,-0.076568,-0.308422
0.076106,0.932704,0.800648,-0.353825,-0.763191,0.540692
0.021572,0.448016,-0.843962,0.963639,-0.247851,-0.099846
0.503286,0.335234,0.422633,-0.088530,-0.321371,0.942806
0.032056,0.459706,-0.341952,-0.298914,0.910274,0.286449
-0.243767,0.711968,-0.978197,-0.071303,-0.157355,0.984965
0.909346,0.033824,0.402089,-0.670920,0.468517,0.574769
-0.458485,-0.370656,0.222910,-0.414327,-0.400912,0.817070
0.025286,0.399332,-0.252462,-0.590650,0.802622,-0.083247
0.325740,-0.511472,0.528469,0.888099,0.406630,0.214317
0.371144,-0.390896,0.523581,0.144057,0.221166,0.964538
0.338433,0.580690,-0.959189,-0.337443,0.065913,0.939036
-0.561280,0.123281,0.689580,-0.590583,0.454736,-0.666654
0.061155,0.621637,0.790515,-0.072617,-0.847421,0.525931
0.310590,0.170162,0.413719,0.448639,0.864540,0.226480
0.489090,0.386070,0.736670,0.795316,-0.323175,-0.512865
-0.190638,0.092803,0.493725,0.670108,0.441907,-0.596383
0.009731,0.434870,-0.787958,-0.219830,0.975010,0.032093
0.084735,0.362687,-0.637510,0.739495,-0.669753,0.067659
-0.425826,0.110893,0.637166,-0.469683,0.684329,-0.557756
0.172578,0.332092,0.894562,0.993959,-0.081493,-0.073517
0.335726,-0.258630,0.586990,0.381802,-0.454847,-0.804575
-0.215321,0.060464,0.668784,0.918392,-0.048361,-0.392706
-0.218230,0.799565,0.423587,0.679961,0.649348,0.340589
0.265841,0.776065,0.465762,-0.131393,-0.699015,0.702933
0.394624,-0.230070,0.585625,-0.025171,0.463722,0.885623
0.195556,-0.069827,0.720019,-0.055323,0.003403,0.998463
-0.103447,-0.605525,0.398552,0.252198,0.543130,0.800878
-0.802086,-0.181270,0.389320,0.398489,0.334453,0.854019
0.054434,0.377578,-0.127539,-0.581831,0.796616,0.163939
-0.771785,-0.368561,0.222606,-0.741785,0.126235,0.658650
0.327296,-0.296261,0.528601,0.947508,-0.173143,0.268794
0.300105,0.781417,0.262542,0.658005,0.752674,0.022592
-0.418804,0.500829,0.761214,0.747345,0.474410,0.465199
0.254754,0.125899,0.445125,0.393909,0.410363,0.822458
0.272563,0.844757,0.238872,0.494058,0.857540,0.143288
-0.327899,0.159460,0.307234,0.322248,-0.029148,0.946206
0.170723,0.612971,0.802290,-0.383778,0.895912,-0.223733
-0.147644,-0.219426,0.307473,-0.170239,0.040048,0.984589
-0.068329,0.268693,0.751876,0.865574,-0.085647,-0.493403
0.335475,0.843013,-0.955480,0.159835,0.122589,-0.979502
0.276929,0.021610,0.688004,-0.509396,-0.681405,0.525550
-0.146490,-0.065114,0.449589,0.045063,0.723392,-0.688965
-0.246976,0.597383,0.648478,0.138212,0.962488,-0.233484
-0.105655,0.019806,0.744855,0.849535,-0.219641,0.479633
-0.034215,0.708828,0.792568,0.359798,0.791066,-0.494733
-0.643204,0.005613,0.473048,0.763941,0.142123,0.629440
-0.537553,-0.315166,0.115763,-0.326491,0.336267,0.883362
0.031655,-0.720401,0.336534,0.807728,0.379482,-0.451187
-0.338185,-0.055634,0.753426,-0.446335,0.894823,0.008747
0.529273,0.248278,0.667327,-0.596321,0.716768,0.361448
0.909698,-0.077854,0.401758,-0.081564,-0.579723,0.810721
-0.619575,0.644264,0.571174,0.382986,-0.675763,0.629815
-0.161791,0.391305,0.898973,0.906352,-0.237744,0.349289
-0.656249,-0.219892,0.463471,-0.238913,-0.905588,-0.350471
0.114385,0.484660,0.789905,0.877968,-0.468953,0.096203
0.527368,0.271135,0.328666,-0.113292,0.019288,-0.993374
-0.123914,0.516591,0.686984,-0.137535,0.115044,0.983793
-0.588924,0.908624,0.535171,0.570202,-0.652311,0.499360
0.101090,-0.374319,0.350602,0.170738,0.499497,0.849324
-0.645464,-0.157598,0.214950,0.691945,-0.034869,-0.721108
-0.223047,-0.388860,0.626357,-0.418125,-0.743544,-0.521836
0.425575,-0.192904,0.498043,0.376930,-0.600765,-0.704987
-0.430893,-0.328835,0.384233,-0.336587,-0.603222,0.723071
-0.317715,0.427019,0.396406,0.757359,0.640390,0.127702
-0.338384,0.729825,0.679288,-0.572790,-0.210859,-0.792117
-0.085838,0.065057,0.525806,0.952977,0.031908,-0.301360
0.239303,-0.123396,0.726854,-0.120698,0.377948,0.917926
0.030452,0.708304,0.801509,0.146448,-0.905505,0.398264
-0.236192,0.550443,0.604395,-0.379132,-0.905342,0.191348
-0.063463,0.086056,0.336375,0.924176,0.003469,0.381952
0.242313,-0.018292,0.715900,0.388188,0.427804,0.816268
-0.126275,0.301847,0.885064,0.232451,-0.846613,0.478762
-0.053129,0.200059,0.350125,0.917083,-0.281731,0.282111
-0.283601,0.714875,0.562432,0.243623,-0.561281,0.790956
0.779963,0.423644,-0.939731,-0.106191,0.013320,0.994257
0.303516,-0.066162,0.593811,-0.111563,0.977537,-0.178816
-0.770131,0.039931,0.491274,0.601492,0.798156,0.033985
-0.553105,0.622278,0.556683,-0.493113,0.854738,-0.162057
0.303115,0.686143,0.522402,0.772150,0.333956,0.540609
-0.046457,0.750472,0.658717,-0.127672,-0.523672,-0.842299
0.010484,0.480238,-0.579612,-0.627867,0.775383,0.067559
0.017610,0.407649,0.974846,-0.213268,0.822979,-0.526518
0.487535,0.789967,0.724735,0.522260,0.830203,0.194956
0.201775,0.507808,0.771308,0.587478,-0.557646,0.586430
0.074649,0.857030,0.782527,-0.111640,-0.818513,0.563536
-0.091355,-0.027890,0.356337,-0.606146,0.400808,-0.686979
0.079668,-0.282593,0.389399,0.767420,0.475515,-0.430061
0.171877,0.334013,0.423998,-0.300088,0.044639,-0.952867
0.321628,0.371412,0.709237,0.283969,-0.102610,-0.953327
-0.475293,0.143813,0.106822,0.382903,0.008496,0.923749
-0.172327,0.520198,0.589255,-0.476953,-0.849754,0.224576
-0.212513,-0.799563,0.281564,-0.250570,0.750816,0.611138
0.506697,0.662992,0.716748,-0.208958,-0.506293,0.836662
-0.772538,-0.414918,0.260052,-0.643802,-0.046837,-0.763758
-0.222394,0.171616,0.100146,-0.523596,0.291176,0.800664
-0.585562,0.334885,0.118134,-0.194324,0.245627,-0.949687
-0.144083,0.146605,0.716906,0.344506,-0.662675,0.664964
0.138716,-0.073897,0.743160,-0.598635,0.628778,0.496260
0.095520,0.466396,0.753717,-0.010775,-0.480113,0.877140
-0.145538,-0.120721,0.390869,0.800956,0.004992,0.598703
0.068629,-0.480295,0.364126,-0.632805,0.166247,-0.756253
0.109868,0.801716,0.645312,0.162848,0.025730,-0.986316
-0.082224,0.201163,0.747452,0.853533,0.185090,-0.487055
-0.138967,0.019980,0.761652,-0.554423,-0.575693,-0.600993
-0.329755,0.784150,0.576618,-0.339851,0.517044,-0.785600
-0.011287,0.606050,0.860374,-0.107582,-0.757727,0.643642
0.597351,0.386594,0.661287,0.438113,0.387350,-0.811182
0.041438,0.300974,0.741253,0.348216,-0.399610,0.847973
0.095119,0.220997,0.241945,0.483488,0.503211,-0.716253
0.207596,-0.430739,0.351741,-0.194266,0.435162,0.879144
0.027742,0.404916,0.777467,-0.412391,0.464460,0.783716
-0.307531,0.664563,0.616330,0.416851,0.888550,-0.191609
-0.322881,-0.252522,0.408632,0.441575,0.658899,-0.608986
-0.022426,0.361699,0.884905,0.131977,0.817334,0.560845
0.767121,-0.168300,0.271550,-0.160957,-0.631861,0.758185
-0.011538,0.399564,0.666280,0.804837,0.387286,0.449719
0.342747,-0.091754,0.370630,0.273372,-0.067779,-0.959517
-0.684091,-0.189006,0.349237,0.221175,-0.049827,0.973960
0.295892,0.273928,-0.955719,-0.058734,-0.375909,-0.924793
-0.083229,-0.069651,0.218075,-0.258492,0.030507,0.965532
-0.086441,0.227047,0.850347,-0.773462,0.434687,-0.461307
-0.201677,0.489894,0.378100,0.235179,0.192202,-0.952759
0.357650,0.093966,0.616065,-0.686001,0.320742,-0.653091
-0.514523,-0.139856,0.522892,0.944644,-0.035426,0.326179
-0.897257,-0.156375,0.289273,-0.515718,0.350247,-0.781897
0.188633,-0.152129,0.614409,-0.722380,-0.461927,-0.514578
0.552250,0.315109,0.657233,-0.537355,0.843171,0.017663
-0.392015,0.719703,0.576459,-0.537096,0.663475,-0.520892
-0.044699,0.441734,0.767705,-0.645738,0.762813,0.033758
0.037978,0.013524,0.548325,-0.755054,0.285588,0.590197
0.674511,0.408929,0.313844,0.626720,0.204905,0.751822
-0.532886,-0.122466,0.437151,-0.328946,0.792964,-0.512839
-0.582102,0.529620,0.372921,0.266702,-0.162067,0.950055
0.064116,0.344830,-0.965295,-0.520798,-0.334304,0.785500
0.474438,0.215239,0.655551,0.888754,0.428979,-0.161534
0.076759,0.433358,0.653167,-0.322970,0.910363,-0.258707
0.992023,0.034986,0.437628,0.676259,-0.062325,-0.734023
0.051372,0.156086,0.689527,0.436857,-0.491920,-0.753107
0.296795,0.242577,0.696534,0.843013,-0.213142,-0.493862
-0.340842,-0.250545,0.423733,0.416064,0.554117,-0.721003
-0.271108,0.676312,0.169118,0.041633,-0.355822,0.933626
-0.361863,0.448248,0.546629,0.505408,0.558259,0.657959
-0.407114,0.557657,0.538377,-0.274843,-0.887709,0.369370
0.046105,0.001310,-0.505686,0.955176,-0.222580,0.195185
-0.617119,0.705686,0.581082,0.950938,-0.187349,0.246208
0.376059,0.122466,0.274623,0.242057,0.251345,-0.937141
-0.006121,0.338783,0.886310,0.247586,0.788231,0.563376
-0.492902,0.896060,0.213969,0.392234,0.008115,-0.919830
-0.790650,-0.195288,0.360271,-0.774976,-0.625727,-0.088754
-0.182561,0.262353,0.813470,-0.266523,-0.821768,-0.503650
0.307029,-0.005845,0.707422,0.043976,0.730732,0.681247
0.162645,0.606398,0.706787,0.803416,-0.386034,0.453321
-0.394722,0.451332,0.759969,0.810217,0.535960,0.237269
0.162945,0.718191,-0.431243,0.893879,-0.436184,0.103553
0.264938,0.111764,0.376113,0.488036,0.713561,-0.502645
-0.699846,-0.012069,0.494056,0.155606,0.238675,0.958552
-0.040385,-0.865813,0.313765,0.651026,-0.299412,-0.697508
0.162394,0.369086,0.900602,0.516530,0.695519,-0.499450
-0.014949,-0.416372,0.244647,0.398897,-0.556849,-0.728560
-0.000952,-0.113974,0.173423,0.075032,-0.879819,0.469349
0.013948,0.497224,0.831498,0.104290,-0.324601,0.940084
0.024181,0.656595,0.576446,-0.062311,0.915434,0.397615
-0.110569,0.156203,0.680440,-0.144357,0.743616,0.652837
-0.115236,0.522234,0.549159,0.193723,0.079028,0.977868
-0.113932,0.160796,0.730033,0.455580,0.171938,-0.873432
-0.296192,-0.172778,0.218989,0.090395,-0.105056,0.990349
0.755081,-0.063313,0.389757,0.241570,-0.732361,0.636625
0.211307,0.471805,0.491738,0.276476,-0.726762,0.628791
-0.077711,0.055577,0.536072,-0.758861,-0.112965,-0.641380
-0.320523,0.658805,0.639894,-0.600252,-0.735497,0.314234
-0.029799,0.384675,0.125248,0.216587,0.940113,-0.263206
-0.195204,-0.816199,0.290505,-0.236901,0.789000,0.566883
-0.490091,0.373506,0.114161,-0.406308,0.203432,-0.890803
0.323585,0.477272,0.508944,-0.101841,0.325837,0.939925
0.402600,0.588193,0.397718,-0.127513,0.303767,-0.944175
0.038480,0.220882,0.761307,-0.670005,0.376196,-0.639976
-0.124817,0.168301,0.872891,-0.425232,-0.553149,-0.716382
0.373202,0.682246,0.261032,0.399997,0.895455,0.195352
-0.008880,0.424574,0.883263,0.026090,0.993605,-0.109854
0.570561,-0.033241,0.389346,-0.275623,-0.139295,-0.951120
-0.617217,0.563124,0.381438,0.298111,0.384583,0.873628
-0.009633,0.761000,0.755320,-0.585541,0.613250,-0.530157
-0.365877,-0.064010,0.490930,0.452398,0.228614,0.862016
-0.352331,0.702835,0.683288,0.882582,0.357690,0.305134
0.121709,0.441849,0.672029,0.359303,0.921805,0.145524
0.034215,0.606922,0.779242,0.031818,-0.682657,0.730046
-0.235990,-0.691086,0.266503,0.631982,0.024444,-0.774598
0.055135,0.438942,0.007557,0.997623,-0.049347,0.048089
0.315758,-0.160621,-0.928538,-0.059263,0.215584,0.974685
0.353385,0.029404,0.693739,-0.137876,0.557153,0.818884
-0.228316,-0.337501,0.614184,-0.463416,-0.733133,-0.497757
-0.416698,0.152887,0.442357,-0.482157,-0.181801,-0.857014
0.282045,0.257874,0.420315,-0.059971,-0.435813,0.898037
0.978480,0.023354,0.436568,0.676259,-0.062325,-0.734023
-0.464756,0.757569,0.727543,-0.672436,0.358627,-0.647470
0.160689,0.285853,0.330256,0.096946,0.906051,0.411914
-0.734159,-0.078958,0.478995,-0.863418,0.288648,0.413753
0.071440,0.323892,0.750061,0.501576,-0.676820,0.538829
0.091907,0.481577,0.902086,-0.476593,0.576423,-0.663774
0.837958,-0.045921,0.403241,0.459428,0.293070,-0.838472
-0.139166,-0.022714,0.456172,0.143465,0.549266,0.823240
-0.152311,-0.014511,0.773003,-0.373316,-0.543243,-0.752012
-0.704010,-0.005380,0.494321,0.319388,0.140757,0.937112
-0.373202,0.410033,0.740365,0.852169,-0.329488,0.406503
0.060754,0.143930,0.493923,0.269291,0.638665,0.720825
0.247782,0.271659,0.812304,0.876700,0.480418,-0.024408
0.452116,-0.287713,0.209439,-0.711582,0.581585,0.394221
0.163496,-0.443012,0.540616,0.600668,0.589087,0.540531
0.487835,0.722437,0.542722,0.136799,-0.749995,0.647142
0.340190,-0.157481,0.760936,-0.478608,0.720117,0.502360
0.258116,-0.053191,0.643961,0.882612,-0.455054,-0.117987
-0.355191,0.181446,0.632172,0.864018,-0.455792,0.213837
-0.521547,0.027716,0.516336,-0.547097,-0.791335,-0.272900
-0.428434,0.750066,0.581718,-0.639420,0.307118,-0.704855
-0.310290,0.293356,0.826504,0.176987,0.904417,-0.388209
0.527368,0.104202,0.281868,-0.119591,-0.104463,-0.987312
0.060754,0.372635,0.882654,0.974126,-0.074040,-0.213533
-0.101341,0.805614,0.696799,0.300314,-0.352852,0.886175
-0.473235,0.137939,0.480863,0.979428,-0.030658,-0.199452
-0.553154,0.928167,0.533860,0.754990,-0.468411,0.458891
-0.213263,0.239378,0.747902,0.860773,0.479865,-0.169703
0.146591,0.594475,0.844095,0.453962,0.636311,0.623720
0.125720,-0.162774,0.764446,0.426399,0.874217,0.232224
0.162844,0.239552,0.610462,0.530429,0.006518,-0.847704
-0.074098,0.318249,0.406169,-0.381427,0.761739,-0.523706
0.200121,0.552014,0.844439,0.480668,0.212938,-0.850656
-0.123966,0.085068,0.734086,0.433466,0.659069,0.614602
0.541564,0.745529,0.465683,0.242406,-0.901274,-0.359087
-0.538052,-0.093208,0.115154,-0.242982,0.329097,0.912499
0.102091,-0.488613,0.575956,0.033434,0.739409,0.672426
-0.458638,0.679628,0.391240,0.171676,0.058360,0.983423
-0.456179,0.687248,0.533158,0.520486,0.513857,0.681942
-0.566899,0.089313,0.248250,0.346247,0.102329,0.932546
0.064315,-0.626639,0.298518,0.838082,0.017075,0.545277
-0.343399,0.320926,0.560802,-0.104120,0.964542,-0.242523
-0.396427,0.454878,0.759943,0.799211,0.568639,0.194707
-0.267697,-0.261131,0.580685,0.164652,0.891114,0.422855
0.858777,-0.050167,0.294810,-0.044978,-0.409678,0.911121
0.356345,0.226988,0.614780,-0.232983,-0.693114,0.682138
0.292631,-0.045688,0.344442,-0.515916,0.016117,0.856488
-0.170120,0.464825,0.281405,-0.409787,-0.035074,-0.911506
-0.347162,0.564287,0.542483,0.202608,-0.712629,0.671647
-0.398485,0.307664,0.574552,-0.088104,0.347967,0.933358
-0.009884,-0.004915,0.821563,0.914090,0.302339,0.270243
-0.267296,0.049471,0.667168,-0.464455,-0.130050,-0.875996
-0.506948,0.792642,0.531158,0.615223,0.570260,0.544337
-0.435058,-0.326217,0.231388,-0.221843,0.039289,0.974290
0.050168,0.447201,0.653445,0.189698,0.452955,0.871118
-0.575026,-0.221754,0.471286,-0.442959,0.851273,0.281286
0.362714,0.616811,-0.957335,-0.366335,-0.086202,0.926482
0.239704,-0.530144,0.498467,0.832898,-0.360765,0.419679
-0.052575,-0.521185,0.428674,0.830006,0.492849,-0.261134
-0.504541,-0.081809,0.490161,-0.504496,0.708951,-0.492821
-0.125922,0.679395,0.549146,0.562233,0.549745,0.617798
-0.016204,0.528458,0.676970,-0.614585,-0.653636,-0.441640
-0.086591,0.971848,0.465961,-0.332136,-0.907463,-0.257289
-0.006672,0.425098,-0.560551,0.952030,-0.305630,-0.015130
-0.080069,-0.159867,0.373835,0.395882,0.195300,0.897293
-0.080620,-0.225011,0.376749,0.080901,0.052572,0.995335
0.323184,-0.284571,0.633311,0.428029,-0.643507,-0.634579
-0.238651,0.879715,0.575068,0.235394,-0.440475,0.866355
0.081523,0.317960,0.954977,-0.794808,-0.606307,0.025916
0.043545,0.374554,0.876454,0.931776,-0.183741,-0.313102
-0.219133,0.003461,0.463431,-0.050397,-0.399834,0.915201
-0.608086,-0.163356,0.455470,0.749151,-0.396394,-0.530702
0.214268,0.306850,0.683301,-0.227028,-0.002159,0.973886
0.074499,0.457670,-0.212486,-0.709316,0.701958,-0.064234
0.043447,0.009394,0.785335,-0.660840,-0.620797,-0.421785
-0.093615,0.207038,0.627589,-0.686307,0.612800,0.391739
0.456731,0.225825,0.608223,0.041605,-0.835672,0.547650
0.239153,0.584004,0.688891,-0.303067,-0.500935,0.810688
0.275321,0.559226,0.401546,-0.277347,0.458535,-0.844289
-0.771886,0.102342,0.240289,-0.568603,0.660589,0.490217
-0.508855,0.946663,0.480015,-0.660749,0.665897,-0.346399
0.590982,0.458835,0.656823,0.521359,-0.614810,-0.591771
-0.322581,0.244439,0.585374,0.132870,0.835077,0.533846
0.585210,0.486579,0.650676,0.006595,0.996502,0.083305
-0.260372,0.051389,0.706535,0.028423,0.634037,0.772780
-0.236893,-0.087799,0.408632,-0.512957,-0.143868,-0.846272
0.228414,0.583948,0.847247,-0.723418,0.144988,0.675015
-0.480611,-0.272996,0.119605,0.217077,-0.412592,-0.884673
0.086288,0.349426,0.896006,-0.562847,-0.465329,0.683134
0.040887,0.167778,0.607985,0.667737,0.228261,0.708536
-0.049666,0.283525,0.628794,-0.658080,0.727878,-0.192674
0.192895,0.750066,0.707594,0.787268,-0.415030,0.456026
-0.037225,-0.317725,0.124254,0.182633,0.965743,-0.184353
0.121256,0.300044,0.661591,0.983895,0.165405,-0.067763
-0.287162,0.496351,0.478121,-0.599916,0.658927,-0.453780
0.379121,0.686434,0.724549,0.603431,0.584781,-0.542128
0.132392,0.661947,0.553530,-0.353894,-0.692879,0.628233
0.112878,0.005847,0.689381,0.454203,-0.475825,0.753186
-0.096876,0.087801,0.742206,0.476359,0.856912,0.196938
-0.641098,0.623849,0.559014,-0.170744,-0.944632,0.280207
-0.185421,0.042607,0.773824,0.459010,0.427007,0.779086
-0.852757,0.164577,0.414434,0.424391,0.720848,-0.547970
0.396779,0.055751,0.700005,0.140570,0.219964,-0.965327
0.182512,0.537240,0.841366,0.427133,0.195334,-0.882838
0.041138,0.486172,-0.495791,-0.445061,0.883350,0.147013
-0.039684,-0.804739,0.309632,-0.219089,-0.345457,0.912502
0.445040,0.324474,0.721569,-0.701939,0.524014,0.482380
0.636281,0.237750,0.693156,0.883565,0.213590,-0.416764
0.028495,0.504028,-0.566975,0.620918,-0.770245,0.145544
-0.040587,0.444293,0.540404,-0.227977,0.947183,-0.225546
0.513069,-0.208201,0.234196,-0.129481,0.879208,-0.458506
-0.290974,-0.118162,0.214155,0.118960,0.398271,0.909521
-0.181207,0.395086,0.078794,-0.576432,0.683920,-0.447191
0.112327,0.471340,0.932565,0.466600,0.626068,0.624758
0.386044,0.791712,0.736166,0.531004,0.427583,-0.731578
-0.599809,-0.149628,0.438118,0.112743,0.877127,0.466838
0.209402,0.213379,0.273669,0.534905,0.304360,-0.788189
0.083881,0.418875,0.849300,0.216583,0.903967,0.368694
0.082476,0.288410,0.252104,-0.552342,-0.320857,0.769396
0.472031,0.183132,0.715860,-0.517387,-0.765229,0.383060
0.146741,0.002879,0.571426,0.817708,0.563431,-0.117895
0.360357,0.176385,0.283352,0.378425,0.530017,-0.758865
0.005870,0.469419,-0.546669,0.785369,-0.606438,0.124211
0.392113,0.603839,-0.951546,-0.234742,-0.058331,0.970306
0.639441,-0.214890,0.365887,0.321799,0.592108,-0.738819
-0.356443,0.784267,-0.123181,0.567889,0.811639,0.136911
-0.619526,-0.240482,0.357821,-0.470289,0.454937,-0.756214
0.203232,-0.009626,0.649935,0.950904,-0.145166,-0.273328
0.747656,-0.146662,0.279603,-0.076728,-0.549344,0.832066
0.276978,-0.441267,0.516203,0.809661,-0.556663,-0.185948
-0.381227,0.314992,0.575850,-0.532939,-0.378055,-0.757001
0.080320,0.401076,0.120558,-0.129874,0.872270,0.471464
-0.436965,0.757336,0.459153,0.835681,0.436219,-0.333692
0.341596,-0.142183,0.741756,-0.152591,0.954397,0.256596
-0.718509,0.070700,0.419865,-0.348128,0.114663,0.930408
0.133850,0.092338,0.665101,-0.658878,0.103661,0.745074
0.464006,0.290331,0.411970,-0.069524,-0.407408,0.910596
-0.506648,0.551258,0.397903,0.000031,-0.526848,0.849960
0.107158,0.424692,-0.275497,0.136397,0.990548,-0.014527
-0.025286,0.876226,-0.972250,-0.249726,0.136415,0.958659
0.066874,0.400727,0.136228,0.759458,0.640995,0.111125
-0.052226,0.287074,0.827802,-0.700401,0.453126,0.551466
-0.004517,0.390257,0.830531,0.890925,0.402440,0.210463
-0.113681,0.392758,0.751439,0.181043,0.520133,0.834677
0.382232,-0.102806,0.546682,0.777740,-0.197402,0.596786
0.224804,-0.039174,0.585043,-0.327449,-0.943806,0.044814
-0.205238,-0.307080,0.401016,-0.385129,-0.140126,-0.912163
-0.069682,-0.342271,0.123738,0.095291,0.827426,-0.553431
0.006773,0.409510,-0.359066,0.818516,-0.564620,-0.106000
0.006721,0.012244,0.827233,0.965350,0.106208,0.238366
0.106004,0.542243,-0.967216,-0.238871,0.429744,0.870781
0.105505,-0.589821,0.451059,-0.027674,0.988096,0.151329
-0.562385,0.462672,0.538973,0.841922,0.023875,0.539071
-0.018112,0.385838,0.464544,0.358485,0.843065,0.400910
-0.454624,0.625186,0.392631,0.125657,-0.169558,0.977477
0.465157,0.357976,0.725861,-0.721255,0.546320,0.425823
-0.061657,0.413581,0.849327,0.312763,0.863328,-0.396035
-0.051372,0.546373,0.747995,-0.343012,0.832601,-0.434878
-0.517034,0.566729,0.378988,-0.082914,-0.833368,0.546465
-0.173332,-0.177431,-0.109154,0.490987,-0.251035,-0.834214
-0.064517,0.435335,0.707330,0.771154,-0.624970,-0.121379
-0.230723,-0.572371,0.245058,0.511243,-0.770553,-0.380629
-0.257262,-0.712025,0.261589,0.869104,-0.051218,-0.491971
-0.044751,-0.566962,0.393267,0.473177,0.435757,0.765649
0.732003,0.060114,0.294015,-0.172441,0.168632,0.970478
-0.265942,0.631526,0.549543,0.299139,0.548174,-0.781039
0.224804,-0.056274,0.594593,-0.506984,-0.184188,-0.842046
-0.698942,0.543231,0.393532,-0.275703,0.108335,-0.955118
0.608337,0.411430,0.642941,-0.366271,-0.291263,0.883748
0.370642,-0.047724,0.357794,-0.529329,0.305998,0.791313
0.350975,0.361351,0.706720,-0.268696,0.174442,0.947297
-0.816135,-0.078667,0.277312,-0.554966,-0.012866,-0.831773
-0.149402,0.172663,0.615840,0.230731,-0.752441,-0.616925
0.387048,0.665146,-0.952924,0.258446,-0.003443,-0.966020
0.239153,0.323019,0.801601,0.708071,0.065870,-0.703062
-0.265238,0.287248,0.755730,0.462714,0.829918,-0.311660
-0.042642,-0.483496,0.567558,0.130553,0.829310,0.543324
0.064566,0.200815,0.752869,0.986736,0.134047,-0.091560
0.525562,0.681722,-0.948420,-0.118530,-0.144181,0.982427
-0.032509,0.082567,0.442251,-0.518569,-0.457188,0.722541
-0.090403,-0.105598,0.566750,0.301713,0.102777,0.947843
0.538104,-0.167078,0.371967,0.302087,0.856731,-0.418037
0.352983,-0.299636,0.585095,-0.498716,0.439843,0.746874
0.513522,0.473200,0.645630,-0.543203,0.583721,0.603490
0.075402,0.447783,0.597719,0.766637,0.014443,-0.641918
-0.554859,0.446212,0.361834,-0.029153,-0.601353,0.798451
-0.047458,0.584412,0.382922,-0.663196,0.069854,-0.745179
0.053478,0.583307,0.837750,0.196376,-0.125122,0.972513
-0.384841,-0.352507,0.376815,-0.162826,-0.479411,0.862353
-0.542868,0.355475,0.359649,-0.118813,-0.469977,0.874646
0.309588,-0.492511,0.541370,0.685421,0.684521,0.248253
-0.124217,0.340760,0.895635,-0.628541,0.240724,-0.739586
0.097776,0.505716,-0.839313,0.991445,-0.064823,-0.113289
-0.192093,0.880298,0.737411,0.791009,-0.054897,0.609337
0.405209,0.617800,0.401652,0.020383,-0.098828,0.994896
0.120203,0.532297,0.541887,0.771303,-0.178652,-0.610881
-0.200571,0.494082,0.642186,0.193644,0.949624,-0.246407
0.558974,0.312026,0.655021,-0.002233,0.862659,0.505780
-0.163196,-0.304173,0.385492,-0.396893,-0.388505,-0.831589
0.193700,0.539102,0.837233,-0.591796,0.074661,0.802622
0.279036,-0.162541,0.727808,-0.577206,0.488101,0.654669
0.227511,0.645602,0.802674,-0.103650,0.969500,-0.222095
0.256961,-0.062207,-0.926048,-0.055384,0.256927,0.964843
-0.083030,0.437256,0.877223,-0.665199,-0.269503,0.696332
0.097176,-0.424690,0.559928,0.393499,-0.523251,-0.755888
-0.039785,-0.454761,0.347343,0.673399,-0.162745,-0.721143
-0.447900,0.759372,0.715887,0.808693,-0.002670,0.588225
-0.413936,0.327673,0.505779,0.048179,-0.036280,0.998180
0.456180,0.468897,0.631801,0.019774,0.327457,0.944659
-0.192846,0.259504,0.729331,0.521527,0.318689,0.791484
0.349921,0.735874,-0.956129,0.239068,0.130795,-0.962153
0.066976,-0.521244,0.586751,-0.031284,0.829764,0.557237
0.494556,0.721565,-0.942420,-0.115581,-0.105005,0.987732
0.206291,0.730987,0.701011,0.298960,-0.727879,0.617102
0.254754,-0.099083,0.715781,0.216836,0.752831,0.621472
-0.004866,0.355184,0.938181,0.299621,0.516252,0.802316
-0.413235,0.036674,0.319593,-0.340576,-0.139742,-0.929774
-0.346008,0.034930,0.199372,-0.472569,0.026611,-0.880892
0.145587,0.115254,0.602103,0.749008,0.155403,-0.644079
-0.704812,-0.206048,0.369583,0.125970,0.614397,0.778876
0.485927,0.163880,0.389094,-0.033084,-0.815050,0.578445
-0.515377,-0.043070,0.391134,0.335217,0.635797,-0.695264
-0.267798,0.624138,0.677672,0.666640,-0.100011,0.738640
0.227413,-0.183073,0.703833,0.974956,0.107792,0.194529
-0.204083,-0.236527,0.323606,0.523746,-0.071267,0.848888
-0.191692,0.314876,0.729000,0.642395,0.294135,0.707682
0.074150,0.901469,0.790846,-0.353825,-0.763191,0.540692
-0.117995,0.389036,-0.976912,-0.182333,0.157906,0.970474
0.013948,-0.743958,0.393797,0.821522,0.178597,0.541484
0.156022,-0.240076,0.572763,-0.111553,0.458545,-0.881642
0.055285,-0.246066,0.513753,-0.677371,0.068655,0.732431
-0.112728,0.838302,0.170456,0.872607,0.158210,-0.462089
-0.314754,0.134565,0.608594,0.223134,-0.805702,0.548686
0.098481,0.335291,-0.371901,-0.519093,-0.790822,0.324258
0.091907,0.535787,-0.965799,-0.167517,0.154874,0.973628
0.195856,0.064418,0.575360,0.474748,0.857195,0.199580
0.114033,0.000960,0.707846,0.953036,0.212840,-0.215455
0.073045,0.213844,0.665340,-0.445327,-0.653407,-0.612163
0.142828,-0.041383,0.608965,0.985132,-0.018025,0.170851
0.424120,0.612098,0.690746,0.304101,-0.859403,0.411035
-0.458136,0.511009,0.365027,0.156359,-0.578040,0.800888
0.613255,0.395435,0.676440,-0.509751,-0.583896,0.631839
0.558723,0.237750,0.669711,0.611770,0.404977,-0.679508
-0.451011,0.448422,0.507209,0.152260,0.262231,-0.952917
-0.064217,0.473550,0.906563,-0.645531,0.329461,0.689018
0.190488,0.533692,0.659498,-0.692676,0.377654,0.614473
0.171724,0.860987,0.612276,0.118153,-0.982554,-0.143623
0.114936,0.427599,0.679844,0.395871,0.828339,0.396411
-0.450711,0.599651,0.532218,-0.490569,-0.863661,-0.115894
-0.441029,0.858253,0.568988,0.736523,-0.600013,0.312281
-0.155021,-0.290214,0.386830,0.517056,0.318979,0.794296
0.179952,0.324706,0.860308,0.035523,0.866370,0.498137
-0.218732,0.154864,0.199995,0.262883,0.493395,-0.829128
-0.384286,-0.070466,0.722814,-0.528974,0.838259,0.132317
-0.215774,0.315980,0.802568,-0.114068,0.925842,0.360286
0.175941,-0.086461,0.627417,0.990290,-0.131745,0.044364
-0.502884,0.464767,0.503580,-0.007124,0.214306,-0.976741
0.566899,0.348961,0.656531,-0.716565,0.532904,-0.450052
-0.350476,-0.389152,0.400340,0.981360,0.182321,-0.060762
0.448252,0.616344,0.523859,-0.024186,0.524875,-0.850836
0.146040,-0.387522,0.346641,0.033800,0.534743,0.844338
0.009783,0.384499,0.966329,-0.385726,-0.774572,-0.501253
0.638388,-0.119557,0.377888,-0.448202,0.270066,-0.852161
0.388653,0.163764,0.438224,-0.470769,-0.295127,-0.831431
0.251943,-0.048887,0.712045,-0.341124,0.858861,0.382090
0.623188,-0.004507,0.432263,0.278308,0.659379,-0.698401
0.575629,-0.046618,0.289749,0.075776,-0.267574,0.960553
0.236893,-0.540787,0.320308,0.946535,-0.288308,0.144741
0.074398,0.118744,0.755505,0.912761,0.401132,-0.077197
0.808511,-0.056157,0.478240,-0.561410,-0.775870,0.287826
-0.299352,0.301150,0.456702,-0.305248,-0.186331,0.933865
-0.066724,0.524677,-0.142295,0.817384,0.558276,0.142164
0.094114,0.639262,0.754697,0.053459,0.845952,0.530572
0.728944,-0.063195,0.390975,0.002479,-0.682743,0.730654
0.326044,0.633562,-0.961149,0.299728,0.047635,-0.952835
0.395977,-0.384441,0.617151,0.126126,0.865737,0.484347
0.390658,0.324648,0.715476,-0.502046,0.434362,0.747849
0.008580,0.372635,0.988343,0.761773,0.636554,-0.120419
0.104250,-0.066511,0.726033,0.731579,-0.661920,-0.163263
0.001053,0.455984,-0.494851,0.821231,-0.568718,-0.046257
0.042945,0.143871,0.757188,0.949869,0.304523,0.070809
0.014147,0.169929,0.507646,-0.621928,-0.253291,-0.740978
0.797221,-0.132644,0.271497,0.099573,-0.476985,0.873253
0.442985,0.298299,0.728563,0.687083,-0.481135,-0.544451
0.182309,-0.081052,0.703078,0.372421,0.823732,0.427514
-0.274219,0.329359,0.563783,0.135412,0.299812,0.944339
0.090253,-0.274858,0.481353,0.506206,0.555794,0.659431
-0.736617,-0.497687,0.111737,0.362144,-0.190925,-0.912359
-0.458736,0.876573,0.223162,-0.250397,0.031669,0.967625
-0.456682,-0.075468,0.451086,-0.220027,-0.865378,-0.450233
0.098079,0.440804,0.805045,0.937291,-0.304627,-0.169375
-0.520494,0.100887,0.667552,-0.746752,-0.613641,-0.256527
0.280591,0.814803,0.471246,0.600523,0.795288,0.083004
0.145838,0.799273,-0.964249,0.067706,0.010695,-0.997648
0.219234,0.390084,0.331157,-0.213498,0.101774,-0.971628
-0.571667,0.495071,0.371265,-0.291574,0.504431,-0.812733
0.500527,-0.220532,0.338694,0.324596,0.602286,-0.729307
-0.047911,0.232631,-0.966620,-0.111889,0.202800,0.972807
0.410326,0.650081,0.712032,-0.007105,-0.681191,0.732071
0.381025,0.070351,0.445218,0.094430,0.019517,0.995340
-0.629961,0.621754,0.548696,0.038293,-0.998573,-0.037220
-0.727186,0.027251,0.538033,0.494560,0.850342,-0.179804
-0.006522,0.738432,0.795204,0.156128,0.842110,-0.516212
0.147243,0.066222,0.452397,-0.094655,0.265756,0.959382
0.211307,0.117872,0.605428,0.883727,0.207502,-0.419487
0.304821,0.004450,0.344442,-0.503171,0.015260,0.864052
0.221944,0.398169,0.631417,-0.308815,0.766762,-0.562769
-0.089451,0.126597,0.696441,0.111160,0.985482,-0.128329
-0.117796,0.602735,0.284663,0.055528,0.002020,0.998455
-0.013948,0.424459,0.874150,-0.518972,-0.759985,-0.391269
0.124768,-0.161668,0.771149,0.426399,0.874217,0.232224
-0.164250,0.567194,0.615495,-0.444037,-0.819614,0.362028
-0.574977,0.648277,0.557862,0.380778,-0.861986,0.334646
0.415393,0.384964,0.319964,-0.070913,-0.162132,0.984218
0.242062,0.392876,0.834120,0.219400,0.959327,-0.177640
-0.220839,-0.505946,0.084675,0.048071,0.081276,0.995532
-0.555511,0.552421,0.219559,0.304975,-0.240150,0.921585
-0.116341,0.467385,0.508388,-0.679202,-0.700916,0.217719
0.066774,-0.351636,0.388962,0.639500,0.331730,-0.693538
-0.500729,0.059067,0.458411,-0.312596,0.946810,0.076389
0.234936,-0.108273,0.618356,0.876725,-0.071162,0.475700
-0.786786,0.151201,0.303022,-0.633839,0.169503,0.754663
0.307280,-0.105424,0.710615,0.463992,0.861204,-0.207457
0.285056,0.658107,0.539993,0.544964,-0.716045,0.436227
0.226859,0.109089,0.454331,0.350781,0.455572,0.818173
-0.190289,-0.601686,0.274172,0.583748,-0.138383,-0.800055
0.225355,0.053891,0.721304,-0.417383,-0.380996,-0.825005
0.028997,-0.115252,0.540059,0.435984,-0.076250,0.896718
-0.494859,-0.182550,0.337422,0.096992,-0.329258,0.939245
-0.316411,0.071921,0.723278,-0.766648,-0.386756,-0.512514
-0.109418,0.198896,0.857539,0.926530,-0.359546,0.110763
0.031805,0.454007,-0.231547,-0.686828,0.725490,-0.043940
-0.291728,-0.502107,0.414805,-0.110915,0.696008,0.709416
0.169670,-0.205059,0.316493,0.752062,0.627483,0.201663
0.008981,0.719471,0.669102,-0.727508,0.014725,-0.685941
-0.172830,0.350124,0.697965,-0.342038,-0.925995,-0.159822
0.161742,0.253628,0.886892,0.991394,0.092325,-0.092815
0.530929,0.259504,0.422435,-0.426797,-0.122712,0.895983
-0.031153,-0.138344,0.677420,0.352622,-0.894893,-0.273540
-0.276176,0.801309,0.572114,-0.571708,0.358266,-0.738103
-0.269203,0.268287,0.133897,-0.210158,0.693555,-0.689068
-0.287061,-0.753321,0.437283,0.869070,0.465663,0.166962
0.994834,0.010034,0.289193,0.097902,0.100989,0.990059
0.386846,-0.041210,0.581148,0.051906,0.986422,-0.155810
-0.101993,0.468374,0.829391,0.826203,0.475480,0.302171
-0.768475,-0.159808,0.377769,-0.366078,-0.749072,-0.552158
0.059348,0.369319,-0.526429,0.617448,0.491023,0.614536
0.036824,-0.815384,0.370802,0.936959,-0.153986,0.313682
0.445392,0.726509,0.734736,-0.471564,0.344189,-0.811888
0.174887,0.143465,0.610024,0.749633,0.335053,-0.570780
-0.453721,0.677942,0.488347,-0.485005,-0.324441,-0.812101
-0.775851,-0.517813,0.259641,0.609401,-0.209837,0.764591
-0.453117,0.914673,0.221771,-0.115995,0.236743,0.964623
0.203532,0.276894,0.446238,0.876065,-0.359043,0.321868
0.285757,-0.272357,0.618330,0.684659,-0.376764,-0.623932
-0.068479,0.383045,0.776341,-0.119944,-0.962393,0.243749
-0.228414,-0.596916,0.412301,-0.668917,-0.337581,-0.662261
0.148045,0.266948,0.265523,-0.435606,-0.837208,0.330652
-0.031857,0.431845,-0.764884,0.877716,-0.477535,0.039689
0.392064,0.587262,-0.951467,-0.195103,-0.060928,0.978888
0.217027,0.641124,-0.966408,-0.135492,-0.211361,0.967971
0.048965,0.137996,0.457126,-0.080460,-0.233367,0.969054
-0.712587,-0.010847,0.494798,0.271627,0.249363,0.929536
-0.417650,0.086404,0.632357,-0.512327,0.829412,-0.222705
-0.808057,-0.034346,0.267841,0.514930,-0.011670,0.857153
-0.093713,0.202269,0.719264,-0.612423,0.705963,-0.355746
-0.505242,0.893791,0.476306,-0.504773,-0.535955,-0.676725
-0.339890,0.618556,0.386670,0.459037,0.318136,0.829503
-0.665331,0.043945,0.272384,-0.518902,0.393546,-0.758856
-0.148499,-0.717144,0.283352,0.578175,-0.331104,-0.745710
0.216877,0.871806,0.344999,-0.759204,0.620786,-0.195535
-0.166056,-0.830158,0.129844,-0.538579,0.631108,0.558243
-0.098128,0.274160,0.734259,0.832364,-0.163618,-0.529527
-0.231225,-0.290388,0.390220,0.220480,0.523570,0.822960
-0.407665,0.609423,0.558789,-0.860679,0.167938,0.480654
0.188933,-0.123920,0.558816,-0.654913,0.055205,-0.753685
0.107710,-0.179932,0.483936,0.598283,0.520152,0.609507
0.011688,0.609540,0.778235,0.928245,-0.173789,0.328876
0.030152,-0.294575,0.343343,-0.369899,-0.280558,-0.885698
-0.137359,0.466162,0.126148,-0.377864,-0.382250,0.843270
-0.019465,0.076633,0.804635,-0.522970,0.752916,0.399524
-0.410375,0.935262,0.605388,0.259598,-0.166035,0.951337
-0.190788,0.182434,0.760764,0.855905,0.200797,0.476558
-0.209402,0.280094,0.752340,-0.210504,-0.386561,0.897919
0.045704,0.329591,0.293074,0.845448,0.472957,0.248050
-0.412282,0.984994,0.301949,0.135346,0.975672,-0.172467
-0.169617,0.376181,0.802356,-0.386877,-0.666006,-0.637780
-0.047458,0.161844,0.617575,0.648984,0.759196,-0.049409
0.083581,0.367166,-0.090132,0.973271,-0.199762,0.113310
-0.331760,0.351986,0.825736,0.053323,-0.968489,0.243282
0.401746,0.401135,-0.955745,-0.132480,0.075109,0.988336
0.241511,-0.299403,0.556524,-0.424221,0.834492,0.351653
-0.266693,0.286841,0.559253,0.080932,0.525994,0.846629
0.353584,0.460521,0.709356,-0.263310,-0.264923,0.927622
-0.373551,0.684980,0.646530,-0.785886,-0.597850,0.157985
-0.436965,0.501585,0.506719,0.399570,0.284214,-0.871531
-0.654944,-0.196685,0.362285,-0.610249,-0.108628,-0.784727
-0.307730,-0.699926,0.434912,0.974801,-0.019097,0.222256
-0.353485,-0.094779,0.495976,-0.503692,-0.326117,-0.799964
0.196208,-0.258164,0.617244,0.467335,0.382342,0.797128
0.122511,-0.115952,0.755174,0.268574,0.787250,0.555073
-0.094417,0.709002,0.663909,0.895645,0.218409,-0.387450
-0.144282,0.638273,0.561968,0.316091,0.173436,0.932741
0.095520,0.335699,0.836769,-0.065423,0.898762,0.433527
0.359956,0.728371,0.483658,0.273288,0.915990,0.293728
-0.369690,0.397993,0.734259,0.899527,-0.032654,0.435644
0.503537,0.470002,0.513554,-0.027575,-0.153251,0.987803
-0.122961,-0.270321,0.145924,0.346278,0.774966,-0.528696
0.190739,0.465873,0.523515,0.867690,0.159795,0.470723
-0.169568,0.831322,0.701038,0.721847,-0.062310,0.689242
-0.238250,-0.768851,0.252648,0.847803,-0.332187,-0.413379
-0.176593,-0.335059,0.579651,0.507407,0.467808,0.723667
0.980535,-0.003170,0.428276,0.676259,-0.062325,-0.734023
-0.151910,0.009394,0.213188,0.475580,0.208840,-0.854523
0.331209,0.664796,0.515594,0.223098,-0.014140,-0.974693
0.003362,-0.121477,0.225334,0.037687,0.204889,0.978059
-0.591432,0.102866,0.465603,-0.136490,0.541960,0.829246
0.746150,-0.138461,0.359609,0.001081,-0.864054,0.503399
-0.153364,0.095537,0.749240,-0.295016,-0.860981,-0.414339
-0.030602,0.370308,0.885329,-0.244083,0.652832,0.717101
-0.150455,-0.147070,0.222857,-0.153288,0.252180,0.955462
0.399036,0.207212,0.620449,0.042178,-0.794936,0.605226
-0.657354,0.455286,0.315473,-0.376198,0.733909,-0.565555
0.207997,0.708593,0.390472,0.817751,0.223129,-0.530562
-0.092712,0.739887,0.675685,-0.641387,-0.153001,0.751807
-0.187680,0.659561,-0.984688,-0.176062,-0.150282,0.972840
0.443487,0.300685,0.304850,0.001164,-0.264135,0.964485
0.365072,0.582842,0.661644,0.796457,0.538779,-0.274544
0.850047,-0.301322,0.479340,0.872573,0.102557,-0.477596
-0.570662,0.155620,0.255456,0.168853,0.351457,0.920851
0.114082,0.035336,0.738007,0.918403,0.191667,0.346120
-0.564189,-0.022073,0.454212,-0.379871,0.235098,-0.894666
0.241458,-0.311269,0.338945,-0.063387,0.525112,0.848669
-0.337581,0.663051,0.511223,0.689418,-0.343696,0.637633
-0.209702,0.152131,0.647484,0.134400,-0.804756,0.578190
-0.222045,-0.432252,0.401294,-0.743808,-0.176100,-0.644778
-0.299101,0.557366,0.373279,-0.223984,-0.168929,0.959841
-0.146190,0.487917,0.548311,-0.141934,-0.068077,0.987532
0.020418,0.421434,-0.904470,-0.814894,0.541796,-0.205924
-0.285659,0.155970,0.651749,0.607797,0.713055,0.349479
-0.002658,0.394620,0.581493,0.257422,0.928392,-0.267995
0.139717,0.690097,0.653180,-0.446663,-0.439361,0.779394
-0.283148,-0.039465,0.740087,-0.357973,0.918964,0.165412
-0.159684,0.052437,0.740206,0.444176,0.190214,0.875515
0.169366,-0.015500,0.724285,0.622196,0.425724,0.656986
0.091456,-0.419397,0.343899,-0.429889,0.160696,-0.888466
-0.602969,0.162717,0.416752,0.760841,-0.484538,0.431676
0.465509,0.687829,0.539940,-0.223075,-0.525045,0.821319
-0.171476,0.508041,0.846505,-0.341223,-0.790849,0.508060
0.026539,0.727324,0.749863,-0.241082,0.692717,-0.679722
-0.083630,0.790025,0.790620,0.333788,0.783716,-0.523808
0.020167,0.791770,0.549530,0.848948,0.136503,-0.510543
0.310290,0.638970,0.792448,0.410384,-0.886596,0.213382
0.404707,0.165392,0.714019,-0.090559,-0.629148,0.771992
-0.123013,0.461451,0.848664,-0.539279,-0.745786,-0.391127
-0.413887,-0.317608,0.152481,0.377964,-0.483103,-0.789781
0.796921,0.397063,-0.942844,-0.106191,0.013320,0.994257
0.245574,-0.086578,0.561253,-0.220781,0.298940,0.928381
-0.109568,0.364549,0.716681,0.455833,0.823267,0.338301
0.278233,0.554457,0.515634,0.128649,-0.479588,0.868012
-0.149601,-0.705336,0.294054,-0.594606,0.321994,0.736725
-0.181458,0.452088,0.717781,0.408645,0.909327,0.078325
-0.347465,0.290796,0.554073,-0.131583,-0.989723,0.055979
-0.081924,0.168649,0.654293,0.861190,-0.494895,0.115892
-0.078614,0.357685,0.845300,0.679165,0.278807,0.678970
0.271861,-0.062439,0.495698,0.817322,0.559614,0.137172
-0.591934,0.617624,0.561995,-0.142194,-0.917560,0.371301
-0.388754,0.683583,0.653524,0.949715,0.213456,0.229079
0.443184,0.772518,0.739094,-0.365855,-0.626662,0.688074
-0.733307,0.418816,0.322123,0.811921,0.572464,0.114320
0.541616,-0.174117,0.250820,-0.174934,0.889649,-0.421809
-0.388301,0.573594,0.527210,-0.186523,0.629114,-0.754602
0.270707,0.160564,0.785772,0.798615,0.600716,0.036796
0.331108,-0.053424,0.666307,0.815356,0.193926,-0.545515
0.086040,0.341458,0.397903,0.171413,-0.595162,0.785111
0.048815,0.273812,0.074317,-0.737720,0.102922,0.667216
-0.058194,0.446910,0.853791,0.218290,0.974774,-0.046531
-0.875434,-0.488033,0.102107,0.192568,0.288468,-0.937925
0.534390,0.626989,0.383213,0.196029,-0.567398,0.799770
-0.151205,0.750706,0.285948,0.597688,0.210480,0.773607
-0.191140,-0.420794,0.094451,0.107527,0.018592,0.994028
-0.052327,-0.720051,0.379094,0.946443,0.146908,0.287512
0.172530,0.894606,0.154773,-0.183113,-0.874241,0.449635
-0.034065,-0.276370,0.512455,0.841136,0.529522,-0.109982
-0.480360,-0.042896,0.509514,-0.554236,0.793011,-0.252897
-0.271561,-0.018059,0.698415,0.874309,-0.456009,-0.166253
-0.268398,-0.003227,0.392830,-0.529263,-0.118208,-0.840183
0.374806,0.496700,0.765665,0.417108,0.783104,-0.461268
0.046956,0.010382,-0.170748,0.974064,-0.217854,-0.061141
0.335475,-0.173767,0.691607,0.360610,-0.930047,-0.070520
0.419255,-0.139217,0.280080,0.312130,-0.291805,0.904115
0.324990,-0.507226,0.250329,-0.112758,-0.978207,0.174349
0.476747,0.346227,0.725357,0.785383,-0.394771,-0.476791
-0.302714,0.636819,0.655048,0.667153,0.652437,0.359490
-0.022625,0.690853,0.535330,-0.076809,0.184032,0.979915
-0.403703,0.134274,0.241561,0.030313,0.107438,0.993750
-0.024132,-0.505075,0.375795,0.427696,-0.409563,-0.805813
-0.326243,0.579758,0.503302,0.762626,-0.031364,0.646079
0.433554,-0.231990,0.493592,0.267662,-0.408073,-0.872831
-0.262179,0.364258,0.804502,-0.115727,0.674234,0.729394
-0.439923,0.004509,0.496162,-0.492281,0.248622,-0.834174
0.042593,-0.271659,0.530919,-0.025861,-0.987304,0.156721
-0.333368,0.633445,0.691302,-0.456696,-0.139550,-0.878609
-0.330358,-0.378973,0.377465,-0.544616,-0.514049,0.662681
0.552149,0.147303,0.430488,-0.028445,0.293574,0.955513
-0.605428,0.363270,0.302373,-0.134833,0.989537,0.051340
-0.043346,0.686666,0.678069,0.460043,-0.184675,0.868479
-0.357748,0.510077,0.496957,-0.396780,0.307062,-0.865031
0.435058,-0.314409,0.586672,-0.434799,0.503860,0.746375
-0.283148,-0.659503,0.436542,0.346889,0.349207,0.870473
-0.131991,0.395492,0.783732,-0.204210,0.956471,-0.208474
-0.021471,0.372983,0.775904,0.125421,-0.871688,-0.473739
0.176994,0.682885,0.358708,0.919222,-0.013465,-0.393510
-0.001908,0.372576,-0.672718,0.992301,0.057508,0.109688
0.371245,-0.099666,0.683924,-0.439035,0.435252,0.786005
-0.003512,-0.413638,0.372113,0.103861,-0.240809,0.965000
-0.124719,-0.330580,0.214711,-0.181534,-0.264202,0.947229
-0.104298,0.786477,0.798025,0.319428,0.775969,-0.543910
0.671400,0.009394,0.451907,0.397077,-0.105963,-0.911648
0.159182,-0.298065,0.339925,-0.102495,0.508909,0.854696
-0.097979,0.379264,0.769943,-0.147911,-0.971157,0.187021
0.082929,0.851971,0.393572,-0.149269,-0.779959,0.607768
-0.071639,0.043130,-0.112280,0.748453,-0.125448,0.651215
0.740381,-0.064708,0.447297,-0.647819,0.739993,0.180946
0.080421,0.396365,0.899172,0.808839,0.038563,0.586764
-0.368082,-0.180398,0.498427,-0.176143,0.503636,0.845768
0.038278,0.630246,0.758062,-0.619166,0.357099,0.699367
0.284703,-0.469711,0.512587,-0.815581,-0.108298,0.568419
0.028195,-0.111239,0.228553,-0.011438,0.288084,0.957537
0.036772,0.339887,0.787110,0.341650,0.939819,-0.003973
-0.206643,-0.698413,0.427217,-0.523296,-0.393084,-0.756073
-0.060000,-0.112345,0.327633,-0.721920,-0.080795,-0.687244
0.382281,0.424168,0.329951,-0.195154,-0.078923,0.977592
0.335374,-0.067093,0.323580,0.877513,0.475661,0.060968
-0.166659,0.806021,0.686865,0.012459,-0.597963,0.801427
0.021171,0.363328,-0.010113,0.135736,0.990192,-0.033090
-0.770382,0.232981,0.453404,-0.009550,0.870476,0.492118
0.104350,0.408521,-0.408593,0.468778,0.816348,0.337377
0.576281,0.350415,0.648835,-0.469880,-0.872653,0.133003
0.315556,0.361408,0.533688,0.133107,0.794032,0.593124
0.366328,-0.326508,0.577731,-0.321401,-0.028687,0.946508
