0.337147,0.137017,0.842432,0.838689,-0.440296,0.320530
-0.480654,0.349392,0.637463,0.282935,0.767770,-0.574871
0.671452,-0.061142,0.838560,0.698342,0.398330,-0.594685
-0.000894,-0.350496,0.587052,0.980962,-0.148041,-0.125685
0.810252,-0.279778,0.746277,0.125710,-0.986831,-0.101790
0.078283,0.015396,0.915082,0.942407,0.269519,-0.198062
-0.371056,0.382985,0.623554,0.765093,-0.612438,0.198879
0.391010,-0.699815,0.739589,-0.653562,0.683913,0.324222
-0.459885,0.076096,0.588069,-0.657434,-0.401581,-0.637584
0.486816,0.239558,0.645663,0.748684,-0.212692,-0.627881
0.040641,-0.859669,0.689321,0.461441,-0.768709,0.442898
0.273302,-0.066888,0.857567,-0.395317,0.476591,-0.785229
-0.806606,0.246188,0.573443,-0.418827,0.643760,-0.640435
-0.394419,-0.698711,0.767304,0.908250,-0.093100,0.407938
-0.275817,0.196390,0.532939,0.806392,0.143825,-0.573625
-0.293664,-0.618417,0.689817,0.913116,-0.048073,-0.404855
-0.838324,-0.083684,0.415861,-0.282825,0.853517,-0.437629
0.129146,0.469689,0.507141,0.771816,0.262086,0.579320
0.153566,0.071382,0.909607,-0.425931,0.302663,-0.852630
-0.281820,-0.675581,0.635860,-0.073164,0.846351,0.527577
0.831427,-0.576279,0.708667,0.539041,0.680676,-0.496100
0.646467,-0.574217,0.684563,-0.516098,-0.429734,0.740926
-0.111626,0.780186,-0.992256,0.223920,-0.135606,0.965127
0.755659,-0.726630,0.556365,-0.172051,0.981995,-0.078002
0.249939,0.218269,0.926411,0.951574,-0.188461,0.242878
0.232010,-0.483168,0.654423,0.935508,0.232988,0.265597
0.117872,0.593076,0.659090,0.558727,0.622331,-0.548205
0.667560,0.011860,0.844152,-0.788410,-0.410416,0.458223
-0.556016,-0.343203,0.800859,0.789892,0.613021,0.016601
0.081123,-0.114253,-0.656496,0.817091,-0.575935,0.025720
0.946622,-0.549540,0.689726,-0.870043,0.368830,-0.327092
-0.310781,-0.743794,0.482711,0.253749,0.965297,0.061750
-0.400586,-0.929060,0.546249,0.249754,0.929352,0.271896
0.096616,-0.564420,0.497546,0.979633,-0.163410,0.116689
-0.857874,0.281768,0.370026,-0.397733,0.400552,0.825449
0.214651,0.233666,0.923308,0.972577,-0.078463,0.218948
0.265352,0.122285,0.373298,0.941113,-0.332218,-0.062741
-0.519997,0.155287,0.705213,-0.637750,0.139178,-0.757565
-0.118926,-0.981510,-0.987446,-0.170540,-0.183793,0.968058
0.204510,-0.227992,0.899621,-0.417574,0.897982,0.138782
0.133528,-0.826298,0.418273,0.741679,-0.462372,-0.485927
-0.351506,0.049724,0.535625,-0.016098,0.920130,0.391282
0.812037,0.059152,0.532613,0.755831,0.579773,-0.304275
0.662123,-0.221142,0.657357,0.616838,0.626500,-0.476454
0.021742,-0.905929,0.503126,0.857073,0.440766,-0.266740
0.834427,-0.495396,0.720934,-0.845786,0.088221,0.526177
0.754441,-0.526336,0.688252,-0.185244,-0.314332,0.931064
0.211648,0.193149,0.514702,0.791310,-0.229869,-0.566558
0.068791,-0.213112,0.839668,-0.065778,-0.015908,0.997707
0.721992,-0.817090,0.634465,-0.208832,-0.865136,-0.455993
-0.138640,0.306447,0.620451,-0.047686,-0.859077,-0.509619
0.566399,-0.664089,0.609344,0.286781,-0.925879,-0.245978
-0.498013,0.112782,0.234267,0.188516,0.399005,0.897361
-0.072037,-0.706224,0.728717,-0.371906,0.806628,0.459388
0.163949,-0.151748,0.167052,0.011566,0.999463,0.030662
0.654822,-0.380773,0.819253,-0.417616,0.761819,0.495206
-0.289609,-0.120662,0.801628,-0.461543,0.176662,0.869349
-0.772533,0.340921,0.602305,-0.226401,-0.904619,0.361119
-0.540847,-0.235138,0.450094,-0.393238,-0.544159,-0.741117
-0.053541,0.158306,0.695071,0.793287,0.254505,-0.553102
-0.475623,-0.088177,0.759143,-0.181432,0.275181,0.944118
-0.839703,0.076245,0.576128,-0.742642,0.096639,-0.662679
0.490792,-0.419889,0.799516,0.754848,0.348267,0.555801
-0.049241,0.604789,-0.985699,-0.047211,0.391177,0.919104
0.313863,0.009578,0.834753,-0.498979,0.502125,0.706322
-0.456397,-0.033075,0.306162,0.177555,-0.486759,0.855301
-0.119332,-0.700110,0.714416,0.424529,0.905379,0.008067
-0.380711,0.303426,0.498406,0.915362,0.258461,-0.308722
-0.081935,-0.008249,0.845026,0.037137,-0.725756,0.686949
-0.376492,-0.362283,0.718457,0.928497,0.205538,0.309269
0.164355,-0.162431,0.983535,0.869743,-0.485903,-0.086294
0.183987,0.334292,0.698955,0.868664,-0.435424,-0.236282
0.426543,-0.587771,0.735561,0.206024,0.921206,0.330051
0.884238,-0.692522,0.503295,-0.121719,0.581474,-0.804408
-0.147320,-0.098638,0.646028,0.496842,0.799320,0.337987
-0.401071,0.474772,0.405576,0.976732,-0.140319,-0.162191
-0.415348,0.562136,0.640866,0.376280,-0.895934,0.236040
0.836861,-0.665118,0.578370,-0.114522,0.905241,0.409175
0.265110,-0.274916,0.949719,0.973952,0.068989,0.216005
-0.853413,0.057975,0.548452,-0.700440,0.208728,-0.682507
-0.054514,-0.613700,0.381015,-0.511343,0.305457,0.803259
0.689219,-0.280662,0.668855,0.968999,-0.056007,-0.240634
-0.234688,-0.805893,0.504038,-0.050319,0.907250,0.417571
-0.019632,-0.165010,0.908681,0.039782,-0.241107,0.969683
-0.458670,-0.907182,0.497755,0.818443,0.181511,-0.545166
0.192018,-0.127291,-0.582020,-0.596071,-0.797716,-0.091366
-0.422488,-0.814291,0.349768,-0.262246,0.583257,0.768790
0.225682,-0.192117,0.945222,0.107495,0.406015,0.907522
-0.183096,-0.844200,0.512081,0.097783,0.995206,0.001860
0.102701,-0.110791,-0.633500,-0.239423,0.961532,-0.134662
-0.175713,-0.687662,0.582385,0.288730,-0.100801,-0.952090
-0.351342,-0.283609,0.659117,0.691460,-0.387663,0.609590
-0.304780,-0.823940,0.513880,-0.012679,0.740181,0.672288
-0.072443,-0.271308,0.875152,0.572838,0.273853,0.772568
0.012168,-0.780921,0.534478,-0.656195,0.337588,-0.674864
0.471890,0.337534,0.700624,0.726877,0.685887,-0.034782
-0.005842,0.053186,-0.984513,-0.240990,-0.057856,0.968802
0.196964,0.813997,-0.960461,-0.328480,-0.641531,0.693209
-0.115762,-0.129061,0.891643,0.957209,0.073450,0.279921
-0.103513,-0.178415,0.475384,-0.010364,-0.522865,0.852352
-0.072931,-0.386888,0.802085,0.732528,0.597391,0.326383
-0.468241,-0.272265,0.760968,0.885628,-0.126826,0.446742
-0.546445,0.197937,0.552937,0.881555,0.267633,-0.388888
-0.241422,-0.135616,0.384444,-0.026055,-0.278876,0.959974
-0.071958,-0.852816,0.475528,0.822998,0.423046,0.379086
-0.421272,0.117643,0.100659,0.206009,0.821847,0.531157
-0.442202,-0.280810,0.764475,0.971086,0.173408,0.164079
-0.039831,-0.237348,0.659847,0.405290,0.651611,-0.641205
0.674939,-0.821804,0.644268,-0.088093,-0.647228,-0.757189
0.482679,-0.556979,0.615550,-0.563247,0.023378,0.825958
0.054514,-0.600072,0.820831,0.346248,0.773836,0.530367
0.070495,-0.579815,0.724259,0.250398,0.286800,0.924687
0.844164,-0.792780,0.643955,-0.188719,0.570193,0.799541
-0.508396,0.426667,0.669519,-0.472964,0.828232,-0.300561
0.470836,0.780406,0.421076,0.989446,-0.102926,0.101995
0.248642,0.116908,0.884108,0.607646,0.034085,-0.793476
-0.188124,0.264237,0.618952,0.129020,-0.722762,-0.678947
0.098888,0.086336,-0.981854,-0.327039,-0.389963,0.860799
0.575242,-0.296794,0.866301,0.012454,0.227409,0.973720
0.214811,-0.081768,0.930283,0.477314,-0.571717,-0.667316
-0.247102,-0.311453,-0.990862,0.262211,-0.015703,-0.964883
0.243447,0.173775,0.748832,-0.875478,0.442323,0.194647
-0.091508,-0.863499,0.504833,-0.076072,-0.732330,0.676687
-0.093860,-0.921473,0.581316,0.435537,-0.869499,0.232981
0.440415,0.240001,0.741388,-0.177789,0.922370,-0.342966
-0.112519,-0.300699,0.682086,0.953594,-0.141373,-0.265842
-0.491767,-0.071897,0.736486,0.237484,0.522444,0.818934
0.815122,-0.422245,0.700194,-0.465925,-0.872634,0.146370
-0.578081,-0.185561,0.487847,0.425420,-0.711307,0.559517
0.855032,-0.818416,0.473572,-0.297539,0.950114,0.093567
0.417215,0.438969,0.177338,0.958509,-0.053658,0.279968
-0.057272,0.509392,0.764384,0.663707,0.636560,-0.392790
-0.307862,-0.192560,0.595083,-0.553180,0.283042,-0.783505
-0.376572,0.301733,0.621794,0.714943,0.580393,0.389872
-0.180905,0.762579,0.680665,-0.402718,0.647478,-0.646986
0.206701,-0.185193,0.329366,0.543580,0.839159,0.018267
0.606472,0.272560,0.845547,-0.526353,0.560749,0.639150
0.499959,0.369577,0.684198,0.314950,0.782758,0.536746
0.176035,-0.087955,-0.164093,0.980836,-0.190269,-0.041946
0.453558,-0.399778,0.564487,0.524848,-0.169845,0.834079
-0.772127,0.038232,0.688305,0.889618,0.033084,0.455505
-0.811876,-0.215396,0.507675,-0.227398,-0.358021,-0.905600
-0.400180,-0.473074,0.835900,-0.065008,0.993479,-0.093671
-0.120387,0.950129,0.370847,0.875006,0.468228,-0.122994
0.359292,-0.793222,-0.966106,-0.230048,0.076190,0.970192
-0.557801,-0.589540,0.609084,-0.459203,0.198484,-0.865873
-0.048593,-0.282725,0.831312,0.830751,-0.549908,-0.086334
0.605257,0.246410,0.670758,0.959868,-0.256910,0.112476
0.058163,-0.890092,0.672492,0.686916,-0.578311,-0.440117
0.127849,0.457090,0.656744,-0.014279,0.576077,0.817271
-0.143668,0.401179,0.726240,0.151584,-0.789900,0.594206
0.009895,-0.853997,0.690351,-0.370915,0.879105,-0.299325
0.334468,-0.018121,0.634296,-0.389155,0.176842,-0.904038
0.980450,-0.525673,0.671006,0.889267,0.457137,-0.015178
0.376814,-0.221216,0.738611,0.577464,0.645322,-0.500094
0.651416,-0.215985,-0.035882,0.661684,0.697242,-0.275733
0.081123,0.464972,0.747619,0.460063,0.777660,-0.428471
-0.035776,-0.174658,-0.952079,-0.798391,-0.219210,0.560819
-0.217005,-0.736501,0.627061,0.041118,0.222547,0.974055
0.142371,-0.162872,0.148372,0.997374,-0.072305,0.004092
0.486898,-0.627402,0.441034,-0.459967,0.860577,0.218720
0.408453,-0.370533,0.805839,0.867452,-0.108804,0.485479
0.433844,-0.236759,0.478200,0.177723,-0.982037,-0.063381
0.043644,-0.439337,0.533643,0.831042,-0.119384,0.543246
0.477245,0.060553,0.781213,0.153870,-0.978119,-0.140029
0.628701,0.135764,0.819031,-0.141463,0.774738,-0.616254
-0.052568,0.299964,0.435311,-0.243023,-0.403892,0.881936
-0.102782,0.366262,0.732667,-0.391392,-0.636745,0.664356
-0.680945,0.085967,0.656522,0.717816,0.314632,0.621085
0.147805,0.817238,0.286972,0.165409,-0.583668,-0.794966
0.186500,-0.149687,-0.039767,0.949464,0.283724,-0.134233
0.171250,-0.266740,0.892960,0.650912,-0.737594,0.179633
-0.037237,-0.403903,0.474016,-0.739252,0.244335,-0.627540
-0.188772,-0.709023,0.624792,-0.887034,0.330747,-0.322144
-0.256997,-0.079264,0.689243,0.122293,-0.868417,0.480516
-0.231525,-0.261142,0.831012,0.849928,0.526602,-0.017669
0.176359,0.623794,0.515184,-0.565216,0.137637,-0.813380
0.316054,-0.102983,0.627764,0.019286,0.034252,0.999227
0.142695,-0.264235,0.968231,0.945048,0.316154,-0.083249
-0.173928,-0.712339,0.564709,-0.343457,0.843677,-0.412610
-0.929505,-0.036905,0.429484,0.870754,-0.247599,0.424833
-0.869069,-0.007145,0.708172,-0.749993,-0.631818,0.195748
-0.085747,0.151013,0.430788,0.625813,0.322716,-0.710079
-0.003164,0.966558,0.410034,-0.153271,-0.953802,-0.258397
0.258537,-0.197200,0.941050,-0.889688,-0.041520,0.454678
0.711285,-0.738489,0.189748,-0.581444,0.071741,0.810417
0.361807,0.669246,0.612160,-0.691653,-0.230820,0.684352
0.134176,-0.080882,0.875387,-0.069210,0.781220,-0.620408
0.403341,0.447293,0.463000,0.971077,0.199480,0.131213
0.233389,0.062468,0.743891,0.784026,0.422668,-0.454593
0.919769,-0.538932,0.497051,0.705064,0.561268,-0.433431
0.058651,-0.078012,0.909464,-0.749651,-0.507944,0.424283
0.266892,0.077643,0.905709,-0.016320,-0.506604,0.862024
-0.158675,0.104089,0.872193,-0.474146,-0.867265,-0.151777
0.292367,-0.527882,0.595422,0.404281,0.469144,0.785150
-0.146183,0.002652,0.832915,0.609909,0.790957,-0.048974
-0.971039,0.065856,0.453862,0.946669,0.311629,-0.081890
0.128903,-0.130976,0.598237,0.928436,0.371484,0.002523
0.018414,-0.707402,-0.979233,0.314802,-0.002591,-0.949154
-0.746167,-0.565378,0.602774,-0.703545,-0.480541,-0.523550
0.527865,0.244789,0.723802,-0.597082,0.425807,-0.679840
0.736188,-0.072706,0.725953,0.141796,-0.878258,0.456681
-0.494688,-0.467403,0.596673,-0.285123,0.677759,0.677752
0.433195,-0.020994,0.854360,-0.014801,0.856786,0.515460
0.134095,0.064309,0.852509,0.775401,0.577696,-0.254992
-0.758580,-0.317494,0.370730,-0.156878,0.722503,0.673334
0.294961,-0.100184,0.948103,0.694978,-0.678414,0.238246
-0.355888,-0.665192,0.578331,-0.402901,-0.913132,0.062144
0.593980,-0.047586,0.830686,-0.430289,0.498144,0.752797
0.378842,-0.623277,0.600428,-0.713764,-0.360104,0.600722
0.015008,-0.793885,0.535872,0.719226,-0.222128,0.658310
0.531678,-0.358600,0.856706,-0.613735,-0.599451,0.513798
0.120466,0.418932,0.516070,-0.353730,-0.347151,0.868540
-0.327573,-0.780626,0.768582,0.940175,-0.221254,0.259069
-0.429464,0.369798,0.428272,0.695488,-0.596185,0.401073
-0.018983,-0.891270,0.564213,-0.752605,0.413905,0.512122
-0.190151,-0.062466,0.762611,-0.137128,0.494336,-0.858387
0.049484,-0.075579,-0.825771,-0.803301,0.589439,0.085261
0.602175,-0.088987,0.837360,0.420810,-0.844799,-0.330505
0.395553,-0.420993,0.808942,0.713891,-0.402539,0.572993
-0.338444,-0.350791,0.718874,0.965430,0.158716,0.206772
-0.388821,-0.435727,0.726501,0.965847,-0.044864,0.255200
-0.321085,-0.584457,0.451515,-0.733035,0.396089,0.552967
-0.221466,-0.756244,0.336484,0.203882,0.644495,0.736925
0.615803,-0.451565,0.643147,0.465651,0.564254,-0.681753
0.270220,-0.073812,0.843162,0.221956,0.814144,0.536568
-0.096294,0.190719,0.862273,0.819141,-0.387311,0.423082
-0.434332,0.209283,0.578670,0.289594,0.933157,0.212965
0.222439,-0.140405,0.961048,-0.458943,-0.868412,-0.187704
-0.207271,-0.865192,0.495317,0.665371,0.329128,0.670042
-0.010061,-0.464752,-0.980276,-0.259280,-0.102082,0.960392
0.492171,-0.042577,0.789974,0.177587,0.800151,0.572905
-0.467510,-0.136794,0.636147,-0.236051,0.376057,0.896025
0.482112,0.474772,0.686128,-0.567273,0.036320,-0.822729
-0.211486,-0.480956,0.396672,-0.666400,0.720764,0.190813
-0.415999,-0.862393,0.671358,0.959210,0.161592,-0.231957
0.242314,0.204569,-0.946799,-0.379757,0.026931,0.924694
0.273544,0.371124,0.624831,0.946985,0.213983,0.239649
-0.583191,0.028435,0.627582,0.262334,0.694241,0.670231
0.197370,-0.869612,-0.968791,0.091546,-0.121278,0.988388
-0.162409,-0.684715,0.586687,0.479266,0.030588,-0.877136
-0.671536,0.380701,0.578357,0.176226,0.877932,0.445175
-0.471568,-0.684198,0.623841,0.948918,0.082211,0.304623
-0.450394,0.340627,0.633435,0.095071,-0.863703,0.494953
0.437332,-0.240956,0.826267,0.771732,0.349448,-0.531334
0.098888,0.628731,0.295289,-0.004581,-0.166548,0.986023
0.383873,-0.112855,0.437319,0.338839,0.939989,0.040114
-0.503286,-0.882210,0.489438,0.936335,-0.092516,-0.338700
-0.002191,-0.151085,0.558764,-0.637456,-0.516128,0.572067
-0.686949,-0.390718,0.368866,0.832269,-0.166365,0.528820
-0.631459,0.316685,0.540174,-0.432654,0.658142,-0.616165
0.054675,-0.189981,0.770693,0.521452,-0.837258,0.164584
0.618479,0.060110,0.859757,-0.483745,0.077987,0.871728
0.208647,-0.573849,0.712330,0.039732,0.920144,-0.389559
-0.589764,0.275287,0.564005,0.377447,0.487502,0.787322
-0.372110,0.065490,0.678514,0.831996,0.554699,0.009621
0.135798,-0.301142,0.742483,0.201383,0.023277,0.979236
-0.631622,-0.693628,0.601184,0.805443,0.160620,0.570493
-0.290827,-0.008987,0.738207,0.354946,0.921314,-0.158727
0.592438,-0.327291,0.865806,-0.287009,-0.310382,0.906250
-0.545633,-0.528986,0.603035,-0.468095,0.870179,0.153869
0.656768,-0.304015,0.579856,-0.105839,0.439818,0.891829
0.468726,-0.254364,0.650109,-0.577696,0.563703,-0.590343
-0.034397,-0.459964,0.608406,0.924302,0.011890,0.381478
0.364159,-0.583500,0.294703,0.625423,-0.032970,-0.779589
-0.419891,-0.620110,0.446939,-0.777142,0.529385,0.340296
-0.006897,-0.262540,0.810571,-0.555561,0.730526,-0.397093
0.250588,-0.740698,0.681135,-0.566103,0.315105,0.761733
0.288148,-0.518746,-0.971738,-0.097329,0.099499,0.990266
-0.711772,-0.298563,0.715055,0.550390,-0.748325,0.370244
0.639815,0.440958,0.797339,-0.330134,0.673052,0.661825
-0.255781,-0.725893,0.702006,0.414982,0.411180,-0.811616
-0.562586,-0.380773,0.769833,0.617307,0.786063,-0.032214
-0.125742,-0.103424,0.910402,-0.498613,-0.303224,-0.812060
-0.555204,0.050093,0.654332,0.595498,0.739943,0.312835
0.239474,-0.340110,0.746433,0.789143,0.611339,0.059313
0.976880,-0.648028,0.217568,-0.581444,0.071741,0.810417
-0.075931,0.557570,0.786832,0.228979,0.155912,0.960864
-0.041940,-0.210387,0.834075,-0.532132,-0.650378,0.542073
-0.222439,-0.340479,0.725953,-0.422248,0.701023,0.574694
0.444227,-0.009944,0.851922,-0.014801,0.856786,0.515460
-0.198021,0.506224,0.274575,-0.575930,0.201467,0.792285
-0.320354,0.442579,0.448139,-0.449668,-0.032976,0.892587
0.314027,0.285821,0.861139,0.122260,-0.961017,0.247990
0.139368,0.146962,0.885451,0.431447,0.288287,-0.854836
0.012168,-0.075579,0.926515,-0.646594,-0.701062,-0.300714
-0.533140,0.304458,0.544854,0.738370,-0.175794,0.651081
-0.222439,0.639926,-0.980094,-0.266696,0.476758,0.837601
-0.147562,-0.857827,-0.987981,-0.165142,0.106140,0.980542
0.009247,-0.844566,0.648896,-0.057163,0.970303,0.235043
0.392471,0.296353,-0.265645,0.895968,-0.443814,0.016438
-0.418433,-0.280884,0.734283,-0.655205,-0.641166,-0.399517
-0.988726,0.083832,0.362726,0.946272,-0.263187,-0.187889
-0.441632,-0.001620,0.640527,0.227135,0.955720,0.187107
-0.539629,-0.310424,0.784551,0.886516,0.396864,0.237881
0.031151,-0.940995,0.510256,-0.655592,-0.751892,0.069692
-0.257485,-0.493037,0.484666,0.944706,0.011928,0.327701
0.781131,-0.449355,0.705499,0.913028,0.198784,0.356182
0.149347,-0.397054,0.666234,-0.547406,0.230986,-0.804358
0.405044,-0.276537,0.858336,-0.367367,0.242380,-0.897939
-0.293260,0.204052,0.502004,0.105502,0.176902,0.978558
-0.200131,-0.170828,0.912853,0.288016,0.293475,0.911548
0.240205,0.244346,0.925498,0.972577,-0.078463,0.218948
-0.371462,-0.086039,0.734727,-0.094752,0.251910,0.963101
0.171816,-0.631456,0.637216,-0.055462,0.134593,0.989348
-0.426625,0.287514,0.628442,0.079476,-0.790315,0.607524
-0.131015,-0.744823,0.544906,-0.055334,-0.987960,-0.144472
0.695547,-0.502319,0.699437,-0.248286,-0.645010,0.722714
0.722074,-0.412154,0.830790,-0.684824,0.447344,0.575239
-0.453072,-0.022394,0.712200,-0.091408,0.849131,0.520212
-0.234122,0.327219,0.724545,-0.495586,0.407195,-0.767194
-0.124687,-0.599337,0.737073,0.395949,0.913785,0.090670
0.507178,-0.364641,0.788253,0.167496,0.585507,0.793175
-0.669184,-0.362505,0.697600,0.406659,0.424678,-0.808874
0.125658,-0.102763,0.395603,-0.056476,-0.988438,0.140718
-0.329358,-0.469981,0.704157,0.881511,0.085738,0.464313
-0.495013,-0.100184,0.755754,0.994843,-0.097447,0.028135
0.402774,0.293554,0.211910,0.959570,-0.120777,0.254242
0.409020,0.514918,0.508301,0.436451,-0.656491,-0.615248
0.075686,-0.574438,0.844530,0.976392,0.037204,-0.212779
-0.204349,-0.187403,0.258671,-0.495226,0.853358,0.162885
0.001297,-0.075064,0.568593,-0.593403,-0.589971,0.547547
-0.334552,0.241253,0.553693,0.744593,-0.061205,0.664707
0.018090,-0.110645,0.494952,0.574799,0.794548,-0.195703
-0.127527,0.099080,0.856380,0.809550,-0.340885,0.477940
-0.284578,-0.623866,0.685945,0.883203,-0.024935,-0.468327
0.370080,-0.839483,0.341894,0.013607,0.836330,0.548058
0.006328,0.512708,0.774044,-0.038205,-0.934602,0.353637
-0.315487,-0.574512,0.770263,0.481374,0.231797,-0.845310
-0.703821,0.329357,0.587365,-0.157262,0.940075,-0.302535
-0.396528,0.277128,0.426851,0.539490,0.765202,-0.351306
-0.026448,0.423057,0.299083,-0.588662,0.358014,0.724778
0.198264,-0.707256,0.801381,0.471884,0.799498,0.371656
-0.344366,0.055913,0.694340,0.733647,0.553281,0.394516
-0.061491,-0.469612,-0.984682,-0.198066,-0.041839,0.979295
0.001621,0.016722,0.631545,0.650662,0.535521,0.538383
0.427516,0.233223,0.729955,0.794064,-0.345052,0.500401
0.028879,-0.635801,0.878620,0.418932,0.704021,0.573455
0.058651,-0.076463,0.577575,0.750535,0.533487,-0.389985
-0.409347,0.091639,0.551021,0.124761,-0.840140,0.527826
0.185770,-0.312780,0.848141,0.032475,0.490180,0.871016
-0.618967,-0.900109,0.336210,-0.337638,0.629926,0.699423
0.814877,-0.618342,0.657513,-0.671630,0.548094,-0.498504
-0.028557,0.251713,0.604625,0.524763,0.082885,0.847203
0.333656,-0.072266,0.100542,-0.226018,0.934055,0.276509
-0.146995,0.117202,0.622407,0.617586,0.783171,-0.072320
-0.683216,0.005893,0.634987,0.722726,0.049061,0.689391
-0.153647,-0.001545,0.828639,-0.714949,-0.661810,-0.225512
-0.237528,0.124052,0.845743,-0.144115,-0.989290,0.023176
0.067170,0.222911,0.713386,0.631316,0.158430,0.759171
-0.319057,-0.712044,0.620634,0.027587,-0.312520,0.949510
0.745922,-0.378932,0.711744,0.828304,-0.512247,-0.226972
0.281090,0.285378,-0.033966,0.966128,-0.071635,0.247923
-0.586276,0.047957,0.247473,-0.360124,0.001748,-0.932903
0.196964,-0.343941,0.857358,0.988235,0.133826,0.074042
0.118033,0.753885,-0.990888,0.565342,0.206237,-0.798659
0.155918,-0.230496,0.897718,-0.654265,0.716207,-0.242866
0.072116,0.770609,-0.991918,-0.443270,-0.043040,0.895354
-0.348666,0.188066,0.571670,0.938830,0.325213,-0.113293
-0.310377,-0.394769,0.583572,-0.658340,0.567089,-0.494973
0.404965,-0.176722,0.308352,-0.343827,-0.679441,-0.648184
-0.205565,-0.661584,0.712004,-0.564527,-0.766089,-0.307275
0.111544,-0.458563,0.804209,-0.797308,-0.152031,-0.584112
0.730023,-0.304089,0.757123,-0.562974,0.719690,0.406332
0.411860,-0.348875,0.811679,-0.753727,-0.654380,-0.060674
0.511885,-0.760146,0.589425,-0.214359,-0.344449,0.914005
-0.509938,-0.344161,0.782139,0.246686,0.967787,-0.050335
-0.680945,-0.461067,0.545988,-0.391285,0.377700,0.839189
0.254888,-0.200956,0.979716,0.198642,-0.976813,-0.079856
0.423946,0.268509,0.848141,-0.263617,-0.602957,0.752960
0.327007,-0.474918,0.711652,0.976571,0.139783,0.163615
0.260646,-0.358083,0.857527,-0.386812,0.911576,-0.139302
-0.355236,-0.596390,0.577523,0.162663,0.245409,0.955675
-0.119332,0.032414,0.579152,0.019354,-0.814339,0.580067
-0.001866,-0.637422,0.842392,0.234241,0.747171,0.621986
-0.006409,-0.338637,0.906961,0.634421,0.772040,0.038266
-0.453558,-0.488692,0.688239,0.533443,0.844694,-0.043932
0.114463,0.246041,-0.952731,0.364913,0.439763,-0.820638
0.156324,0.560958,0.654932,0.849462,0.229997,-0.474885
-0.553176,0.403977,0.661841,0.862267,-0.001657,0.506451
-0.813582,0.022025,0.691433,0.872287,-0.203766,0.444517
0.300073,-0.341582,0.801680,0.603649,0.138992,-0.785041
-0.518536,0.385858,0.611665,0.036148,-0.749469,0.661052
-0.350208,-0.434695,0.705825,0.958367,0.277433,-0.067557
-0.443256,0.251639,0.572282,0.233457,0.955050,0.182694
0.054675,-0.977385,0.646341,-0.588584,0.785097,0.192850
-0.687110,-0.233149,0.718874,0.827351,-0.559882,-0.044979
0.067088,-0.721473,-0.976991,0.429215,0.037412,-0.902427
0.176523,-0.741953,0.332990,0.163411,0.725131,0.668941
-0.280686,-0.118378,0.745403,-0.413569,0.859001,0.301791
0.510830,0.309541,0.731885,0.163526,-0.095088,0.981946
-0.820883,-0.487439,0.379399,-0.739086,0.673573,-0.007185
-0.748925,0.027108,0.644320,0.770438,-0.270112,0.577464
0.070007,0.488988,0.644347,0.721153,0.647866,0.245372
0.250588,0.039189,0.692124,0.122218,-0.755496,0.643652
-0.022066,-0.588729,0.818719,-0.028695,0.899397,0.436189
0.641194,-0.115064,0.183387,-0.246500,0.968338,0.039481
-0.450881,-0.298709,0.748193,-0.312486,-0.948934,0.043314
-0.534438,-0.834475,0.342311,-0.516536,0.645327,0.562801
-0.281335,-0.322651,0.794341,0.895112,-0.429922,0.118074
0.974852,-0.726776,0.560654,0.999093,-0.033288,0.026561
0.127200,0.096428,0.854803,0.858127,0.448337,-0.250223
-0.111383,-0.918454,0.463378,0.367972,0.925897,-0.085505
0.056136,0.593445,0.508874,-0.094774,-0.022435,0.995246
-0.349478,-0.433663,0.758413,0.726146,0.456861,0.513800
0.737081,0.117274,0.866184,-0.792444,0.078322,0.604896
-0.686300,-0.303498,0.724141,0.951992,-0.305533,-0.018985
0.188530,0.012008,0.848715,0.771884,-0.055280,-0.633356
0.676076,0.013849,0.865480,-0.537590,-0.232118,0.810629
-0.199725,0.226668,0.534608,0.907565,0.354907,-0.224424
0.403666,0.798896,0.631897,0.734571,0.493634,-0.465543
0.137422,-0.490756,0.883091,-0.238246,0.758230,0.606898
0.756308,-0.142320,0.501418,-0.676948,-0.347884,0.648628
0.023687,-0.562431,0.833854,-0.427382,0.796418,0.427859
0.645737,-0.403389,-0.047589,-0.244576,0.370318,0.896129
0.106513,-0.050459,-0.558008,0.982568,0.171505,-0.071736
0.311348,-0.346739,0.885125,0.833317,-0.304121,-0.461620
1.000000,-0.551528,0.462440,0.963531,-0.266132,-0.027976
0.741543,-0.350276,0.768542,-0.691504,-0.162749,0.703800
0.194046,-0.733111,0.613451,0.939082,-0.338184,0.061289
-0.422976,-0.526556,0.291313,0.456667,-0.477577,-0.750584
-0.485845,0.668657,0.463352,-0.036805,0.992097,-0.119955
0.711527,-0.388875,0.734635,-0.081423,-0.951725,0.295954
-0.596495,-0.141657,0.707012,-0.357787,0.929282,-0.091781
-0.545063,-0.795653,0.529811,0.610436,-0.040635,0.791022
-0.671696,-0.543646,0.334528,-0.159767,-0.701976,0.694049
0.935264,-0.763757,0.389319,-0.255478,0.633260,0.730557
0.950514,-0.551822,0.729786,0.544699,0.826106,0.144398
-0.147562,-0.172228,0.881527,0.291530,-0.763420,0.576368
-0.437414,-0.538711,0.731533,0.993968,0.012010,-0.109007
-0.060842,0.318454,0.727739,-0.393231,-0.727615,0.562091
-0.553988,0.142983,0.303189,0.417780,-0.118077,-0.900843
0.173440,-0.256133,0.771945,0.514101,0.688673,0.511301
0.248236,0.219006,0.846642,0.888987,-0.348726,0.296804
-0.110246,-0.941141,0.576871,0.302463,-0.851223,0.428877
-0.664965,-0.084124,0.690781,0.574340,0.611492,0.544253
0.116572,-0.413480,-0.973237,0.205264,0.109893,-0.972518
0.206701,-0.157569,0.117306,-0.200523,0.963912,-0.175111
-0.435468,0.003315,0.707298,-0.575637,0.730173,-0.368090
-0.014928,0.718233,0.656692,0.567024,0.448959,0.690594
0.343717,-0.101583,0.790730,-0.633559,0.186602,0.750854
0.273708,-0.438820,0.896832,-0.663741,0.582341,0.469390
-0.098485,-0.191897,0.863068,0.449530,-0.883168,0.133927
-0.331955,-0.718969,0.483858,0.944753,-0.324474,0.046456
-0.546606,-0.669392,0.598407,0.777033,-0.122734,0.617379
-0.132230,-0.577459,0.723137,-0.390684,-0.465076,-0.794399
0.582949,-0.839778,0.627256,0.934002,-0.012902,-0.357036
-0.058327,0.507625,0.754867,-0.143964,-0.427395,0.892529
0.605500,-0.000956,0.829252,-0.813657,0.062979,0.577924
-0.208729,-0.205156,0.912892,-0.117488,0.608441,0.784854
-0.785919,0.090313,0.695344,-0.759415,-0.400256,-0.512917
0.345339,-0.051417,0.855024,0.005530,-0.013074,0.999899
0.127282,-0.072043,-0.450342,-0.668628,0.743519,0.010796
0.696844,-0.542099,0.644360,-0.700381,-0.427858,0.571317
-0.090533,-0.593369,0.736069,-0.073531,0.771706,0.631714
0.276059,-0.116022,0.976678,-0.099785,0.949676,0.296914
-0.014035,0.193149,0.702905,0.769504,0.248272,-0.588409
-0.193315,0.478897,0.276191,-0.598405,0.157049,0.785651
-0.434332,0.375249,0.651086,0.675188,-0.469099,0.569269
-0.456073,0.319486,0.294155,-0.591798,-0.170893,-0.787763
0.095400,-0.044418,-0.619969,0.650259,0.743057,-0.158205
0.717774,-0.792559,0.623071,0.109246,0.955123,0.275328
-0.319218,0.071676,0.234371,0.196956,0.081507,0.977019
0.727023,-0.407071,0.731350,0.064763,-0.936657,0.344209
-0.689138,-0.467697,0.373754,0.731283,-0.659846,0.172707
-0.359130,-0.084272,0.693415,-0.040942,0.726683,-0.685752
-0.244829,-0.495764,0.614585,0.405756,0.046067,0.912820
0.704712,-0.189318,0.391796,0.342160,0.540956,-0.768305
-0.048432,-0.170533,0.845625,-0.689712,-0.403694,0.601106
0.290582,-0.159704,0.920010,0.826211,-0.492071,0.274304
0.089803,-0.724198,0.523279,0.841419,-0.288777,0.456752
0.137583,-0.764935,0.504155,0.861676,-0.489348,0.134362
0.347854,-0.158306,0.783912,0.970593,0.231762,0.065077
0.202319,-0.919043,0.408809,-0.347450,-0.394321,-0.850758
-0.083477,-0.880664,0.552520,0.996368,-0.010763,0.084466
-0.421758,-0.283683,0.747723,0.758975,0.283397,0.586210
0.206944,0.742101,-0.972259,0.697008,0.322885,-0.640254
-0.172874,-0.579374,0.479100,0.800393,-0.101595,0.590804
-0.123712,-0.732082,0.524492,-0.378188,-0.826269,0.417437
0.048674,0.029541,0.901551,0.707639,0.697619,0.112140
0.267055,-0.751970,0.743487,0.543057,0.707018,-0.453006
-0.573620,0.047514,0.551073,0.309659,0.944957,-0.105675
0.150563,-0.132006,-0.153143,0.859026,-0.511695,0.015574
0.443742,0.053114,0.541660,0.530818,-0.038131,0.846627
-0.988805,0.142689,0.452558,0.922342,0.386276,0.008742
0.172386,-0.847439,-0.966849,0.035044,0.033872,0.998812
-0.007546,-0.566702,0.715055,-0.375305,-0.131301,0.917555
0.268677,-0.255764,0.925537,0.924453,0.356582,-0.135039
-0.087857,-0.578048,0.825237,-0.164881,0.923600,0.346090
0.343393,0.263869,0.869834,0.789200,0.557904,-0.256724
0.393119,0.338048,0.751674,0.251772,0.215214,-0.943554
0.542954,-0.209501,0.817441,0.724309,-0.448320,-0.523819
0.179117,-0.314621,0.728456,0.917594,-0.138437,0.372633
0.205077,-0.616868,0.612525,0.896979,-0.318782,0.306278
0.651171,0.168620,0.599111,0.840803,-0.151987,0.519568
0.298289,-0.089870,0.682034,-0.078765,-0.165308,0.983092
0.645494,-0.346076,0.753603,-0.526657,0.245073,0.813985
0.539708,-0.436611,0.632431,0.166865,0.255027,0.952427
0.241665,-0.600515,0.672205,0.962998,0.173647,0.206113
0.365862,-0.717791,0.735509,0.857104,-0.410228,-0.311587
-0.705120,-0.395507,0.458907,0.339514,-0.935599,-0.096874
0.202237,-0.142026,0.982388,-0.599321,0.795038,0.093423
0.396122,-0.746593,0.815929,-0.285120,-0.894833,-0.343483
-0.391012,-0.758011,0.446718,0.520701,-0.458430,-0.720216
0.613855,0.509835,0.519812,0.081485,0.444805,0.891913
-0.440660,-0.322283,0.747098,-0.982525,-0.046576,-0.180209
0.497932,0.371567,0.727726,-0.659624,0.713817,-0.235290
0.417618,-0.345635,0.692998,0.542052,0.840331,0.004826
0.131661,-0.209501,0.492358,0.652016,0.754122,-0.078580
0.044859,-0.033812,0.409134,0.328438,0.776950,-0.537101
-0.890647,-0.017606,0.583637,-0.725159,0.430957,-0.537047
0.583676,-0.730461,0.624140,-0.460669,-0.499447,-0.733714
0.041859,0.483463,0.753381,-0.229135,-0.752952,0.616896
0.451367,-0.796979,0.689804,0.272227,-0.105125,-0.956473
0.736433,0.035287,0.568919,0.971279,-0.212399,-0.107260
-0.700659,-0.635432,0.621598,0.895565,0.342259,0.284291
0.731484,-0.567882,0.361761,-0.716785,-0.103716,0.689538
0.233471,0.018195,0.893938,0.822056,-0.166090,0.544644
-0.481788,-0.410755,0.274301,0.842065,-0.314384,-0.438280
-0.024418,0.492597,0.760669,0.438602,0.764549,-0.472328
-0.895029,0.121179,0.431622,0.682673,-0.216621,0.697877
0.186339,-0.218415,0.978582,-0.006197,0.999910,0.011896
-0.203456,-0.810238,0.571996,0.901555,-0.323716,-0.287065
0.712419,0.197865,0.584888,0.818155,0.502698,0.279136
-0.025960,0.888030,0.432248,-0.670134,-0.621330,0.406041
0.123630,-0.200736,0.373741,-0.434829,0.662804,-0.609602
0.183742,-0.131048,-0.218676,0.932407,0.359070,-0.041070
-0.101079,0.431382,0.446288,-0.081138,0.545859,0.833939
0.140180,0.005819,0.024919,0.304209,-0.898660,-0.316018
0.346799,-0.696059,-0.969808,0.108120,-0.029637,-0.993696
0.215056,-0.541362,0.799321,0.955733,0.267596,0.122338
-0.191127,0.185267,-0.970199,-0.596633,0.663943,0.450787
-0.316784,0.228068,0.578905,0.871534,-0.489606,-0.026735
0.582949,-0.104530,0.866575,-0.732496,0.238373,0.637674
0.084611,-0.209650,0.858779,-0.612288,-0.770432,0.177590
0.115032,-0.159484,0.235518,0.725000,-0.682563,0.092101
0.704469,-0.736722,0.589060,-0.723414,0.690203,-0.017080
-0.086153,-0.426076,0.811484,0.750026,-0.099180,0.653930
0.271192,-0.732153,0.731572,0.684538,-0.677348,-0.269457
-0.553582,0.056282,0.661007,-0.418667,-0.790112,-0.447707
0.534680,0.446925,0.673939,-0.272047,0.506529,-0.818180
0.015493,0.873591,0.406371,-0.440246,0.693195,-0.570670
-0.503447,-0.909023,0.436576,0.725330,0.105317,-0.680298
0.262270,-0.689944,0.730099,0.906122,-0.394646,0.152306
-0.291800,-0.656722,0.579935,-0.132654,-0.190036,0.972774
0.239635,-0.766704,0.686323,-0.159304,0.414679,0.895915
0.708931,-0.730386,0.354030,0.552108,0.402188,-0.730357
0.452582,-0.189613,0.859678,-0.461661,0.583893,-0.667786
0.395634,0.056796,0.742796,0.777821,0.135179,0.613776
-0.192100,-0.487439,0.850696,-0.227995,-0.955988,0.184674
-0.144319,-0.659963,0.362908,0.969852,-0.161488,-0.182506
-0.335280,-0.656722,0.761959,0.885593,0.429837,0.175970
0.304290,0.544531,0.213513,0.931736,-0.127347,0.340075
0.404153,0.499300,0.505433,-0.478693,0.659419,0.579672
-0.674860,0.189615,0.076777,0.001385,0.882633,0.470060
-0.442932,0.082726,0.691968,0.645896,0.740805,0.184462
-0.312890,0.198895,0.617831,-0.611958,-0.367900,0.700112
-0.747303,-0.296279,0.698603,0.836023,-0.436576,0.332366
0.072280,0.683905,0.297245,0.004092,-0.033588,0.999427
0.083393,-0.268729,0.876860,0.128576,0.954884,0.267701
0.616370,-0.379815,0.703479,-0.347147,-0.801137,0.487513
-0.510345,-0.136942,0.360627,0.036310,-0.969824,0.241087
0.263567,-0.225341,0.329470,0.799787,0.594731,0.081463
-0.670481,0.285967,0.583624,0.005531,-0.866515,0.499120
0.616128,0.196316,0.857827,-0.454914,0.522901,0.720852
-0.823722,0.158160,0.568763,-0.757078,0.288067,-0.586387
0.256752,-0.398821,0.876508,0.767995,-0.263502,-0.583738
0.068225,0.062099,0.820296,0.989671,0.038817,0.138001
-0.576866,0.244495,0.606607,0.461237,0.353180,-0.813956
-0.380790,-0.033590,0.240811,0.155091,0.034301,0.987305
0.322706,-0.317789,0.323083,0.877872,0.478879,0.003920
0.560071,0.433371,0.672440,0.110671,-0.170839,-0.979064
0.747707,-0.255175,0.500922,0.699105,-0.237246,-0.674512
0.393040,-0.574512,0.711600,0.306039,0.947156,-0.096100
-0.328224,-0.712928,0.505081,0.926375,0.166007,0.338040
0.295286,0.142248,0.883378,-0.626312,0.767227,0.138189
0.287418,0.190572,0.231516,0.846573,-0.209841,0.489163
-0.615561,-0.428655,0.535064,0.048894,0.640842,0.766114
-0.219763,0.325378,0.445427,0.131034,-0.497849,0.857308
0.585382,0.321696,0.677498,0.667761,-0.262250,0.696649
0.666017,0.353003,0.663053,-0.778164,0.241012,-0.579978
-0.791759,0.035064,0.537398,-0.648969,-0.587754,-0.483099
-0.612884,0.222394,0.675321,0.888944,-0.450155,0.084498
-0.402695,-0.740258,0.519264,-0.121183,0.415791,0.901350
-0.120223,-0.552708,0.304584,0.171186,0.504198,0.846451
0.433926,0.319043,0.743396,0.746183,-0.451887,0.488886
-0.654500,-0.406851,0.541921,-0.304616,-0.246594,0.920001
-0.590898,-0.693700,0.591368,0.696351,0.063342,0.714901
-0.626107,-0.172963,0.778737,-0.817422,-0.121803,-0.563015
0.124603,-0.161251,0.142153,0.981839,-0.189248,0.013338
0.410236,-0.795653,0.772479,0.157755,0.361162,-0.919062
-0.005761,0.152560,-0.973471,0.464397,0.370446,-0.804429
-0.019795,-0.680663,0.532392,-0.586119,0.108001,-0.802995
0.495983,-0.500773,0.603987,-0.464970,0.866980,0.179300
0.521213,-0.840441,0.607741,0.938078,0.135944,-0.318637
-0.681676,0.367294,0.615393,-0.137008,-0.960441,0.242451
0.179038,-0.259447,-0.968009,0.081807,-0.264043,0.961035
0.629511,-0.568617,0.673587,0.469267,0.882994,-0.010521
-0.130933,0.057311,0.846733,-0.515164,0.524738,-0.677684
-0.307699,0.018712,0.112613,0.209016,0.796362,0.567556
0.128661,-0.151085,0.837113,0.334230,-0.238010,0.911944
0.171492,-0.168398,0.136756,-0.437265,0.893009,-0.106466
-0.861929,0.235138,0.375540,-0.421508,0.438016,0.794023
0.156727,0.012303,0.837360,-0.238527,-0.511308,0.825632
-0.158839,-0.185341,0.896271,0.423130,-0.898018,-0.120521
-0.130364,-0.402872,0.607963,0.533991,0.292457,0.793298
0.447797,0.814734,0.653368,0.969218,0.209914,-0.128655
0.574105,-0.469761,0.855337,0.417048,0.008141,-0.908848
-0.197373,-0.286408,0.575007,-0.577916,0.308840,-0.755401
0.224221,0.208766,0.919775,0.991270,0.051224,0.121489
-0.312972,-0.446702,0.757618,0.724108,0.173634,0.667472
-0.526813,-0.146593,0.722577,0.745810,0.388468,-0.541166
-0.835160,0.046851,0.574981,0.795605,-0.269432,0.542604
0.804331,-0.700404,0.498628,0.217023,0.965842,-0.141600
0.363510,-0.741730,-0.973458,0.156352,-0.032892,-0.987154
-0.553907,-0.151379,0.218219,0.566645,0.683692,-0.459868
-0.483006,-0.455544,0.779701,0.668502,0.666442,-0.330091
-0.072037,-0.737459,0.543055,0.382947,0.674739,0.630935
-0.331143,0.138197,0.565569,0.966809,0.193883,-0.166401
-0.513833,-0.474990,0.590194,0.397412,-0.617044,-0.679205
-0.440253,-0.737236,0.629485,0.890966,0.423972,0.162568
0.623671,-0.009281,0.861360,-0.080518,-0.071000,0.994221
-0.205080,-0.875358,0.626722,-0.589144,-0.802962,-0.090338
0.607284,0.159412,0.855585,0.521878,-0.335486,-0.784279
-0.087693,0.940186,0.404546,0.615969,0.764645,-0.189474
0.191936,-0.795653,0.680926,0.799835,-0.500365,-0.331509
-0.227388,-0.607439,0.469792,0.780044,-0.616817,0.105201
0.532165,-0.352485,0.839577,-0.543719,-0.346571,0.764368
-0.132961,-0.491345,0.772088,0.721007,0.175863,0.670239
0.502880,-0.339815,0.838638,-0.515027,0.069605,0.854343
-0.226982,-0.920958,0.554527,-0.151322,0.978562,0.139708
0.935994,-0.507477,0.737412,-0.507784,0.498376,0.702692
-0.665693,-0.578268,0.552350,-0.268374,-0.537632,0.799329
0.323273,-0.633148,0.756432,0.949970,0.232004,0.209119
-0.395068,0.234255,0.407296,-0.593617,-0.226622,0.772180
-0.640790,-0.430424,0.356455,0.053116,-0.523984,0.850071
0.512370,-0.772007,0.637385,0.232354,0.694693,0.680745
-0.710879,-0.648028,0.614194,0.799599,0.360940,0.479962
0.309969,0.035802,0.907000,0.958931,-0.258585,0.116558
0.174738,-0.086334,0.846212,-0.685416,0.456965,0.566911
0.694735,-0.815544,0.635912,0.068626,0.836485,0.543675
0.134501,-0.090313,0.936370,0.844079,0.165122,0.510162
0.764906,-0.257606,0.744764,-0.249987,0.939102,0.235783
-0.259269,0.216207,0.617609,0.808898,-0.448769,-0.379855
-0.788838,0.027846,0.710818,0.308890,0.949653,0.052403
0.140017,0.621143,0.513919,0.122490,-0.198681,0.972380
0.296746,0.422099,0.612473,0.921191,-0.055645,0.385112
-0.450639,0.257680,0.497038,0.994787,0.025615,0.098705
0.901436,-0.511233,0.592019,0.165399,0.304031,0.938194
0.259755,-0.134290,0.839759,-0.655362,0.266345,0.706796
0.234768,-0.064087,0.698603,-0.502132,-0.509782,-0.698560
-0.116008,-0.003241,0.476310,-0.623872,-0.114683,0.773066
-0.065954,-0.033518,0.560993,-0.701287,-0.584048,0.408759
0.095724,-0.266740,0.885412,0.124714,-0.989433,0.073948
-0.219438,0.081842,0.839159,0.379611,0.924140,0.043141
0.138801,-0.686924,0.687783,0.300750,0.532443,0.791236
-0.299101,-0.120956,0.668868,0.347599,0.750549,-0.562006
0.136852,0.080590,0.711405,-0.494485,-0.865175,0.083413
-0.398801,0.312413,0.630098,0.195712,-0.805767,0.558960
0.653037,-0.739889,0.191586,-0.581444,0.071741,0.810417
0.210756,0.157643,0.759287,0.938652,0.329273,0.102522
-0.131258,-0.746739,0.722681,-0.625398,-0.533065,-0.569841
-0.851871,0.061805,0.254265,0.128774,-0.727083,0.674365
-0.099700,-0.794769,0.745116,-0.324695,0.900209,-0.290168
0.552364,-0.345708,0.639940,-0.269605,0.121026,0.955335
0.757117,-0.466739,0.836735,0.182830,-0.972217,0.146173
0.391416,-0.859889,-0.963903,-0.310477,0.045836,0.949475
-0.973149,-0.163904,0.411390,0.690184,-0.721984,0.048842
-0.038534,-0.061951,0.495525,0.641338,0.766753,-0.027847
-0.790056,0.138197,0.687770,-0.757763,-0.039076,-0.651359
0.076256,-0.256133,0.882427,0.205921,-0.971897,-0.114075
0.073334,-0.903205,0.474850,0.841299,-0.000510,0.540570
-0.132800,-0.936721,0.612851,0.027449,0.960020,0.278581
0.066276,-0.089650,0.887511,-0.395299,0.906945,-0.145565
0.333007,-0.240147,0.779532,-0.545767,-0.387717,0.742842
-0.543848,0.412965,0.635886,0.512007,0.827341,-0.230987
-0.207107,-0.529724,-0.986599,-0.182350,-0.055205,0.981683
-0.161840,-0.124936,0.669102,0.279011,-0.610319,0.741393
-0.614506,-0.743866,0.318559,0.992918,0.110024,0.044827
-0.702281,0.084789,0.663445,-0.691240,-0.411131,-0.594272
0.332765,-0.890240,0.692033,-0.636327,0.243934,-0.731836
-0.323436,-0.746813,0.335154,0.282589,0.554425,0.782788
-0.187314,-0.133921,0.847059,0.770859,-0.517406,0.371575
0.556095,-0.381510,0.708771,-0.427041,-0.893831,0.136755
-0.480409,-0.167586,0.739589,0.787251,0.156368,0.596478
-0.506369,-0.503794,0.591250,0.793444,-0.571265,-0.210005
0.183987,-0.526776,0.906113,0.983831,-0.168710,0.060117
0.100592,0.536650,0.650187,-0.444042,0.087672,0.891706
0.443497,0.444789,0.476988,0.913153,0.349330,0.210046
0.128416,-0.140256,0.944296,0.799493,-0.108352,-0.590823
-0.125742,-0.770901,0.588682,0.151529,0.569013,0.808247
0.103674,-0.196905,0.960917,0.915238,0.322237,0.241874
-0.076501,0.429983,0.025557,-0.169719,0.641396,0.748203
-0.340229,-0.384604,0.733410,0.904386,0.264743,-0.334659
0.258537,0.231750,0.847750,-0.065160,-0.796431,0.601208
0.260079,-0.882579,0.698903,-0.420792,-0.694899,-0.583137
0.653768,-0.897679,0.643408,-0.754697,0.508110,0.415038
-0.543442,-0.004713,0.396046,0.036318,-0.463221,0.885498
-0.031800,0.312413,-0.955260,-0.323454,0.150354,0.934222
-0.066360,0.140038,-0.983640,0.240394,0.378694,-0.893757
0.257482,0.136722,0.755558,0.664577,0.659876,0.350573
0.937131,-0.569280,0.556339,-0.772648,-0.563306,0.292749
-0.613209,0.013849,0.713425,0.013939,-0.814413,0.580118
0.112678,-0.079189,0.875830,0.131256,-0.788800,0.600472
-0.099943,0.476390,0.749757,-0.097616,-0.476730,0.873613
0.183336,-0.607293,0.712161,-0.202541,-0.906794,-0.369733
-0.112032,-0.045525,0.486987,-0.715717,0.050862,0.696536
0.882616,-0.507328,0.668829,0.375809,0.379297,-0.845519
-0.474244,0.017165,0.632001,0.036662,0.928117,0.370479
0.568426,0.212820,0.842210,-0.698656,-0.388721,0.600647
-0.155593,0.009872,-0.992608,-0.123657,-0.138404,0.982626
-0.502474,0.242211,0.566508,0.439342,0.849805,-0.291222
-0.823153,-0.113518,0.477366,0.978216,0.203875,-0.039089
0.212217,0.313517,0.657604,0.925214,-0.126336,0.357797
0.426625,0.301216,0.748062,0.089145,-0.410298,0.907584
0.176035,-0.964346,0.742809,-0.410737,0.910688,0.044079
-0.152105,-0.142394,0.909659,-0.555691,0.381793,-0.738540
0.164597,0.133114,0.278147,-0.244918,-0.046190,0.968443
-0.644521,-0.769429,0.321466,0.971053,0.200308,0.130128
0.063276,-0.325673,0.434125,-0.627550,0.710593,-0.318179
-0.143019,-0.088029,0.753199,0.313572,0.880292,-0.356031
0.932912,-0.698048,0.381993,-0.564532,0.139301,0.813572
0.848949,-0.723831,0.380442,-0.255478,0.633260,0.730557
0.386143,-0.894365,0.416526,0.161940,-0.873803,0.458523
0.047456,-0.126408,-0.900508,0.974155,0.225738,-0.008055
0.070413,-0.659815,0.731037,-0.807716,0.317476,-0.496794
0.129634,-0.882356,-0.968257,-0.315750,-0.100558,0.943499
-0.288230,0.436538,0.257654,-0.644028,0.511158,0.569162
-0.244992,-0.231454,0.849706,0.923553,-0.373780,-0.085659
0.050620,-0.118232,-0.872754,0.931816,-0.362820,0.009027
0.276953,-0.710055,0.813387,0.264716,0.878733,0.397182
-0.458670,-0.159999,0.392422,-0.049989,-0.176913,0.982956
-0.207756,0.069246,0.859366,0.249688,0.846710,-0.469828
-0.730917,-0.259741,0.725575,-0.173009,0.742680,0.646911
0.076904,-0.287660,0.933189,0.932710,0.359224,0.031801
0.304696,-0.734806,0.745677,-0.626737,0.738013,0.250076
-0.287175,0.334586,0.643030,0.196153,0.108292,0.974575
-0.382739,0.012082,0.387142,0.507741,0.110743,-0.854363
-0.246532,0.423500,-0.996611,-0.243044,0.085788,0.966214
-0.491037,0.045084,0.718092,-0.491122,0.594057,-0.637100
0.254482,-0.385635,0.881618,0.698186,-0.253984,-0.669349
0.443497,0.518823,0.603478,0.155577,-0.342874,0.926409
-0.295370,-0.231748,0.920923,-0.695963,0.391516,-0.601956
-0.503853,0.113812,0.573039,0.802026,0.207892,-0.559942
-0.470999,0.397865,0.445062,0.563154,0.352649,-0.747326
0.048674,0.813482,-0.990627,-0.075405,-0.074642,0.994355
-0.314108,0.225121,0.415001,-0.591917,-0.398153,0.700791
0.084448,-0.239999,-0.934962,0.740890,0.640190,-0.203074
-0.024257,-0.919188,0.532079,-0.718152,-0.545419,-0.432175
-0.720452,0.330387,0.589516,-0.157262,0.940075,-0.302535
-0.106352,-0.450018,-0.982962,-0.197686,-0.029340,0.979826
-0.653931,0.063869,0.395577,0.715954,0.565350,0.409621
-0.520485,0.405304,0.665205,0.679694,-0.612806,0.403094
0.328871,0.249652,0.840893,0.174918,-0.720978,0.670518
-0.606312,-0.146002,0.392344,-0.001462,-0.879369,0.476139
-0.175065,-0.027477,0.755611,0.451033,0.478077,-0.753666
-0.328873,-0.757199,0.341750,-0.333938,-0.617037,-0.712566
0.037479,-0.458194,0.652533,0.804590,0.397052,-0.441571
-0.477245,-0.128912,0.665439,0.322982,-0.616580,-0.717992
-0.082665,0.169061,0.852118,-0.715650,0.483842,-0.503729
0.392391,0.771418,0.357642,-0.802882,0.163077,0.573399
-0.155433,-0.803536,0.737894,0.299820,0.901087,0.313290
-0.039346,0.527368,0.782856,0.033427,0.996183,0.080635
0.079256,-0.092892,0.916464,0.305972,0.946296,-0.104425
0.630405,-0.402283,0.809958,0.544104,0.812300,0.210049
-0.106516,-0.731787,0.584602,0.625675,-0.188798,-0.756892
-0.250751,0.228068,0.587431,-0.306135,0.200238,0.930691
-0.299831,-0.856501,0.605772,0.448327,-0.879560,-0.159300
0.232904,-0.278306,0.805383,0.182521,0.441810,0.878345
0.754117,-0.088692,0.859483,0.995944,0.036147,-0.082399
0.247181,-0.886998,0.689556,-0.297778,-0.134518,-0.945110
-0.700659,0.076611,0.663236,-0.715911,-0.307981,-0.626593
-0.136855,-0.164567,0.656627,0.386292,0.623380,0.679835
-0.087369,-0.347917,0.788527,0.568423,0.370530,0.734577
-0.058814,-0.775469,0.742561,0.178946,-0.776585,0.604065
-0.149916,0.369429,0.441569,-0.170078,-0.097168,0.980628
0.272653,0.041768,0.821143,0.968635,-0.239058,-0.067809
0.355237,-0.249281,0.660590,0.098824,-0.132235,0.986280
0.380060,0.589909,0.217516,0.963671,-0.058210,0.260672
-0.731729,-0.431971,0.395811,0.534894,-0.844187,-0.035150
-0.270789,-0.348066,0.764319,0.540604,0.053737,-0.839559
0.175468,0.043243,0.879389,0.853166,0.249379,0.458169
-0.324167,0.251270,0.405810,-0.566463,-0.253410,0.784157
0.226006,-0.493406,0.789935,0.874123,0.292739,0.387574
0.001785,-0.304089,0.869325,-0.069353,0.927577,0.367138
-0.662531,-0.255247,0.486022,-0.291613,0.862047,-0.414531
0.258212,-0.572008,0.768477,0.245908,0.905802,0.345040
0.021984,-0.566408,0.810415,-0.169748,-0.605054,-0.777879
0.653768,0.370755,0.799477,-0.891788,0.392518,0.225040
-0.744464,0.050902,0.667355,0.811530,-0.519390,-0.267682
-0.133124,0.571050,0.276074,-0.378517,0.118597,0.917965
-0.128824,-0.694955,0.365085,0.544429,-0.119194,-0.830295
0.737648,-0.226371,0.394000,0.342160,0.540956,-0.768305
0.094751,0.089355,0.834805,0.658778,-0.255152,-0.707749
0.006732,-0.452228,0.802319,0.460190,0.406153,0.789471
0.593007,-0.530387,0.695462,0.032058,-0.816380,0.576625
0.505799,-0.535838,0.665309,-0.161689,0.946395,0.279632
-0.121847,-0.649798,0.743396,0.181983,0.961175,0.207425
0.475948,-0.355873,0.715550,-0.157954,-0.984730,-0.073190
-0.392716,-0.676096,0.783377,0.249406,0.717111,0.650806
0.476351,-0.270350,0.841050,0.969312,0.231501,-0.082716
-0.178389,-0.724861,0.731116,0.644854,0.574109,0.504541
0.586355,0.154329,0.822721,0.391624,0.765534,-0.510479
-0.436523,-0.324861,0.740736,-0.060978,-0.997770,-0.027125
-0.003570,-0.125525,0.881149,-0.451548,0.882096,-0.134205
-0.245477,-0.515358,0.406084,-0.578102,0.283942,0.764968
0.146102,-0.003020,-0.352231,0.960577,-0.243574,-0.134027
-0.266976,-0.552117,0.483415,0.192741,-0.204474,0.959709
-0.472217,-0.260479,0.668450,0.827509,-0.538179,0.159978
0.010465,-0.160367,0.862807,-0.401872,-0.787990,-0.466445
0.230795,-0.078452,0.229000,0.877457,-0.364457,0.311834
-0.681027,-0.372080,0.360314,0.274168,-0.439181,0.855542
0.374544,-0.119927,0.108885,-0.089850,0.992960,0.077191
0.142126,-0.121031,0.154668,-0.608829,0.791452,0.054138
-0.059139,0.499449,0.752795,-0.301903,-0.638501,0.707935
0.508721,-0.062172,0.808981,-0.475718,0.683243,0.553959
0.537357,0.643905,0.507610,0.581747,0.077572,0.809662
0.521213,0.106593,0.480808,0.559554,0.820544,0.116649
-0.701063,-0.749612,0.623958,0.994830,-0.043876,0.091589
0.819095,-0.644126,0.641270,0.479117,0.297301,0.825868
0.193721,-0.203609,0.889101,-0.748293,0.560500,0.354820
-0.388254,0.198011,0.562492,0.756134,0.581052,0.301065
-0.251887,-0.545341,0.765244,-0.319591,0.509074,0.799190
0.599578,-0.917127,0.669350,0.770502,0.529778,0.354488
-0.694980,-0.285010,0.742131,0.606577,-0.606044,0.514563
-0.257485,0.024898,0.765166,0.506948,-0.713072,0.484285
-0.657013,-0.652965,0.610048,0.767852,0.211467,0.604719
-0.351181,0.060773,0.688396,0.880135,0.419389,0.222428
0.378275,-0.064087,0.010188,0.052723,0.980337,0.190157
-0.608421,-0.699595,0.601210,0.697365,0.315113,0.643728
-0.547985,-0.420847,0.363482,0.068590,0.479613,-0.874795
0.098158,-0.445893,0.506802,0.961156,-0.258022,-0.098001
-0.667074,0.165821,0.661750,-0.776656,0.622392,-0.097129
0.825099,-0.420404,0.714899,-0.421684,-0.288759,0.859535
-0.008761,0.671087,0.659117,0.481450,0.343618,0.806308
0.426868,0.466298,0.524557,0.012697,0.864145,0.503082
-0.465725,-0.677422,0.432313,-0.524178,0.723042,0.449943
0.962845,-0.500478,0.683116,0.896191,0.318030,0.309352
0.260646,-0.778122,0.696244,-0.323860,-0.459439,-0.827062
0.917659,-0.530533,0.560328,0.173109,0.085845,-0.981154
0.385982,0.781658,0.625640,0.749547,0.400624,-0.526954
-0.365216,-0.533186,0.773496,0.524654,0.556754,-0.644021
0.381439,-0.729209,0.811119,-0.208897,-0.802879,-0.558343
0.008274,0.339154,0.725497,-0.336138,-0.098878,0.936608
0.174901,-0.244052,0.521441,0.841660,0.445293,-0.305489
0.568508,0.351971,0.733605,0.252150,-0.683921,0.684596
0.185527,-0.540699,0.805617,0.608111,0.771146,0.188504
0.556258,-0.177900,0.649848,0.250109,0.211980,-0.944728
0.547091,-0.384972,0.713412,-0.427041,-0.893831,0.136755
0.659283,-0.187918,0.905892,-0.795067,-0.108659,0.596709
