0.904513,-0.223209,0.557267,0.751461,-0.530986,-0.391612
0.372042,-0.113598,0.669115,0.901081,0.142652,-0.409517
-0.714019,0.670333,0.274323,0.660531,-0.684166,-0.309219
-0.103329,0.056221,0.804799,-0.746880,0.614915,-0.253081
-0.625687,0.723144,0.434011,0.542529,-0.246243,-0.803136
0.074162,0.172649,0.875698,0.759208,0.594150,-0.265686
0.073679,0.260646,0.786922,0.231559,0.862072,-0.450790
-0.493533,0.071079,0.447959,-0.718919,-0.335979,-0.608501
0.195514,0.298662,0.679706,0.926489,0.095382,-0.364033
-0.500205,0.524637,0.575055,0.604083,0.699348,0.382095
0.100235,-0.117265,0.446899,-0.275344,0.501096,0.820420
0.025041,0.089862,0.938889,0.946932,0.304911,0.101732
-0.006604,-0.213367,0.710000,0.002615,0.988232,0.152939
-0.054209,0.126335,0.475203,0.051332,-0.001849,-0.998680
0.180312,0.475492,0.563507,0.399721,0.254021,-0.880736
-0.070857,-0.176380,0.394963,0.705772,0.227595,0.670884
0.263690,-0.425575,0.564745,0.768240,-0.004604,-0.640146
-0.080215,0.459153,0.212243,-0.331616,0.252633,-0.908959
-0.283641,0.212467,-0.983015,-0.032458,-0.073806,0.996744
-0.684919,0.609096,0.497738,-0.505210,0.730688,0.459192
0.066043,-0.035186,0.672547,-0.124868,0.044247,-0.991186
-0.484864,0.708156,0.517186,-0.702163,-0.627199,-0.337030
0.506399,0.179789,0.467687,-0.226971,-0.033955,0.973309
0.168341,0.214589,0.772170,0.971112,-0.090410,0.220833
-0.061914,0.056542,0.626673,-0.684656,0.376540,-0.624070
0.117984,0.359385,0.627617,0.937986,0.020478,-0.346069
-0.220968,-0.381770,0.664942,0.594814,0.801458,0.062143
0.095555,-0.076804,0.746023,-0.599802,0.216155,-0.770399
-0.049875,0.255114,0.697239,0.339862,-0.095080,-0.935657
0.172263,-0.145890,0.770396,0.851556,0.383663,-0.357287
0.207416,-0.630194,0.321602,-0.617996,-0.015645,-0.786025
0.160706,0.160878,-0.247194,0.649030,-0.760715,-0.008562
-0.111723,-0.017110,0.768508,0.728433,-0.396040,0.559051
0.038113,-0.133925,-0.979647,-0.263975,-0.025462,0.964193
-0.257498,0.536215,0.530112,-0.791108,0.544607,0.278479
0.024905,-0.030812,-0.980221,-0.259264,-0.153648,0.953506
0.212507,0.186608,0.886034,-0.540283,-0.539068,-0.646143
-0.561503,0.509649,0.665975,-0.488320,0.867710,0.092864
-0.653482,0.241542,-0.988107,-0.028656,-0.142837,0.989331
-0.796849,0.307024,-0.997052,0.371177,0.032660,-0.927988
-0.183199,-0.141837,0.515846,0.774354,-0.480519,0.411677
0.654790,-0.585617,0.419502,0.845852,0.097703,-0.524393
0.532747,-0.560080,0.585353,0.014927,0.410331,0.911815
-0.241675,-0.252734,0.742348,0.781172,-0.293951,0.550785
-0.217596,0.432394,0.515450,0.535596,0.639185,0.551887
-0.267061,-0.247331,0.736517,-0.694062,0.440783,-0.569200
0.748144,-0.099382,-0.957150,-0.105438,-0.366046,0.924604
-0.622110,0.661006,0.496768,-0.909213,0.061165,-0.411814
-0.700606,0.583043,0.297995,-0.066689,0.389394,0.918654
0.553109,-0.511128,0.586897,-0.023786,0.470684,0.881981
-0.375412,0.427698,0.639918,-0.240227,-0.556172,-0.795590
0.020158,0.000000,0.733186,0.917043,-0.354155,-0.183323
0.455766,-0.605686,0.619463,-0.357249,0.907800,0.219711
0.609316,-0.343496,0.457146,-0.247707,-0.283674,0.926375
-0.523389,-0.140229,0.355916,0.464825,0.313412,-0.828077
-0.639928,0.944680,0.419477,0.234156,-0.972142,-0.010538
-0.414075,0.752927,0.553592,0.699215,-0.223760,0.678992
0.086406,-0.229062,0.750375,-0.393863,-0.853298,-0.341694
0.280271,-0.015502,0.486534,0.476370,0.085996,-0.875029
-0.452875,0.448669,0.463322,0.611580,0.460506,0.643354
-0.158778,0.489193,0.835272,0.464820,-0.709621,0.529510
-0.054828,0.833333,0.316459,0.040163,0.444069,0.895092
0.084825,0.087419,-0.162514,0.975027,-0.159085,0.154968
-0.856700,0.548180,0.289598,0.560741,-0.548939,-0.619867
-0.027036,-0.089541,0.683649,0.391891,0.124489,-0.911550
-0.388758,0.279043,0.767002,-0.712131,0.505032,-0.487660
-0.505296,-0.087418,0.378949,0.560280,0.602310,-0.568603
0.042515,-0.053133,0.827488,-0.359046,0.345918,-0.866849
-0.206866,0.421716,0.799618,0.457978,-0.645592,0.611119
-0.039487,0.082915,0.705840,-0.290660,0.700672,0.651595
-0.289557,0.862537,0.246531,0.406090,0.079430,-0.910375
-0.584204,-0.067734,0.354537,0.462236,0.070608,-0.883942
-0.303040,0.310626,0.564362,0.487888,0.807481,-0.331573
0.526969,0.096424,0.455641,-0.092034,0.169876,0.981159
-0.039076,0.179789,0.593303,-0.472711,-0.608387,0.637503
-0.254610,0.717869,0.529691,-0.040503,-0.489382,0.871128
0.457691,0.339058,0.571993,-0.552647,0.109564,0.826182
-0.792033,0.032870,-0.995419,-0.168873,-0.073781,0.982872
-0.831108,0.146533,0.371739,0.017543,-0.252313,0.967487
-0.787080,-0.106715,0.470494,0.081267,0.909303,-0.408123
-0.299945,0.533320,0.741544,0.081303,0.692106,0.717203
0.009012,0.160556,0.753476,0.754574,-0.623922,-0.203319
0.021397,0.228161,0.848747,-0.669021,-0.707824,-0.226707
-0.519745,0.398687,0.654937,-0.275036,0.121873,0.953678
0.643024,-0.194583,0.498210,0.891967,0.447163,-0.066633
0.077051,0.119516,0.846489,-0.654296,0.169520,-0.736993
-0.069482,0.723016,0.307106,0.119330,-0.261259,0.957864
0.234178,-0.132575,-0.968341,0.078554,0.277889,-0.957396
0.118465,0.381449,0.886187,-0.480546,-0.786332,-0.388275
0.248005,-0.227261,0.534821,0.703298,-0.313533,-0.638020
0.065493,0.170977,0.930543,0.869406,0.378329,-0.317806
0.213127,0.035379,0.393241,0.613804,0.561387,-0.555058
0.947442,-0.054484,0.359501,-0.333285,0.300471,0.893666
-0.533297,0.595651,0.471655,-0.232758,0.593403,-0.770517
-0.050151,0.036151,0.497496,-0.782596,0.476296,0.400856
-0.205833,0.123054,-0.982288,-0.134422,0.148817,0.979686
-0.408571,-0.058600,0.398026,-0.364635,-0.766378,0.528873
-0.014170,0.013122,0.737117,0.888392,0.441985,-0.124133
0.242983,0.128136,0.652475,0.333391,0.481750,0.810412
-0.453700,-0.098096,0.573320,0.120910,0.726010,0.676972
-0.894194,0.671941,0.278700,-0.499174,0.189715,-0.845478
0.107457,0.132960,0.886774,0.507034,0.859161,0.068985
-0.857389,0.241605,0.128928,-0.055044,-0.524733,0.849486
0.173294,0.037502,0.620917,0.730193,0.682947,-0.020007
-0.051389,-0.164929,0.737627,0.843685,0.357106,-0.400838
0.166347,-0.735559,0.330101,-0.375092,-0.305221,-0.875298
-0.592873,0.742377,0.256765,0.506774,0.703784,0.497863
-0.411392,0.491830,-0.973330,-0.205532,-0.206309,0.956657
0.264998,0.661585,0.583554,0.385794,0.296058,0.873792
-0.057305,-0.015374,0.784561,0.950659,0.307608,0.040312
-0.359107,-0.063103,0.611194,-0.613788,-0.165741,-0.771877
-0.289832,0.038916,0.657477,-0.057101,-0.705332,0.706573
0.439737,0.192075,0.387345,-0.613443,0.297738,0.731464
-0.583173,0.814743,0.168512,0.700851,-0.711229,-0.054418
-0.144263,0.073138,0.803613,0.175239,-0.638910,0.749056
-0.573266,0.741477,0.137146,-0.788408,0.139435,0.599142
0.676183,0.260581,0.483114,0.498236,0.412265,-0.762757
-0.699848,0.299048,-0.988822,-0.249429,0.013002,0.968306
-0.531783,0.380226,0.634801,0.976157,-0.111670,-0.186138
-0.265134,0.199472,0.729562,-0.361272,-0.531684,0.766025
-0.312189,-0.001673,0.608820,0.839978,0.089746,0.535148
0.456522,-0.599961,0.588684,-0.066243,0.246936,0.966765
0.285980,0.381320,0.770511,-0.303355,0.551364,-0.777157
-0.137313,0.565740,0.738380,-0.418898,0.897550,0.137579
-0.572441,0.747781,0.154998,-0.646791,0.738961,-0.188678
0.306481,-0.116879,0.179664,0.168683,0.526886,-0.833029
-0.136969,0.495754,0.824629,0.307403,-0.664786,0.680855
0.028619,0.181011,0.493540,0.533639,0.780921,0.324641
0.120392,0.348385,0.860130,0.816552,-0.516454,-0.257910
-0.265548,0.314293,0.541354,-0.509847,-0.468257,-0.721659
0.161186,0.658111,0.682781,-0.338557,0.935503,0.101056
-0.586956,0.561173,0.469996,-0.325722,-0.743561,0.583971
0.050772,0.191432,0.873350,0.936682,0.204970,-0.283928
-0.197922,0.379583,-0.978651,0.254527,0.171028,-0.951822
-0.327668,0.555127,0.444283,0.989593,0.013928,0.143216
0.699367,-0.023993,0.515259,0.052672,0.099208,0.993672
-0.067555,0.572301,0.702573,0.992280,-0.104811,0.066302
-0.654443,0.631030,0.490592,-0.608642,0.650178,-0.454778
0.113168,-0.336357,0.479656,0.621669,0.043612,0.782065
-0.281852,0.756143,0.321308,-0.098147,0.115966,0.988392
-0.357388,0.023930,0.427312,0.714329,0.253483,0.652288
0.389930,-0.596681,0.400655,0.294884,-0.547128,0.783387
0.439943,-0.274218,0.670493,-0.140814,-0.698597,0.701522
-0.092184,0.533577,0.738877,0.415329,-0.650691,0.635691
-0.079595,0.110511,0.694878,-0.893847,0.415857,0.167634
0.304761,0.243985,0.445509,0.217116,0.014924,-0.976032
0.283779,-0.095458,0.607404,0.906274,0.119857,-0.405341
0.239750,-0.103886,0.089280,0.817180,0.454021,-0.355079
-0.738717,0.482247,0.300075,0.191399,-0.383438,-0.903516
0.508118,-0.139264,0.682488,0.764617,0.522106,0.377843
-0.421711,0.681332,0.646834,-0.566546,0.581114,-0.584237
0.562947,-0.177731,0.520401,0.071694,0.141807,0.987295
0.272566,-0.223659,0.637736,-0.829492,0.297729,0.472547
-0.061502,0.597582,0.691676,-0.248267,-0.375509,0.892948
0.091567,0.323556,0.826760,0.954097,0.295459,-0.049020
0.023872,-0.376752,0.757585,0.039545,0.818828,0.572676
-0.418683,0.283095,-0.986027,-0.210162,-0.063168,0.975624
-0.353466,0.369098,0.763353,-0.762492,-0.173796,-0.623218
-0.021189,-0.112891,0.620573,0.574054,0.308435,0.758505
-0.145913,0.157339,-0.500877,-0.258161,0.966095,-0.003627
-0.472757,0.528882,0.485909,0.335929,0.351393,-0.873885
0.076432,0.108903,-0.248139,0.236625,0.967676,0.087247
0.299601,0.043677,0.663576,0.693697,0.515588,-0.502945
-0.344730,0.490480,0.458576,0.395631,0.427008,0.813106
0.246216,0.161649,0.482706,-0.306979,0.693058,0.652254
0.410842,0.533963,0.582010,0.221887,-0.877458,0.425245
0.054072,0.129101,-0.547990,-0.203390,0.973953,-0.100241
0.701845,-0.020777,0.514595,0.052672,0.099208,0.993672
-0.143574,0.724559,0.546254,0.487190,0.534308,-0.690769
-0.134286,0.758844,0.543447,-0.373008,0.104661,-0.921906
-0.282333,0.135276,0.789053,0.220194,0.630530,0.744276
0.079596,-0.277435,0.727878,-0.544797,-0.682183,-0.487671
-0.376237,0.717033,0.636702,0.898496,-0.403495,0.172905
-0.667103,-0.038853,0.339799,-0.355993,-0.218660,0.908546
-0.055517,0.388395,-0.425564,0.755938,0.624859,0.195215
0.402932,0.608452,0.535676,0.875114,0.415717,0.247700
-0.833654,0.287470,0.377035,0.480187,0.019186,0.876956
0.182168,-0.688408,-0.976788,-0.168917,0.060816,0.983752
-0.448748,0.211694,-0.980565,0.067522,0.292733,0.953807
-0.233006,-0.383571,0.671092,-0.556225,-0.820209,0.133683
-0.227434,0.474399,0.665197,-0.600012,0.711423,0.365873
0.227987,-0.537180,0.388736,0.406712,-0.172529,-0.897117
-0.061846,-0.000708,0.898642,0.733896,-0.000516,0.679262
-0.010595,0.460440,0.802273,-0.297723,-0.953876,-0.038486
-0.125000,0.212788,0.293324,0.285159,0.941470,-0.179773
0.423983,0.372764,0.609522,0.825122,-0.017483,0.564684
-0.325674,0.597260,0.423458,0.023661,-0.482183,0.875751
0.388485,-0.291844,0.099285,0.880768,0.415515,-0.227145
-0.457691,0.653480,0.624835,0.819057,-0.552836,0.153356
-0.162286,0.239290,0.857412,-0.575888,-0.806416,0.134335
-0.714846,0.168918,0.365052,0.435099,-0.250577,0.864812
-0.341153,0.008234,0.429034,-0.594509,-0.314318,-0.740111
0.038662,0.257301,0.906757,0.964634,0.247485,-0.090728
-0.262795,0.486555,0.718192,-0.564131,0.706174,-0.427872
-0.128164,0.674900,0.271388,0.805222,0.248914,-0.538201
0.079115,0.173421,0.843133,0.823188,0.367969,-0.432388
-0.116401,0.538660,0.099285,0.712823,-0.066257,-0.698207
0.618465,-0.389489,0.427541,0.005068,0.413589,0.910450
-0.065699,0.075840,0.839508,-0.511283,-0.680743,-0.524574
-0.549118,0.734143,0.559041,-0.625813,0.590340,-0.509762
0.269745,0.428149,0.742859,-0.647746,-0.277768,0.709415
-0.352780,0.209829,-0.985644,-0.234230,-0.099858,0.967039
0.240919,0.310948,0.875825,0.517484,-0.162021,0.840214
-0.258393,0.268751,0.739107,-0.499285,-0.229119,0.835595
-0.435951,0.829152,0.106801,-0.312049,0.946022,0.087566
0.217460,0.198572,0.815965,-0.636886,0.758470,-0.138203
0.588676,0.567606,0.603129,0.540654,0.537229,-0.647362
0.500207,-0.575647,0.421250,-0.363794,0.081881,0.927874
0.913939,-0.226617,0.556271,0.599688,-0.614404,-0.512721
0.541346,-0.129551,0.491294,0.500751,0.530082,-0.684297
-0.272839,-0.260838,0.643848,0.845062,0.354461,-0.400284
0.408709,-0.274282,0.672688,-0.305319,-0.657481,0.688838
-0.184438,-0.006046,0.581104,0.572195,-0.813800,-0.101595
-0.134769,0.040268,0.816999,0.799181,-0.587409,0.127516
-0.210099,-0.040010,0.652296,0.228811,-0.682507,0.694140
-0.172124,0.466615,0.742068,0.937551,-0.025601,0.346903
-0.288180,-0.110446,-0.983679,0.004917,-0.019844,0.999791
-0.633942,0.759423,0.261754,-0.187718,-0.103676,0.976736
-0.562672,0.091149,-0.990098,-0.172553,0.095028,0.980406
0.281577,-0.134440,0.156504,0.168683,0.526886,-0.833029
-0.738373,0.294288,0.365205,0.258463,-0.277252,0.925380
-0.117982,-0.255178,0.708252,-0.614435,0.533203,0.581520
0.374381,-0.235494,0.407762,0.756228,0.356054,-0.548949
0.314391,0.363373,0.444066,-0.237714,-0.061791,0.969368
-0.393988,-0.339572,0.320453,-0.012949,-0.697339,0.716624
0.108834,0.205262,0.811996,0.259576,-0.623937,-0.737104
-0.446753,0.913289,0.233923,0.521316,0.551051,-0.651592
0.025661,0.490351,0.710000,0.745532,-0.334176,-0.576635
-0.018367,-0.123633,0.043367,0.822030,-0.231933,-0.520072
0.167378,0.063167,0.764565,-0.283747,0.676466,0.679618
-0.259287,0.490930,0.692594,-0.425745,0.868540,-0.253730
0.028069,0.008426,0.872418,0.819356,0.144354,0.554813
-0.192075,0.596617,0.532677,0.451653,0.419903,0.787204
-0.831521,0.168982,-0.997627,0.226414,-0.072380,-0.971338
0.070171,0.503860,0.687388,0.980286,-0.080089,-0.180622
0.552353,-0.698958,0.423573,0.273485,0.390641,-0.878980
0.455283,0.058600,0.475675,-0.220078,-0.854268,-0.470947
-0.396052,0.690853,0.642585,-0.462513,0.788256,-0.405875
0.378372,0.509455,0.762447,0.664988,0.618680,-0.418361
0.025180,0.163322,0.972947,-0.696835,-0.709626,-0.104177
-0.238442,0.576675,0.759703,0.092745,-0.985167,0.144376
0.294993,0.342853,0.830742,0.876270,0.481433,-0.019338
-0.017336,0.416377,-0.964793,-0.400043,0.094179,0.911645
0.564255,-0.318346,0.434636,0.652312,0.142558,-0.744424
-0.669853,0.423968,0.413696,-0.694973,0.281755,-0.661533
0.460925,0.264570,0.570436,0.139833,-0.643813,0.752298
-0.369909,0.046636,0.612559,0.475828,0.760656,0.441578
-0.431893,0.568893,0.552482,-0.659660,-0.748686,-0.065706
-0.175494,0.010035,0.809814,-0.516838,-0.277014,-0.810026
0.010595,0.127750,0.949557,0.902542,0.084067,-0.422315
-0.246560,0.184356,0.648302,0.114266,0.746601,0.655385
-0.143093,-0.488036,0.435772,-0.279592,-0.918053,0.281081
-0.240230,0.236524,0.740970,0.987076,-0.141837,-0.074582
-0.419578,0.725717,0.539900,0.966193,-0.207942,-0.152417
-0.153481,0.141644,0.560559,0.791818,-0.609755,-0.034976
0.884770,-0.165252,0.543549,-0.375372,-0.012202,0.926794
-0.249588,0.451177,0.656596,0.818807,0.011475,-0.573955
0.007018,0.163644,0.956448,0.972965,0.162036,0.164571
-0.495322,-0.069021,0.376664,0.658876,0.466093,-0.590458
0.131192,0.114178,0.330011,0.611634,0.750073,0.251585
-0.731631,0.075454,0.363087,-0.106273,0.321675,-0.940867
-0.653205,0.127622,0.357868,-0.198362,0.022547,-0.979869
0.116332,-0.190274,0.448609,-0.169481,-0.763069,-0.623700
-0.840878,0.073910,0.367528,-0.667317,0.334548,0.665406
0.131124,0.472791,0.808844,0.163585,0.979087,-0.120953
0.294029,-0.547729,0.565153,-0.785423,0.441957,0.433340
-0.127475,0.471118,0.742820,-0.599225,0.434791,-0.672225
0.277380,-0.160942,0.165602,0.168683,0.526886,-0.833029
0.095005,0.138364,0.975231,0.954788,0.283619,0.089108
0.150593,0.139907,-0.760226,0.965429,-0.182662,-0.185960
0.439668,-0.235751,0.400872,-0.676278,0.138141,0.723578
0.198817,-0.563103,0.374750,-0.603829,-0.794721,-0.061714
0.265961,-0.157211,0.678443,0.035444,-0.966580,0.253902
0.328151,-0.372443,0.565217,-0.024033,0.679294,0.733473
-0.118256,0.243471,0.621275,0.657126,0.077066,-0.749830
0.049808,-0.429306,0.518615,0.207442,-0.639642,-0.740153
-0.273114,-0.302200,-0.981752,-0.211793,-0.089046,0.973250
-0.702050,0.045414,0.117928,-0.072304,-0.397928,0.914563
0.160775,0.420172,0.637787,0.985487,-0.138650,0.097941
0.234659,0.339637,0.321347,0.099570,-0.627436,0.772276
-0.544166,0.670140,0.498032,0.320895,0.133133,0.937711
-0.033846,-0.499420,0.544085,-0.610867,0.102705,0.785043
-0.120597,-0.221600,0.784395,0.620355,-0.772950,-0.133070
-0.239200,0.172970,0.237075,0.527259,0.847515,-0.060970
-0.005434,-0.492988,0.683598,-0.704859,-0.030683,0.708684
0.375895,0.084331,0.794017,0.715984,0.213066,-0.664808
0.636764,-0.152450,0.513434,0.310631,0.941523,-0.130548
-0.759632,0.554419,0.291525,0.059362,0.310735,0.948641
0.055655,0.410587,0.727597,0.875586,0.481501,-0.038806
0.494291,0.349607,0.809125,0.863478,0.023583,-0.503835
-0.564872,0.150843,0.350926,0.459254,-0.123324,0.879703
0.574780,0.019877,0.497266,-0.064785,0.611318,0.788729
0.101749,0.197928,0.919582,-0.258072,-0.863459,-0.433402
0.134150,0.192461,0.965061,-0.290071,0.862433,0.414811
-0.691662,0.471118,0.310947,-0.314558,0.506322,0.802926
0.221382,0.033707,0.618837,0.527848,0.789312,-0.313629
0.411531,0.448283,0.593278,0.440903,-0.749102,-0.494420
0.299945,0.295317,0.707703,-0.720033,0.119718,0.683535
-0.913181,0.080471,0.366724,-0.604186,0.305615,0.735907
-0.600372,0.725267,0.433360,-0.041438,-0.388014,0.920721
0.257706,0.224816,0.821005,0.620141,-0.569469,-0.539565
0.025661,0.058536,0.877127,0.987234,0.140206,-0.075571
-0.260251,0.920430,0.468452,-0.270488,0.466754,-0.842008
0.377822,-0.130194,0.647243,0.935194,-0.339245,0.101613
-0.890753,0.105879,0.357204,-0.409949,0.110866,0.905345
-0.579732,-0.080664,0.602516,0.956147,-0.037173,-0.290519
0.418891,0.183070,0.818007,-0.691985,0.457878,0.558126
0.236930,-0.162292,0.654976,-0.585009,0.520113,0.622292
0.152106,0.354496,0.873848,0.536086,0.288336,-0.793394
-0.309231,-0.085681,0.658000,-0.090416,0.283366,0.954740
-0.832346,0.187186,0.120174,-0.100788,-0.390699,0.914984
0.390135,0.196835,0.713803,0.377128,0.766397,-0.520010
-0.353397,-0.293388,0.610007,0.863727,0.458208,-0.209813
-0.763827,0.086389,0.364644,0.258661,-0.078607,0.962764
-0.792583,0.636048,0.423445,0.284672,-0.743648,0.604938
0.498213,-0.507976,0.418086,0.748880,0.192690,-0.634073
0.284810,0.461212,0.585238,0.825990,0.561389,0.050825
0.156440,-0.611411,0.544570,0.041466,-0.139368,0.989372
-0.016717,-0.379904,0.658944,0.990563,-0.136226,0.015062
-0.055103,-0.093786,0.737742,0.246514,0.304738,0.919982
0.223790,-0.146404,-0.960493,-0.208720,0.496092,-0.842810
0.087508,0.035122,0.631062,0.165573,0.606404,0.777728
0.434715,0.009713,0.496743,0.034018,0.464799,0.884763
0.598997,-0.416056,0.441923,-0.009998,0.447473,0.894242
0.497661,-0.344912,0.427286,0.341015,-0.200516,-0.918424
-0.823472,0.563425,0.299666,0.384228,-0.511760,-0.768421
0.262659,0.421524,0.441642,-0.355407,-0.024032,0.934403
0.425221,0.388717,0.771991,-0.618840,-0.289728,-0.730133
0.254129,-0.234658,0.759294,-0.297667,0.819255,0.490118
-0.089433,0.357777,0.796607,0.270682,0.910899,0.311439
0.033916,0.329409,0.882040,-0.046876,-0.987875,0.148008
0.438843,0.233951,0.819933,-0.618563,0.372563,0.691792
-0.569344,0.801942,0.567029,-0.399430,0.462033,-0.791821
-0.483145,0.902740,0.228168,0.838564,0.072992,-0.539891
-0.146532,-0.001029,0.941020,-0.158854,0.929272,0.333495
-0.039076,0.959668,0.571865,0.982898,-0.005971,0.184053
-0.861241,0.363373,0.146346,0.106154,0.089699,-0.990296
-0.236172,0.188923,0.325443,-0.408597,-0.778664,-0.476161
-0.293821,0.298662,0.741264,0.288694,-0.206029,0.934991
-0.463538,0.350829,0.650433,0.797399,0.600342,0.061187
0.419511,0.149813,0.478316,-0.410237,-0.546931,-0.729776
0.136488,0.185192,0.882742,-0.103366,0.518964,0.848524
-0.148184,0.336485,-0.977630,0.311662,0.098679,-0.945055
0.470007,0.036666,0.593354,0.004088,0.012129,0.999918
-0.593148,0.780393,0.218776,-0.421224,0.399129,0.814412
0.022427,-0.030039,0.870096,0.735446,0.130917,0.664816
-0.449229,-0.041168,0.471260,-0.192277,0.201623,-0.960405
-0.340739,0.425447,0.623023,0.578741,0.712094,-0.397468
0.155614,-0.115592,0.865872,-0.157169,0.913461,-0.375349
0.272772,0.320404,0.449618,-0.228064,0.029532,0.973198
0.875415,-0.064518,0.347149,0.001120,-0.006728,0.999977
-0.645638,0.490158,0.296565,0.151872,0.463474,0.872999
-0.224407,0.198507,0.201894,0.551389,0.570895,0.608316
0.153895,-0.607165,0.327510,-0.573681,0.033478,-0.818394
-0.717805,-0.116750,0.467597,0.562057,0.131169,0.816631
-0.530544,0.486492,0.681403,0.806781,0.372483,-0.458652
0.388485,-0.204490,0.625345,-0.007549,0.089623,0.995947
0.106082,0.103049,-0.214029,-0.507917,0.860162,0.046284
0.446065,-0.198186,-0.966465,-0.144716,-0.053734,0.988013
-0.870185,0.023865,0.478852,-0.197259,0.799790,0.566943
0.299739,-0.448475,0.558211,0.869633,0.138738,-0.473805
-0.547674,0.047730,-0.988758,-0.095326,0.103237,0.990078
-0.122592,0.265342,0.746725,0.729217,0.210377,-0.651141
-0.493808,0.065998,-0.985095,-0.141008,-0.042950,0.989076
0.782885,-0.141772,0.532052,-0.471790,0.524081,0.709050
-0.358902,0.562460,0.741481,-0.833517,0.226100,-0.504112
0.810678,-0.134440,0.357906,0.208447,-0.208791,-0.955487
0.501652,0.100798,0.479860,0.186589,0.741092,0.644956
-0.581385,0.619966,0.200413,-0.462604,0.867086,0.184821
0.449092,0.367876,0.767219,-0.353504,0.931699,0.083504
0.201500,-0.122411,-0.965189,-0.160236,-0.328567,0.930789
-0.478260,0.652065,0.427324,0.199869,-0.887229,0.415785
-0.704939,0.675093,0.286689,0.313016,-0.618726,-0.720554
-0.475371,0.682748,0.499371,0.906334,0.284580,-0.312365
0.351749,-0.186479,-0.969400,-0.134612,-0.041019,0.990049
-0.427902,0.051654,0.645354,-0.449114,0.892264,0.046479
0.099685,0.073267,0.913495,-0.135254,0.907846,0.396891
-0.088675,0.919465,0.309147,-0.167193,0.449287,0.877603
-0.178729,0.609160,0.415751,-0.180493,0.377941,-0.908066
0.473584,0.179210,0.810695,0.779058,-0.503358,-0.373764
0.145846,0.205519,0.041172,-0.748224,0.614842,-0.249259
0.536805,-0.228933,0.410940,-0.183094,0.340585,0.922214
-0.361721,0.773703,0.239474,0.316902,0.175155,-0.932145
-0.098583,0.300013,-0.046060,-0.652393,-0.722537,0.228747
-0.311503,0.430143,0.616349,0.831718,0.443640,0.333810
0.053042,0.132124,0.965916,0.669539,0.481807,-0.565313
-0.165106,0.063682,0.692849,-0.699463,-0.636641,-0.324713
0.421300,0.234980,0.451493,-0.558552,0.085454,0.825056
-0.293340,0.328380,0.138958,-0.393129,-0.758189,-0.520192
0.256537,-0.268815,0.764259,-0.531684,0.738605,0.414457
0.250069,0.107102,0.654516,-0.476268,-0.174589,-0.861793
-0.961750,0.027660,0.258028,0.265309,-0.110686,0.957789
-0.035841,0.568314,0.691969,0.211042,0.281995,0.935917
-0.591084,-0.102277,0.577416,-0.186916,0.908153,-0.374595
0.203358,-0.199344,0.747886,0.354482,0.855967,0.376382
0.252132,-0.205777,0.377647,0.700587,0.049554,-0.711844
-0.345969,0.827158,0.658319,0.850409,-0.440682,0.287410
0.036462,-0.287469,0.629212,-0.668776,0.452780,-0.589686
-0.729912,-0.075711,-0.992905,-0.221937,-0.002173,0.975059
-0.204869,0.898366,0.259330,-0.368036,-0.096943,0.924744
0.052903,0.100604,0.783617,-0.557750,0.719312,0.414132
-0.237822,-0.042197,0.822511,0.983335,0.114401,-0.141298
0.056206,0.118037,0.815761,0.782233,0.142539,0.606460
-0.048706,0.681332,0.543587,0.107358,0.555412,-0.824616
0.037562,0.092243,0.864494,-0.597764,0.391255,-0.699713
-0.098788,0.121446,0.636945,0.889336,-0.321406,0.325237
0.832554,-0.210922,0.548003,-0.259137,0.016202,-0.965705
-0.402379,-0.387238,0.132361,0.646471,0.642703,-0.411106
-0.607113,-0.051718,0.602835,0.839775,-0.054790,-0.540163
0.467460,0.236267,0.461804,0.445029,-0.201401,-0.872575
0.426872,0.191046,0.551537,0.518086,0.326320,-0.790634
0.220351,-0.078220,0.722110,0.250536,0.791569,0.557360
-0.036874,1.000000,0.574302,0.983744,-0.137944,0.114977
-0.110140,0.281359,0.151923,0.466291,0.866086,0.180186
0.193383,0.193361,0.679540,0.983154,-0.111558,-0.144789
0.340053,-0.299627,0.394223,-0.634766,-0.259935,0.727671
-0.455558,0.167438,0.678762,0.947072,-0.118035,0.298532
0.101197,-0.639199,0.542247,0.017209,-0.230604,0.972895
0.001515,-0.794866,-0.969362,-0.085116,0.022490,0.996117
-0.086542,0.101763,0.492851,0.899082,-0.115288,-0.422327
-0.640410,0.819761,0.206309,0.399905,-0.159501,-0.902572
0.138277,0.371671,0.133649,-0.649931,0.714416,0.259227
0.169511,-0.723658,0.329348,-0.375092,-0.305221,-0.875298
-0.143574,0.225138,0.858152,0.834743,0.544163,0.084208
-0.107388,0.299113,0.727010,0.726340,-0.626288,0.283184
-0.473513,0.438312,0.642266,0.878201,0.469670,0.090408
0.155889,0.104465,-0.316727,-0.098657,0.994746,-0.027348
0.329459,-0.151293,0.490044,0.451310,0.688534,-0.567662
0.503577,0.344976,0.579011,-0.204480,0.620550,0.757037
-0.753577,-0.144281,0.236462,0.226298,-0.139646,0.963996
-0.836199,0.709893,0.207470,-0.303269,-0.487816,0.818574
-0.068107,-0.394056,0.516152,-0.249823,0.784916,0.567005
0.259220,0.127235,-0.957494,0.134457,0.124550,0.983061
-0.064805,0.095523,0.676809,-0.267521,-0.885831,0.379125
0.247180,0.380484,0.612214,0.052829,-0.693083,0.718919
0.352986,0.210279,0.455079,-0.372022,0.373995,0.849545
-0.460994,0.350251,0.547160,0.583526,0.570401,-0.578048
0.106426,0.098739,-0.224863,-0.424955,0.905159,0.010045
-0.576363,0.558150,0.293337,-0.085899,0.193718,0.977289
0.347758,-0.501865,0.405223,-0.221042,-0.421603,-0.879426
-0.468491,0.419786,0.403717,-0.282986,0.751555,-0.595889
-0.334135,0.349929,0.444143,0.031950,-0.559701,0.828078
0.176460,0.143188,-0.314290,-0.315414,0.948927,0.007190
0.065288,-0.050495,0.438171,-0.284278,0.601623,0.746482
0.072854,-0.343174,0.482731,-0.451787,-0.853147,0.260822
-0.308131,0.742313,0.321410,-0.135866,0.234138,0.962663
0.006673,0.165959,0.370756,0.667514,0.720639,-0.187361
0.182720,0.298340,0.813821,0.042234,0.597753,0.800567
0.288663,0.367940,0.878135,-0.752515,0.335745,-0.566566
0.186159,0.325100,0.570002,-0.717322,0.677443,0.162849
-0.208447,-0.037244,0.816973,0.498933,0.686523,0.528917
0.047331,0.456130,0.835923,0.787051,-0.447292,0.424830
0.116401,0.520519,0.753514,-0.337024,0.798292,-0.499143
-0.055311,-0.118487,0.800907,0.942232,-0.263505,-0.206793
-0.139516,-0.117200,0.510052,-0.455204,0.818498,-0.350499
0.089297,-0.860735,-0.973738,-0.113357,0.037326,0.992853
0.458241,0.099961,-0.962994,-0.166821,-0.126941,0.977781
0.685610,-0.227582,0.418890,-0.726744,0.251871,0.639065
-0.430930,0.439920,-0.983973,-0.205866,-0.151687,0.966752
-0.097344,-0.057957,0.796020,-0.427318,-0.229936,-0.874373
-0.460511,0.232343,0.668796,0.951303,-0.304858,0.045648
0.618534,0.237939,0.471106,-0.399135,-0.377049,0.835778
-0.486928,0.225138,0.343780,0.332400,0.314955,0.888996
0.006262,0.430593,0.799771,0.092084,0.995649,-0.014275
0.687398,-0.655281,0.539096,-0.233082,-0.955734,0.179571
-0.017817,0.224110,0.696129,-0.248463,0.153259,0.956440
-0.522014,-0.095266,-0.986908,-0.259959,-0.114929,0.958756
0.134977,-0.010164,0.840057,0.812114,0.565561,0.143569
-0.594661,0.669432,0.194773,0.047354,-0.605496,0.794439
0.575674,-0.174514,0.449209,0.383953,0.414559,-0.825058
0.198336,0.008169,0.596761,0.677325,0.499162,-0.540434
-0.087094,0.149492,0.742374,-0.109971,0.201932,0.973206
-0.058061,0.454715,0.351526,-0.495614,-0.409068,-0.766179
-0.416689,0.804773,0.104198,0.299657,-0.937022,-0.179428
0.415658,0.581307,0.475101,0.450635,0.742767,-0.495201
-0.440698,-0.121575,-0.982926,-0.020612,-0.343276,0.939008
-0.440562,0.477679,0.579840,0.682760,0.482090,0.549024
-0.382292,0.405957,0.553388,0.308635,0.713081,-0.629492
0.503785,0.042069,0.333036,-0.327511,0.567500,0.755434
0.034054,-0.037373,0.724853,0.689881,0.153578,0.707445
0.232250,-0.212851,0.559411,0.289072,0.424106,0.858237
0.211613,0.249260,0.609037,-0.098572,0.217891,0.970982
0.085306,-0.558857,0.693577,0.763419,0.644100,0.048227
0.151898,0.360929,0.604430,-0.163047,-0.380889,0.910132
0.316938,-0.006947,0.665758,0.624687,0.780814,-0.009755
0.597070,0.308247,0.472268,-0.562113,-0.047133,0.825717
0.026419,0.141580,0.853877,0.864337,0.473465,-0.169567
0.014861,-0.255178,0.390382,0.594256,0.664703,0.452803
-0.048017,-0.229899,0.399353,0.748914,0.621480,0.229979
-0.333034,0.371671,0.143105,0.405632,-0.005114,0.914022
-0.156231,0.771967,0.553145,-0.628194,0.220409,-0.746185
-0.270019,-0.242635,0.634941,0.674059,0.480611,-0.560943
0.479845,-0.156438,0.453471,0.088875,0.832770,0.546439
-0.332004,0.237231,0.674499,-0.118019,-0.983520,-0.136965
0.334137,0.521871,0.763684,0.265686,0.897048,0.353152
-0.421505,0.070629,0.473199,-0.149359,0.896190,0.417774
0.664695,-0.186286,0.667749,0.580553,-0.366878,-0.726883
-0.108557,0.320082,0.781001,0.227840,-0.398137,0.888581
-0.156164,-0.197671,0.711314,0.223765,-0.189626,0.956019
-0.036943,0.351988,0.193076,0.259906,-0.215804,0.941211
0.609316,-0.062653,0.595702,0.287135,0.170999,0.942503
0.317008,0.549981,0.652347,0.845321,-0.275292,-0.457872
-0.282746,0.848771,0.457963,-0.404006,-0.524805,0.749239
0.135733,0.591599,0.711404,0.535353,0.176971,-0.825881
-0.462438,0.298983,0.442854,-0.658926,0.083083,-0.747606
-0.049462,-0.248295,-0.980361,0.124578,0.144072,0.981694
-0.569208,0.424096,0.159822,-0.031822,-0.582194,0.812427
0.057513,0.188923,0.462493,-0.657089,-0.602048,-0.453620
0.692282,-0.267014,0.458256,-0.320868,-0.512052,0.796773
-0.494841,0.644539,0.488040,0.294509,0.928414,-0.226523
-0.357594,0.199666,0.667800,-0.431353,0.890649,-0.143802
0.084481,0.180561,-0.056370,0.591363,-0.804680,-0.052726
0.420819,-0.458381,0.401982,0.422770,-0.043453,-0.905194
-0.205902,-0.217740,0.743382,0.150043,-0.717906,0.679777
0.244910,0.114821,0.870989,0.844898,-0.278944,-0.456441
0.700193,0.233822,0.482234,0.414149,0.456163,-0.787652
0.012659,0.056413,0.868794,0.841251,0.475793,0.256746
0.882842,-0.113534,-0.948944,-0.202204,-0.642819,0.738849
-0.911118,0.580728,0.285872,0.811575,-0.230727,-0.536760
-0.183132,0.504503,0.719085,0.088631,0.988251,0.124518
0.162564,0.139522,-0.186287,0.924305,-0.361457,0.122514
-0.539007,0.743020,0.498976,0.225187,0.898665,-0.376419
-0.466702,0.543162,0.644601,0.826391,-0.100024,0.554142
0.382911,-0.066383,0.504425,0.009201,-0.512351,0.858727
-0.340878,-0.108131,0.616821,0.815875,0.037589,0.577005
0.429074,-0.486555,0.346217,0.001218,0.507288,0.861775
0.674119,0.467130,0.687630,0.450692,0.658155,0.603082
-0.327532,0.095974,-0.985236,-0.033410,-0.040093,0.998637
0.621904,-0.096294,0.670327,0.097773,-0.063991,0.993149
-0.470487,0.674514,0.531745,-0.566948,-0.315106,0.761103
0.016856,-0.130515,0.839700,-0.595178,-0.515208,-0.616704
0.012797,0.286504,-0.002954,0.746603,0.648362,-0.149035
-0.211338,-0.225652,0.441578,-0.001613,0.791908,0.610638
-0.190767,0.501930,0.496564,-0.661478,0.144022,-0.736006
-0.201361,-0.222501,-0.972373,0.166504,-0.191081,-0.967349
0.169305,0.172521,0.811077,-0.608293,0.790729,-0.068752
0.593286,0.349544,0.481443,-0.407012,-0.322994,0.854410
-0.333929,0.366461,0.736695,0.962084,0.210309,0.173680
-0.424050,0.858291,0.234382,0.887119,0.259661,-0.381569
-0.794924,0.628972,0.288156,-0.149377,0.640204,0.753542
0.225304,0.109032,0.657962,-0.216632,-0.220181,-0.951100
-0.613443,0.679274,0.134568,-0.570675,-0.436960,-0.695267
-0.424463,-0.002830,0.484071,-0.062492,0.888768,0.454078
-0.096174,0.206227,0.585506,0.827136,0.496170,0.263936
0.353124,0.313135,0.714951,0.438652,-0.898635,-0.006203
-0.440837,0.859385,0.249223,0.520092,0.131311,-0.843956
0.009356,0.455229,0.713956,0.727579,-0.044315,-0.684591
0.060816,0.445838,0.853622,0.898598,0.437938,0.027048
0.530958,0.100991,0.474833,-0.107744,0.504574,0.856619
0.074162,0.173164,0.882461,0.896350,0.426269,-0.121866
-0.516373,0.821433,0.152497,0.406654,-0.811511,0.419622
-0.846587,0.195549,0.373819,0.218414,0.269263,-0.937973
-0.299120,0.861572,0.458129,0.460241,0.462299,-0.757930
0.647360,-0.122218,0.521128,-0.530607,-0.161430,0.832103
-0.096656,0.494596,0.767410,0.093246,0.809415,0.579787
0.242916,-0.240769,0.762612,-0.310978,0.872417,0.377069
0.024080,-0.166473,0.722761,-0.760995,-0.248051,0.599464
-0.130916,0.045671,0.799529,-0.660774,0.552019,-0.508579
0.158159,0.133282,-0.194990,0.917159,-0.397769,0.024474
0.079390,0.410330,0.886060,0.584268,-0.810225,0.046534
0.249657,-0.386465,0.633793,0.888224,0.038432,-0.457800
0.080973,-0.306895,0.720234,-0.430190,-0.683845,-0.589316
-0.237342,-0.432008,0.424913,-0.331207,-0.925342,0.184513
-0.121492,0.160234,0.741595,0.501977,0.029138,0.864390
-0.681066,0.405699,0.314048,-0.385951,0.651195,0.653443
-0.168547,0.670654,0.525914,0.288299,0.327795,-0.899686
-0.563359,0.625112,0.430566,-0.174817,-0.066112,0.982379
-0.391510,-0.297504,0.139506,-0.133391,-0.454588,0.880657
0.491333,-0.185127,0.477028,-0.210222,-0.658893,0.722265
-0.683613,0.197736,0.271082,0.009257,-0.546064,0.837692
0.173019,0.070758,0.392016,0.742480,0.588274,-0.320400
0.170269,0.066899,-0.589513,0.675289,0.737501,0.008783
0.579321,-0.224237,0.688217,-0.605581,0.300540,0.736850
-0.167583,0.080535,-0.977439,0.216922,0.142003,-0.965805
-0.240300,0.336035,0.702216,-0.664400,0.208829,-0.717610
-0.478329,0.337707,0.675023,0.225563,0.853721,0.469342
0.151004,0.067735,0.327485,0.413305,0.839069,0.353754
0.371906,0.559951,0.554447,-0.823955,-0.442571,-0.353878
-0.270845,0.318217,0.741800,0.441308,0.248015,0.862401
0.295681,0.300978,0.862414,0.955717,-0.136199,0.260874
-0.051458,0.402547,0.810822,-0.429203,-0.650658,0.626442
0.139241,0.409430,0.881121,-0.770281,0.206410,-0.603375
0.138760,0.494790,0.360369,-0.306407,-0.321502,0.895964
-0.690010,0.656825,0.143998,-0.099624,0.827851,0.552031
-0.308337,0.517432,0.513230,0.692283,0.704051,-0.158293
-0.100302,-0.190852,0.711506,-0.006155,0.025415,0.999658
0.460650,0.154123,0.466270,-0.196525,-0.446442,-0.872965
-0.790933,0.402226,0.143603,-0.060817,-0.342632,0.937499
-0.808681,0.129551,0.111293,-0.000954,-0.147172,0.989110
-0.035360,0.187444,-0.341024,0.776918,0.586546,0.228828
-0.772151,0.615336,0.423956,0.139710,-0.798227,0.585931
0.085031,0.190210,0.909552,0.970699,-0.222780,-0.090073
0.640616,0.263412,0.477946,0.472395,0.241341,-0.847702
0.221312,0.244500,0.610568,0.030273,0.275548,0.960811
-0.544371,-0.189374,-0.987801,-0.215588,-0.222421,0.950816
-0.186915,0.073781,0.574047,-0.651794,0.744502,0.144503
-0.596725,0.443715,0.463718,0.714218,0.019785,-0.699644
-0.598375,0.052811,-0.990748,-0.136287,0.109911,0.984553
-0.350922,0.512672,0.748716,0.719139,-0.013507,0.694735
0.650385,-0.165058,0.504029,0.839562,0.474069,-0.265320
0.311778,0.020006,0.901921,0.480797,0.872980,0.082101
0.514034,-0.220314,0.522673,0.115777,0.642730,0.757294
0.505779,-0.162228,0.717720,-0.486801,0.688722,0.537295
0.370667,-0.289527,0.405644,0.723511,0.307609,-0.617988
0.060472,0.299370,0.917042,-0.633130,0.235899,-0.737223
0.051803,-0.137527,0.586553,0.862346,0.439544,0.251319
-0.209066,-0.078734,0.766670,0.533249,0.532007,-0.657734
0.485967,-0.161456,0.693309,-0.666941,-0.697952,0.260869
0.777587,0.216326,0.468197,0.072782,-0.823031,0.563315
0.074023,0.141772,0.806599,0.967215,-0.047334,0.249508
0.065905,0.173614,0.951713,0.638106,-0.766149,0.076403
-0.588540,0.743792,0.549228,0.751982,0.554726,-0.356093
0.083723,-0.036215,0.721727,-0.500241,0.304906,-0.810427
-0.603811,-0.016145,-0.985312,-0.238807,0.158576,0.958032
-0.320788,0.221729,0.739362,0.808449,0.027633,0.587918
0.371287,0.197543,0.774046,0.933516,-0.351863,-0.068853
0.415934,0.059823,0.688383,0.355924,0.204165,-0.911940
0.012178,0.171041,0.869279,-0.104996,0.254507,0.961354
-0.154306,0.621961,0.724560,0.156605,0.931854,-0.327296
-0.826430,0.033449,0.472625,-0.576191,0.363939,0.731814
-0.549737,0.527274,0.442331,0.955563,0.267374,0.124140
0.089778,-0.305031,0.631611,-0.462239,0.374003,-0.804025
-0.214846,-0.151035,0.758567,-0.248300,-0.713407,0.655284
-0.712231,0.711116,0.442216,-0.162603,0.510382,-0.844435
-0.010526,0.340538,0.781026,0.222205,0.530038,-0.818343
-0.170611,-0.178181,0.788517,0.460265,0.762003,0.455530
-0.354636,0.733629,0.430349,0.264101,0.484309,-0.834084
0.237136,0.234788,0.608693,0.467920,0.852781,0.231981
0.440218,-0.170461,0.712118,0.136972,0.946790,0.291250
0.403276,0.224495,0.760303,0.921300,0.388507,-0.016404
0.202533,0.350380,0.723781,-0.070094,-0.874369,0.480172
0.571135,0.350315,0.572835,-0.388373,0.405341,-0.827566
-0.084342,-0.010292,0.801430,0.712716,0.300708,-0.633727
0.264309,0.298662,0.829057,0.950250,-0.298981,-0.087379
-0.366262,0.388460,0.649208,0.269043,0.744529,0.610977
-0.231495,0.372893,-0.026868,-0.177802,-0.270379,0.946193
0.310608,-0.709764,0.358557,-0.156687,-0.236344,0.958953
-0.404306,0.681976,0.152982,-0.029738,0.308101,0.950889
0.136421,0.500450,0.643044,0.839805,0.464667,0.280734
-0.081659,0.235688,0.758478,-0.603900,-0.736360,0.305088
0.032885,0.042519,0.861342,0.137752,-0.387658,0.911452
-0.784672,0.042390,0.350543,0.284542,0.680423,-0.675322
0.146190,0.441785,0.651224,0.991102,-0.000629,0.133105
0.008256,0.095588,0.178159,-0.194452,0.962866,0.187289
-0.172744,-0.093914,0.770256,0.134653,0.990559,-0.025734
0.048156,0.142802,0.600168,-0.271816,0.897210,0.348038
0.292654,0.253313,0.756040,0.928289,0.137393,-0.345547
0.549326,-0.518075,0.445432,0.839132,0.383132,-0.386093
-0.447234,0.223209,0.685959,0.878609,-0.085310,0.469859
0.682994,-0.214846,0.518602,0.560837,0.584395,-0.586468
-0.452462,0.681140,0.645329,-0.572645,0.743723,-0.344898
-0.292584,-0.064197,0.659863,-0.492132,-0.606145,-0.624816
-0.200675,0.261739,0.728567,-0.579818,0.762066,-0.288212
-0.271325,0.435610,0.711786,0.589337,0.418886,0.690808
0.137521,0.676508,0.711595,-0.086016,-0.281646,0.955655
0.095144,-0.054226,0.855510,-0.367067,0.833816,-0.412325
-0.237411,0.699279,0.432314,-0.562622,0.447224,-0.695304
-0.240300,0.327480,0.600641,-0.699970,-0.372534,-0.609311
0.186365,0.038402,0.900237,0.481170,0.875988,0.033469
-0.223515,0.445903,0.744773,-0.303169,0.607979,0.733792
0.606908,-0.711372,0.419298,0.274206,-0.240846,0.931023
-0.126856,0.821755,0.544493,0.053480,0.829136,0.556483
-0.253165,-0.363373,0.731565,0.933735,0.352254,0.063681
-0.108146,-0.003280,0.782379,0.853294,-0.152023,-0.498777
-0.382567,0.145761,0.705712,0.309253,0.940298,0.142138
0.049189,0.137978,-0.712807,0.898022,0.439226,-0.025258
0.117984,0.356554,0.593903,0.355070,-0.475286,0.805002
-0.360346,0.013380,0.633219,-0.143969,-0.888698,0.435302
-0.156301,-0.032870,0.794629,0.726491,-0.562797,0.394298
-0.208861,-0.019362,0.526782,-0.590385,0.554288,-0.586695
-0.546712,0.423582,0.672496,0.295200,0.835405,-0.463632
-0.072510,-0.470796,0.677894,0.884935,-0.299051,-0.357014
0.154789,0.446611,0.627157,0.148154,-0.759776,-0.633081
0.287563,0.071852,0.900033,0.496645,0.788527,0.362724
-0.073885,0.084653,0.901028,-0.679500,-0.530013,-0.507313
0.490369,-0.059887,0.711684,-0.402548,-0.108547,0.908941
0.000207,0.237360,0.933198,0.193320,0.956611,0.217997
-0.001995,-0.243084,0.737614,0.743715,0.585934,0.321823
-0.568450,-0.123826,0.361364,0.598496,0.236386,-0.765457
-0.320652,0.674772,0.617612,-0.286169,-0.054075,-0.956652
-0.438635,0.473819,0.633461,0.270667,-0.624209,0.732873
0.311916,0.539560,0.368523,0.225944,0.193561,-0.954716
0.051664,0.236974,0.982633,0.970808,-0.239527,0.012590
0.167103,-0.240447,0.758057,-0.222060,0.601147,0.767666
-0.629059,-0.047086,0.644678,-0.870523,0.486481,-0.074342
0.080973,0.044578,0.706593,0.627344,0.069410,0.775643
0.513071,-0.835263,0.366316,-0.585263,-0.031912,0.810215
0.818383,-0.060209,-0.952645,0.240485,0.714293,-0.657231
-0.844937,0.070501,0.370488,-0.696456,0.441313,0.565854
-0.831796,0.188023,0.116831,-0.056850,-0.431072,0.900525
0.024835,0.131738,0.909501,0.207040,0.947487,-0.243727
0.061227,0.367169,0.345694,0.070331,-0.664130,0.744302
-0.075054,0.502766,0.684491,-0.587743,-0.296904,0.752600
-0.181479,0.752605,0.321640,-0.177810,0.159780,0.971007
-0.053867,-0.375981,0.632019,0.987895,-0.056345,0.144530
-0.093491,0.257687,0.367349,0.189336,0.861336,-0.471437
-0.379264,-0.156697,0.711046,-0.331824,-0.855691,-0.397096
-0.225165,0.420816,0.503736,0.602571,0.598545,0.527875
-0.048637,-0.550495,0.544838,-0.085444,0.260658,0.961643
0.417583,0.201789,0.459584,-0.180336,0.809574,0.558631
0.141510,0.316159,0.665593,-0.753291,0.091947,0.651228
-0.052559,0.514924,0.674972,0.072041,-0.399515,0.913892
-0.151968,0.268493,0.136686,0.401589,0.832638,0.381366
-0.143987,0.033192,0.524970,0.730630,-0.499368,0.465631
0.459619,0.221022,0.386643,-0.613443,0.297738,0.731464
0.002821,-0.605815,0.547620,-0.014505,-0.083569,0.996396
0.589434,-0.475363,0.443722,-0.694145,0.294416,0.656873
-0.443862,0.330439,0.688243,0.856450,0.189726,0.480102
0.078976,-0.275826,0.721485,0.564507,0.706776,0.426379
-0.503371,0.681397,0.419145,0.278381,-0.478479,0.832804
0.001446,0.081371,0.814051,-0.029060,0.916054,-0.400000
0.139171,0.126463,0.422718,-0.715911,-0.578596,0.390766
-0.157678,0.184099,0.743203,-0.447417,-0.474754,-0.757909
0.088608,0.312814,0.765432,-0.005039,0.996208,0.086854
0.770639,-0.136626,0.535395,-0.369171,0.492035,0.788425
0.115437,0.179596,0.919352,-0.049113,0.938748,0.341087
-0.082073,-0.043420,0.787228,0.826738,0.060221,-0.559355
-0.732045,0.374245,-0.987928,0.213811,-0.003588,-0.976868
-0.260662,0.333462,0.717375,0.911740,0.199622,0.359000
0.278275,0.375917,0.043878,0.791886,-0.595412,-0.135650
-0.391991,0.465715,0.670276,0.504585,0.533143,-0.679082
-0.062533,0.263155,0.764654,0.463093,0.621433,-0.631954
-0.033502,0.120417,0.829223,0.377324,-0.847067,-0.374305
-0.718630,0.799755,0.038697,-0.038852,0.989297,0.140648
-0.076637,0.078927,0.917298,-0.266517,0.627499,0.731583
-0.650385,0.734594,0.517147,0.382998,0.908309,0.168185
0.525455,-0.653416,0.421531,-0.279403,-0.038268,0.959411
-0.810195,0.556349,0.305549,-0.125607,0.381534,0.915781
0.053042,0.076869,0.830321,-0.204696,-0.637709,-0.742581
-0.025866,0.685385,0.546624,0.339012,-0.533484,0.774897
0.012589,-0.103178,0.803880,-0.674931,0.487947,0.553512
-0.468491,0.165573,-0.970663,0.292934,-0.111355,-0.949626
0.833035,0.264441,0.505407,-0.235123,-0.712855,0.660723
0.066938,0.076676,0.577148,0.978847,-0.017543,-0.203842
0.364268,-0.184356,0.469639,0.503851,0.828229,-0.245296
-0.224545,0.703653,0.402390,-0.161915,0.604395,0.780058
-0.535222,0.353017,-0.981676,-0.010536,-0.086497,0.996196
0.159673,-0.222758,0.372109,-0.806239,-0.007700,0.591540
-0.094867,-0.203010,0.867480,0.678248,0.592287,0.434943
-0.670128,0.605236,0.497457,-0.176690,0.764295,-0.620188
-0.530819,0.382285,-0.980655,-0.046914,-0.048892,0.997702
0.208449,0.128522,0.747631,0.747216,0.514619,-0.420518
-0.578838,0.026824,0.597731,0.644161,-0.523032,-0.558116
-0.495872,0.476071,0.468988,0.781833,0.048385,0.621608
-0.393368,0.551975,0.555914,0.841167,0.533505,0.088381
0.250757,0.101055,0.777810,0.560523,0.433368,-0.705696
-0.030063,0.091085,0.614090,-0.496679,0.731851,-0.466587
0.405409,0.385759,0.742387,0.507006,0.460621,-0.728542
0.492364,0.505918,0.597055,-0.514825,0.227558,0.826543
-0.027380,0.111669,0.781115,-0.025320,-0.995574,0.090505
0.227162,-0.285411,0.611028,0.991313,-0.068329,0.112385
0.130780,-0.568442,0.386465,0.162033,0.427587,0.889334
-0.222343,-0.021356,0.810414,0.730477,0.486477,0.479316
0.655340,-0.234207,0.715895,-0.365981,0.907659,0.205458
-0.157814,0.917020,0.458474,-0.370484,0.547789,-0.750112
0.321204,0.434195,0.064780,0.875543,-0.473066,0.098147
0.409673,0.349093,0.786717,0.870086,-0.308732,-0.384234
-0.415106,-0.143638,0.699562,0.466616,0.877285,0.112425
-0.664831,0.258202,-0.990927,-0.085128,-0.065111,0.994240
-0.791071,0.366911,0.148809,-0.060817,-0.342632,0.937499
-0.573816,0.065612,0.629646,0.831895,0.127870,0.540000
-0.164900,-0.477679,0.441132,-0.279592,-0.918053,0.281081
-0.761144,0.188473,-0.992178,-0.350293,-0.029468,0.936177
-0.029788,0.927505,0.519738,-0.714309,0.317262,-0.623785
0.208380,0.213238,0.853418,0.615347,-0.500658,-0.608842
-0.145293,-0.486427,0.431114,-0.163819,-0.977064,0.136048
-0.005848,0.635854,0.530852,0.571318,0.585284,-0.575359
0.108559,0.300978,0.444118,-0.215545,0.784340,0.581679
0.398254,-0.161521,0.536505,-0.306883,-0.719607,-0.622888
-0.110829,0.216004,0.701693,-0.347876,-0.208918,-0.913967
0.162425,0.358741,0.774493,-0.046719,-0.028613,0.998498
0.579321,0.421266,0.396916,0.769240,-0.129926,-0.625611
0.257293,0.354303,0.850687,-0.445252,0.888823,0.108366
-0.312533,0.294803,0.440596,0.150183,-0.770073,0.620027
-0.442487,0.585488,0.522838,-0.685414,-0.724950,0.068234
0.090122,0.322656,0.917821,-0.460193,0.616642,-0.638729
0.382844,0.429049,0.737614,0.776203,0.366461,-0.513046
-0.305656,0.420558,0.693909,-0.743002,-0.635914,0.208712
0.474271,-0.529332,0.352304,-0.199589,0.354498,0.913507
-0.013278,0.098546,0.904588,-0.169823,0.985440,-0.008216
0.053042,0.180496,0.868131,0.905717,-0.141962,-0.399403
0.079045,-0.326000,0.398945,0.171904,-0.178344,0.968836
-0.248968,-0.084716,0.396456,-0.055217,-0.911550,0.407466
-0.026072,-0.514537,0.677690,0.720913,0.691386,0.047645
-0.391305,0.412068,0.619718,0.089361,-0.597554,0.796833
-0.143230,0.218448,0.850074,0.827847,0.551561,0.102229
-0.360760,0.735945,0.317889,-0.320088,0.243446,0.915575
-0.286804,0.861508,0.454186,0.165928,0.637096,-0.752713
-0.079045,-0.252155,0.474156,0.263428,0.934668,0.238749
0.456797,-0.173743,0.666741,0.431834,-0.491735,0.756119
0.106013,0.485977,0.648302,0.965811,-0.217264,-0.141442
0.002340,0.188087,0.920169,0.050187,0.612965,-0.788515
-0.235689,0.718512,0.625320,-0.400413,-0.749187,0.527625
0.521534,-0.654059,0.385048,-0.060117,-0.997250,0.043344
-0.235208,0.594429,0.525671,0.264661,-0.623282,-0.735850
-0.769881,0.174193,0.372747,-0.452020,0.486773,-0.747482
-0.296162,0.775054,0.611551,-0.503153,-0.373140,-0.779490
-0.732662,-0.023414,0.107707,-0.007521,-0.405602,0.914019
-0.279030,-0.337450,0.740192,0.957321,0.248600,-0.147430
0.352574,0.321948,0.730991,-0.604104,0.623087,0.496810
0.142130,-0.202753,-0.976852,-0.201100,-0.106254,0.973791
0.093149,-0.191817,0.728426,0.298994,0.912681,0.278597
-0.169235,-0.042712,0.877637,-0.550925,0.301133,0.778332
0.054761,-0.678309,-0.980017,-0.183463,0.062722,0.981024
0.904582,-0.206483,0.553171,-0.496936,0.663399,0.559424
0.144263,-0.074875,0.534412,0.440465,0.588690,0.677816
0.494636,-0.136112,0.662836,0.549793,0.777886,-0.304339
-0.290726,0.975685,0.446376,0.368646,-0.920365,0.130495
-0.047056,0.500643,0.827079,0.499823,0.814378,-0.294898
0.060747,0.122539,-0.049735,-0.732587,0.653192,0.191457
-0.011901,0.320597,0.873516,0.895546,-0.444866,-0.009550
-0.267542,0.172521,0.715870,0.425376,-0.714363,0.555644
-0.561434,0.351924,0.365346,-0.568509,0.779514,-0.262974
-0.697440,-0.048115,0.108881,0.017787,-0.393319,0.919230
0.750827,0.009199,-0.924980,0.377702,0.839566,-0.390473
-0.210719,0.184163,0.516560,0.664134,-0.221693,0.713987
0.153620,0.132638,0.848428,-0.531134,0.257768,0.807126
-0.685332,0.664930,0.498172,-0.754310,0.529872,-0.387623
-0.170955,0.136177,0.750324,-0.620130,0.025683,-0.784078
0.125345,-0.535057,0.550312,0.025066,-0.085430,0.996029
-0.378233,0.401711,0.568752,-0.447503,-0.887507,0.109871
0.119842,0.149170,0.473875,-0.432748,-0.610961,-0.662914
-0.049670,0.097517,-0.972526,0.285147,0.316534,-0.904708
-0.270914,0.395921,0.610543,0.756838,0.132687,0.639992
-0.702256,0.709893,0.261078,-0.397999,-0.722891,-0.564823
0.107182,0.128908,0.878314,0.878133,0.379370,0.291479
0.144538,-0.101826,0.582993,0.451687,0.613975,-0.647312
0.820858,0.045735,0.351564,-0.083919,0.044720,0.995469
0.147704,0.112698,-0.189529,0.887671,-0.460290,0.013181
-0.141304,0.005725,0.521511,0.760247,-0.355885,0.543480
-0.098032,-0.073202,0.506824,-0.597375,0.481549,-0.641290
-0.584068,0.448604,0.375746,0.926905,0.341332,0.156014
0.115026,0.294931,0.421991,-0.111864,-0.813999,0.569992
0.090809,0.066320,0.814791,0.992857,0.109310,-0.047812
-0.099546,0.289400,0.886570,0.498758,-0.764717,-0.407980
-0.140616,0.007462,0.697035,0.895431,-0.010061,0.445087
0.149423,0.153030,0.920718,0.357176,0.641131,0.679247
0.607321,-0.115464,0.499346,0.303957,0.872003,-0.383694
0.269264,0.257494,0.709974,-0.527254,0.401004,-0.749132
-0.097688,0.164158,0.622615,-0.598250,-0.108154,0.793977
0.510801,0.192139,0.838513,0.733779,0.585902,-0.343930
0.173844,0.360801,0.617191,0.393127,0.669304,-0.630462
0.460650,-0.118615,-0.966835,-0.163105,-0.057078,0.984956
-0.814186,0.005146,0.490835,0.779381,0.299604,-0.550275
0.423983,-0.859449,0.351921,-0.400302,-0.687050,0.606400
-0.054347,0.212981,-0.966695,-0.586655,0.098609,0.803811
-0.203700,0.074940,0.894354,-0.483025,0.857919,0.175103
-0.237136,0.305031,0.733378,0.143155,-0.582810,0.799900
-0.548018,0.575710,0.624529,0.836185,-0.320001,-0.445414
-0.512176,-0.190852,0.691229,-0.022055,0.998052,0.058355
0.549395,-0.132124,0.498338,0.291674,0.861073,-0.416509
-0.244841,0.724495,0.400629,-0.396038,0.569293,0.720458
-0.153067,0.356877,0.550070,0.688966,0.144278,-0.710288
