0.013645,-0.651645,0.544334,0.610456,0.759361,0.225199
0.069440,-0.389622,0.446843,-0.791975,-0.528399,-0.305892
0.355534,0.790975,0.100826,-0.544409,0.285612,0.788698
0.031640,-0.673737,0.513810,0.182902,-0.908806,-0.374991
-0.812995,-0.125557,0.511538,-0.113773,-0.509815,0.852728
0.027051,0.130130,0.867634,-0.652548,0.673797,0.346668
-0.266471,-0.631096,0.682507,0.280411,0.925364,0.255089
0.594347,-0.020384,-0.625235,0.913909,-0.390887,-0.109442
-0.248959,0.923584,0.659438,0.944243,-0.036502,-0.327219
0.264477,0.242577,0.856563,0.343185,-0.909883,0.233101
0.088278,0.251723,0.493365,0.651121,0.748064,-0.128222
-0.532999,0.100876,0.256629,0.904550,0.420820,0.068559
-0.219975,0.116028,0.639969,-0.433201,0.651553,-0.622749
0.197512,0.317338,0.418751,0.065699,-0.661271,0.747264
0.817702,0.633850,0.331307,-0.756857,0.465467,0.458812
0.507035,0.244837,0.775742,0.995631,0.091051,0.020707
-0.026690,0.584705,0.882672,0.768947,-0.123187,0.627332
-0.356078,0.076523,0.332859,0.711127,0.672928,-0.203632
-0.039914,-0.300038,0.776894,0.928650,-0.209360,0.306231
0.366522,-0.364607,-0.974723,-0.151866,0.203868,0.967148
0.129581,0.755056,0.355784,-0.720488,0.460670,-0.518344
-0.507217,-0.298276,0.611125,0.650920,-0.756451,-0.063919
-0.241653,-0.021817,0.421551,0.947485,0.240303,0.211012
-0.341828,0.074818,0.622979,0.978430,-0.128703,-0.161584
0.105487,-0.105062,-0.087132,0.085764,0.929096,0.359757
0.594286,0.583329,0.327819,-0.520923,0.032099,0.853000
0.257592,-0.593797,-0.065807,-0.001931,0.845119,0.534574
-0.131817,0.202249,0.926442,0.478334,-0.764991,0.431261
-0.129159,0.534958,0.602854,0.955872,-0.185586,-0.227744
0.257170,-0.262410,0.773727,0.376179,0.913412,0.155458
0.212727,-0.291167,-0.087580,0.022226,-0.919695,0.392004
-0.496468,-0.549777,0.167297,-0.193848,0.207528,0.958830
0.577138,-0.073934,-0.863731,0.607692,-0.794027,0.015205
0.095043,-0.106659,0.148212,0.195013,-0.842623,0.501952
-0.023248,-0.333203,-0.066015,0.848553,-0.098182,0.519921
-0.224383,0.662883,0.172065,-0.771573,0.636072,0.009333
-0.580823,0.315684,0.714343,0.188470,0.852332,0.487862
0.319908,-0.120103,-0.993169,-0.180403,0.251474,0.950902
-0.138821,0.360807,0.126791,0.224937,0.081861,0.970928
0.064730,-0.489065,0.296528,-0.405790,0.880782,-0.244043
-0.218646,0.879510,0.641105,0.999722,-0.021467,-0.009704
-0.294971,0.807008,0.634338,-0.497325,0.849931,0.174030
0.266167,-0.577764,-0.077614,0.874543,0.179578,0.450474
0.427329,-0.084954,-0.090828,-0.353173,0.834898,-0.422153
0.757984,-0.028814,0.928841,0.738536,0.615660,-0.274822
-0.768493,0.068978,0.372677,-0.088666,0.501104,0.860833
0.135679,0.622171,0.561020,-0.696064,0.329428,0.637943
-0.008152,-0.341358,0.538351,-0.664683,-0.483422,-0.569649
-0.023126,0.449782,0.350264,0.597700,-0.166790,0.784179
0.551174,0.417387,0.411056,0.192014,-0.552971,0.810773
-0.452269,-0.506086,0.307486,-0.456449,0.833421,0.311550
-0.491637,0.284227,0.468024,0.868860,-0.106182,0.483537
0.385543,-0.435458,0.749026,-0.549002,-0.835531,0.022010
0.010447,0.725414,0.257909,0.008277,0.013805,0.999870
0.359759,-0.568675,0.356743,0.026001,-0.979805,0.198256
0.702131,-0.284062,-0.248534,0.332846,0.592180,0.733851
0.421412,-0.057296,-0.993761,0.304108,-0.350676,-0.885745
-0.175714,0.553136,0.573882,0.647937,0.179028,-0.740356
0.622849,0.695608,0.333466,0.095815,-0.424909,0.900151
0.299981,-0.343617,0.708839,-0.570290,-0.560382,-0.600617
-0.101564,0.209576,0.759953,0.610528,0.742524,-0.275525
0.638366,0.033552,0.692666,-0.425692,0.446111,0.787255
0.133687,-0.533633,0.271091,0.950704,0.072512,0.301502
0.371232,0.801056,0.088700,-0.053477,-0.384033,0.921769
0.332045,-0.118671,0.872609,-0.499086,-0.806828,-0.316135
0.165931,-0.512865,0.836486,0.185755,0.365287,0.912173
0.400639,0.020714,0.468824,0.721970,0.684497,0.101112
-0.776100,0.152721,0.663790,-0.334138,-0.338361,0.879695
-0.418091,-0.113768,0.229673,0.119211,0.926193,0.357708
-0.286879,0.041431,0.628051,-0.442016,0.740572,-0.506138
0.205542,0.259602,0.601878,0.060121,-0.009974,0.998141
0.291044,-0.178448,-0.030372,-0.425659,0.898454,0.107680
-0.405773,0.188529,0.366806,0.909302,0.290586,-0.297876
0.008574,0.136301,0.855987,0.827090,-0.500338,0.256095
0.633537,-0.059556,0.694089,0.320087,0.474471,0.820013
-0.913472,-0.044514,0.511986,-0.267964,0.199387,0.942571
0.193648,-0.425817,0.596071,-0.512923,-0.823535,-0.242281
-0.363082,-0.158447,0.330955,0.896686,0.227542,0.379708
-0.053681,0.770921,0.290448,0.854216,-0.233524,-0.464522
0.469113,0.520909,0.163698,0.117088,0.885705,0.449240
-0.146610,-0.210622,0.253797,-0.473291,0.781936,-0.405675
-0.068776,-0.004240,0.559004,-0.213902,0.962269,-0.168180
-0.095345,-0.276018,0.926570,0.995669,0.059239,0.071653
0.210253,0.723817,0.089532,-0.239376,-0.061564,0.968973
0.150231,-0.110463,0.677596,-0.755305,-0.269506,-0.597395
0.421712,-0.048153,0.427678,0.703897,0.691884,0.160702
0.180907,0.225828,0.523441,0.744976,0.633141,-0.210103
0.516877,0.280921,0.244295,0.985816,0.096414,0.137370
0.285187,-0.434523,-0.056592,0.900524,0.413637,-0.134015
0.693496,-0.066664,0.965621,-0.476656,0.797354,-0.370168
-0.318521,0.026336,0.583081,-0.517989,0.138426,-0.844112
-0.730754,0.019779,0.540175,-0.344015,-0.479822,0.807109
0.428536,0.164510,0.672620,-0.202264,-0.977995,0.051142
-0.221184,-0.129414,0.521201,0.787456,-0.598887,0.145765
0.849043,-0.288084,0.941752,0.057458,0.797423,0.600679
-0.417126,-0.004351,0.642625,-0.326507,-0.815668,0.477576
0.032727,-0.236514,0.422207,0.587783,0.791810,-0.165975
-0.119317,0.242026,0.643728,-0.351096,0.466463,-0.811877
0.244730,0.305216,0.790844,0.078047,0.774130,0.628197
0.083570,-0.099719,0.494437,-0.065133,0.989009,0.132733
-0.370147,0.106000,0.370837,0.887126,0.407094,0.217445
-0.547431,0.102860,0.551997,0.577652,-0.797352,-0.174777
-0.862327,0.150680,0.647168,-0.646172,0.123205,0.753182
-0.670130,0.193819,0.726613,-0.452098,0.697924,-0.555436
-0.056399,0.499203,0.410208,0.966631,0.118754,-0.226984
-0.021436,-0.678751,0.680363,0.861750,0.109288,-0.495422
-0.421594,0.597103,0.632818,-0.448618,0.520674,-0.726389
0.069681,0.369180,0.430509,-0.219721,-0.918540,0.328643
-0.457220,0.522617,0.617140,-0.692421,0.651159,-0.310718
0.578647,0.153709,0.877361,0.981322,0.175778,-0.078158
-0.263029,-0.193819,0.265300,0.091640,-0.680197,0.727278
-0.868305,0.082475,0.380964,0.226817,0.609027,0.760027
0.277337,0.286762,0.882624,0.747629,0.251850,0.614510
0.544833,0.417720,0.035955,0.135146,0.328894,-0.934647
0.121851,0.380916,0.596903,0.361905,-0.010718,-0.932153
0.449307,-0.350282,0.521089,0.951964,0.276830,-0.130884
0.434211,-0.555450,-0.174304,-0.789953,0.278295,0.546376
0.227582,0.216681,0.844741,-0.098506,-0.985371,0.139070
-0.004107,0.444439,0.400418,-0.066158,-0.086074,0.994090
-0.043778,-0.256458,0.359143,0.019592,-0.514273,0.857403
0.940339,0.429949,0.364614,0.976244,-0.036775,-0.213532
0.556004,-0.064734,-0.758273,0.923611,-0.116979,0.365045
-0.065999,-0.763593,0.315997,0.151466,0.898576,0.411848
0.516996,0.323179,0.197437,0.215659,0.767019,0.604295
0.092627,-0.326374,0.159074,0.365944,-0.529793,-0.765117
-0.195279,-0.777807,0.442588,-0.615586,0.772968,-0.153535
-0.082121,0.648285,0.899630,-0.644074,-0.064005,-0.762281
-0.425881,0.680129,0.162546,-0.422880,0.895645,0.137813
0.788900,-0.228693,0.924138,0.205697,0.803848,0.558137
-0.074693,0.745745,0.276594,0.973999,0.226552,0.000052
-0.095223,0.750647,0.264900,0.929607,0.055524,-0.364347
0.196666,-0.187484,-0.993681,-0.116315,0.222969,0.967861
-0.558482,-0.715168,0.166961,0.888793,-0.286082,-0.358057
0.138458,-0.228693,-0.003400,-0.459826,-0.852280,-0.249359
-0.351791,0.718803,0.476999,0.730998,-0.124763,-0.670877
-0.339836,-0.608119,0.362599,-0.499514,-0.096397,-0.860926
0.047098,-0.286321,-0.088156,-0.570023,-0.053172,-0.819906
0.513676,0.422676,0.300143,0.886644,0.227101,0.402848
-0.029347,0.004244,0.192654,0.140853,-0.989202,0.040504
-0.459514,0.564653,0.669213,-0.233127,-0.665170,-0.709367
0.145884,-0.772134,0.334890,0.781884,0.233183,-0.578172
0.508724,0.722220,0.343833,-0.187175,-0.904933,0.382181
-0.460117,0.291776,0.243303,0.830645,0.351919,0.431488
0.502022,0.108536,0.659454,0.695022,0.692574,-0.193095
0.542056,0.059502,0.338074,-0.557417,0.479606,-0.677691
0.549060,-0.075148,0.770175,0.929285,0.211957,-0.302496
-0.128133,0.313922,0.123783,0.889568,0.443183,-0.110716
-0.273414,0.795330,0.195245,-0.357850,-0.931837,0.060189
0.687820,-0.038068,0.427854,-0.349912,0.145715,0.925380
0.338808,-0.173818,0.586376,0.959352,-0.209778,0.188780
-0.369603,-0.090243,0.617652,-0.550177,0.657265,-0.515080
-0.219129,-0.164675,0.277218,0.099087,-0.942842,0.318168
-0.626895,0.357942,0.202732,0.762077,-0.380240,-0.524077
0.464403,-0.178667,0.428462,-0.311467,0.816224,0.486586
0.009118,-0.484932,0.725365,0.764275,0.362234,-0.533544
-0.338929,0.614017,0.186415,-0.066546,0.997783,0.000774
0.115632,-0.074761,0.750562,0.847495,0.508280,-0.152985
0.031218,-0.072283,0.494021,0.303087,0.923256,0.236088
-0.146308,0.119552,0.876097,0.207141,-0.838232,0.504441
0.094136,-0.207592,0.759585,0.108550,0.567831,0.815956
0.058269,-0.540631,0.811721,-0.684870,0.707925,-0.172613
0.139001,0.096689,0.763824,-0.266032,0.949858,0.164305
-0.039370,-0.923971,0.228169,0.484828,-0.753312,-0.444369
0.174445,0.137622,0.745538,0.085908,0.992546,0.086442
0.237545,0.138561,0.672349,0.988063,-0.074964,-0.134577
-0.107301,0.128533,0.163170,0.393697,-0.599935,0.696478
0.431978,-0.076799,-0.064895,-0.692623,0.711065,-0.121074
0.114546,-0.717700,0.529184,0.756468,0.404531,0.513918
-0.083148,-0.308414,0.776414,0.938057,0.184511,0.293266
0.243945,0.699357,0.081101,-0.157423,0.352527,0.922465
0.025179,0.399427,0.883168,-0.743307,-0.601265,-0.293214
-0.001209,-0.264007,0.936984,0.488793,0.810827,0.321934
0.017149,0.373918,0.795708,0.192696,-0.478787,0.856523
-0.457944,0.104568,0.167665,-0.682323,0.151294,-0.715224
-0.029528,-0.224671,0.872161,0.212148,-0.947727,-0.238343
-0.162913,-0.805741,0.386307,0.527936,0.568482,0.630962
-0.133689,0.782989,0.290624,-0.697785,0.446104,0.560434
0.157115,-0.372486,0.609253,0.670895,-0.225904,0.706305
0.208261,-0.182688,0.198893,-0.538027,0.363844,-0.760358
0.544833,0.173929,0.882176,0.360696,0.926940,0.103342
-0.429745,0.062585,0.581161,-0.315578,-0.947739,-0.046930
0.166596,0.440529,0.355703,0.805442,-0.515039,-0.293254
0.474849,-0.178832,0.757665,0.665216,0.329646,-0.669941
-0.234588,-0.331277,0.213179,0.943791,0.327010,-0.048193
0.105972,0.754228,0.380324,0.602333,0.772647,0.200529
-0.102471,-0.133106,0.411568,0.906716,0.276740,0.318246
-0.285309,0.268469,0.438188,-0.387128,-0.385462,-0.837586
-0.203370,0.499919,0.238903,0.146109,0.589704,-0.794293
0.099088,-0.800397,0.264628,-0.140111,0.969030,0.203346
-0.211522,-0.177567,0.367190,-0.309133,0.406536,-0.859747
0.846688,-0.113603,0.968196,0.828732,0.221014,-0.514156
0.052533,0.904690,0.394914,0.586544,0.170569,-0.791753
0.415795,-0.097459,0.710903,0.864675,-0.499069,-0.057164
-0.324075,0.622665,0.486822,-0.295052,0.778368,0.554155
0.161765,-0.163296,0.736676,0.233685,0.343943,0.909447
0.226616,0.203406,0.822456,-0.642831,-0.707902,0.292647
0.593079,0.545977,0.274371,-0.121196,0.959972,0.252517
-0.056640,-0.975096,0.341369,0.822798,0.546627,-0.155572
-0.053379,-0.559640,0.409168,-0.251558,-0.643348,-0.723065
-0.489464,0.432703,0.400513,0.785389,0.224646,-0.576801
-0.074634,-0.723763,0.388019,0.743056,-0.599337,0.297764
-0.033029,-0.399592,0.751618,0.913169,0.124462,0.388112
-0.231026,-0.090848,0.173088,0.098662,0.568679,0.816621
0.110258,0.313095,0.311230,0.795666,0.487263,0.359847
-0.011171,0.282575,0.909980,-0.294842,0.374761,-0.878989
0.073787,0.394965,0.396754,0.260007,0.322841,0.910038
0.141598,0.141039,0.425118,-0.618524,-0.372049,0.692104
-0.074996,-0.711147,0.282785,0.280264,-0.926186,-0.252252
0.493326,0.668118,0.096011,0.275637,-0.884131,0.377276
-0.147697,-0.290562,0.097355,0.495135,0.322477,0.806752
-0.651833,0.471929,0.354376,0.327889,-0.371016,-0.868813
0.331682,0.555342,0.140181,0.435426,-0.875556,-0.209299
0.601412,-0.152939,-0.393011,0.992334,-0.074021,0.098960
-0.330113,0.596827,0.177536,-0.124296,0.991333,-0.042528
0.404685,-0.513582,-0.093211,-0.122552,0.818109,0.561854
0.671335,0.058399,-0.750146,0.800277,-0.598486,-0.037031
-0.222330,-0.420750,0.431869,-0.317723,-0.614958,-0.721719
0.215385,-0.172994,-0.995729,-0.140202,0.223635,0.964537
-0.453054,0.515565,0.101146,0.945308,-0.026775,0.325078
0.291829,-0.269737,-0.096171,0.715653,-0.667360,0.206085
0.239598,0.176794,0.815865,0.821056,0.363896,-0.439826
0.150835,0.372102,0.880736,0.069121,0.981428,-0.178947
0.400397,-0.011736,0.309582,0.157187,0.953177,0.258350
0.575327,-0.114098,-0.863443,0.607692,-0.794027,0.015205
0.215024,-0.645198,-0.045682,-0.033452,0.936367,0.349424
0.815409,0.195197,-0.992977,-0.153129,0.164308,0.974451
0.873861,-0.040933,0.981282,0.723860,0.308049,-0.617359
0.057243,-0.330396,0.734596,0.905342,-0.421440,0.052377
0.022644,0.771694,0.714503,-0.218067,0.508551,-0.832960
-0.642535,0.068867,0.500308,-0.411152,0.696495,-0.588089
-0.040577,0.025011,0.867762,0.942852,0.003351,0.333194
0.316707,-0.236131,0.320524,-0.545414,-0.686619,-0.480705
-0.046737,-0.754615,0.375605,-0.542193,0.598222,-0.590048
0.621399,-0.043028,0.878784,-0.091016,-0.868584,0.487112
0.638306,0.403449,0.387427,0.467869,-0.682495,0.561515
-0.206812,-0.773127,0.444636,0.613526,-0.781023,0.116572
-0.172937,-0.119057,0.307182,-0.199132,-0.012968,0.979887
-0.401547,0.202908,0.681995,-0.381375,0.915170,-0.130445
-0.507458,0.027601,0.661566,0.148966,-0.256474,-0.955003
-0.490491,0.411273,0.042658,0.797472,0.562714,-0.217696
0.237243,0.340477,0.734612,0.303362,-0.136722,-0.943016
0.435540,-0.264394,-0.979971,0.168491,-0.128283,-0.977320
0.086769,-0.389400,0.614836,-0.580869,0.706058,-0.405061
0.718314,0.316511,0.182543,0.894612,0.148916,0.421301
-0.282350,0.903476,0.616420,0.798446,0.520425,-0.302725
0.109956,0.048429,0.689418,0.924086,-0.379846,0.042206
0.420686,0.554461,0.303503,0.700919,0.363073,-0.613915
0.486081,0.172113,0.721862,0.856037,-0.499278,0.133872
0.624419,0.126660,0.463625,0.709890,-0.462853,-0.530870
0.344000,0.794005,0.093339,-0.620533,0.190958,0.760574
0.275707,-0.589389,0.452490,-0.292240,0.221591,-0.930319
-0.149750,-0.212825,0.246438,-0.294991,0.684070,-0.667105
0.185556,-0.172221,0.757905,-0.364817,-0.212712,-0.906456
-0.173481,-0.154647,0.909452,0.859295,0.511231,-0.015954
0.056578,0.679191,0.536735,-0.200642,0.446335,-0.872082
0.187970,0.330506,0.618356,0.795037,0.560156,0.232685
0.545316,-0.126327,0.802971,-0.719738,0.166386,-0.674013
-0.456676,-0.280205,0.296928,0.302047,-0.076634,0.950208
0.020891,0.361634,0.527264,-0.685218,-0.659663,0.308741
0.320572,-0.221201,-0.988626,0.207467,-0.205769,-0.956356
0.559869,-0.051290,0.407777,-0.534421,0.042727,0.844138
0.158625,0.808219,0.273203,-0.431338,-0.523311,0.734910
-0.317312,-0.067048,0.323740,-0.633930,0.746164,0.203401
0.460419,0.008817,-0.999568,0.253993,-0.296847,-0.920527
-0.204396,0.030687,0.476807,0.202353,0.374635,-0.904821
0.618983,-0.028922,0.848709,0.730626,-0.674343,0.106994
0.353481,-0.195086,0.882048,-0.499086,-0.806828,-0.316135
-0.022402,0.618698,0.332587,0.970070,0.238744,0.044345
0.013163,-0.711641,0.693210,-0.814631,-0.156515,0.558461
-0.268039,0.717371,0.128886,0.010141,0.810208,0.586055
-0.467786,0.110738,0.353032,-0.016996,0.377569,0.925825
-0.429383,-0.768167,0.149012,-0.282532,0.756426,-0.589911
-0.379628,-0.732355,0.653007,0.509452,0.189379,-0.839401
0.532575,-0.054542,0.810170,-0.417286,0.746062,-0.518907
0.357285,0.209189,0.946423,0.949938,-0.269942,-0.157321
0.626169,0.583992,0.337962,-0.294967,0.082286,0.951958
-0.212366,-0.704643,0.704200,0.002547,0.141568,0.989925
-0.386873,0.392705,0.764736,0.544163,0.767851,0.338070
0.703279,-0.218941,-0.230761,-0.662235,-0.524369,-0.535240
0.292011,0.417111,0.741219,-0.428077,0.322006,0.844430
0.398949,0.732465,0.366486,0.424050,-0.901956,0.081588
0.313205,0.195140,0.591911,0.748388,0.451437,0.485921
0.046131,0.307476,0.438380,-0.662870,0.680510,-0.312265
-0.108266,-0.786732,0.240007,0.205117,-0.641467,0.739220
0.580702,0.002424,0.885040,-0.162818,-0.905963,0.390796
-0.032185,-0.802213,0.462121,0.836627,0.498213,-0.227683
-0.149872,0.370448,0.942136,-0.605032,-0.220533,-0.765050
-0.337842,-0.018014,0.615556,0.776423,-0.580041,0.246415
0.125415,0.344939,0.292336,0.574791,0.456101,0.679402
0.776763,0.189468,-0.993409,0.131607,-0.339745,-0.931264
0.304813,-0.098451,0.279634,-0.229856,-0.143673,-0.962561
-0.027836,-0.048758,0.812809,0.851024,-0.138333,0.506579
-0.188033,0.247150,0.943607,0.415671,-0.741617,0.526519
-0.212488,0.425265,0.593351,0.606811,-0.789449,-0.092471
-0.018297,0.212384,0.714615,0.420498,0.868701,-0.261801
-0.478957,-0.117954,0.307806,0.814004,0.320572,0.484386
0.113881,-0.384110,0.177472,0.450228,-0.682346,-0.575933
0.090031,0.705416,0.262180,0.281367,-0.637154,0.717543
0.235915,-0.119111,0.695209,-0.012992,0.963611,0.266991
0.183019,-0.311938,0.163218,-0.206625,0.614367,0.761485
0.355232,-0.015811,0.750898,-0.621045,0.313082,-0.718528
-0.292857,0.001157,0.308926,-0.668004,0.237119,-0.705369
-0.479137,-0.432428,0.318445,-0.219753,-0.040578,0.974711
0.464103,-0.395900,0.574074,0.962794,-0.196241,-0.185788
0.289776,0.193432,0.833047,-0.397377,-0.850369,0.344912
0.819272,-0.182137,-0.964197,-0.148370,-0.087898,0.985018
-0.282532,-0.007932,0.555308,-0.080091,-0.970073,0.229224
0.598635,-0.128422,-0.454586,0.920282,-0.184471,-0.345040
0.397318,-0.253980,0.621907,0.831846,0.553438,0.041696
0.491576,0.187319,0.741363,0.973774,-0.220628,0.055574
-0.562890,-0.333536,0.578249,0.641490,0.325668,-0.694573
-0.371476,0.341855,0.084396,0.436927,0.528910,-0.727564
0.666988,-0.086332,-0.495109,0.915320,-0.382333,0.126532
-0.418635,0.885351,0.432093,-0.389138,0.875412,-0.286750
0.169434,-0.168861,0.151667,-0.063928,0.284033,0.956681
-0.318882,-0.112224,0.533295,-0.170039,0.767499,-0.618087
0.303243,-0.431214,0.457322,0.832564,0.208126,-0.513343
-0.334884,0.338052,0.747298,0.306840,-0.773766,0.554198
-0.649900,0.365821,0.196797,0.867196,-0.069269,-0.493125
-0.037196,0.540795,0.535103,0.296592,-0.289840,0.909959
0.102771,-0.032338,0.774367,0.183359,-0.820130,0.542002
-0.697664,0.098673,0.598855,0.560815,-0.802156,-0.205019
-0.134835,-0.141809,0.867570,0.962408,0.238608,0.129757
0.534508,-0.146712,-0.188638,0.805530,-0.388195,0.447691
0.708531,0.010690,0.987890,0.034382,0.042653,0.998498
0.519654,0.151836,0.709975,0.845889,0.522262,-0.108232
-0.515187,0.209300,0.704680,0.510046,0.790225,-0.339703
-0.223417,-0.280205,0.119528,-0.627814,-0.323835,-0.707800
0.710342,-0.088975,0.876721,0.805431,0.454843,-0.379998
0.338747,0.206324,0.917787,0.646170,0.523928,-0.554946
-0.252158,0.634620,0.186671,-0.729073,0.663714,0.167143
0.528952,-0.092445,-0.229337,0.954674,-0.134689,-0.265435
0.345449,0.541458,0.384052,0.392025,0.548901,-0.738258
0.608477,0.037961,-0.983122,0.494567,-0.436356,-0.751663
-0.445082,0.424220,0.223178,-0.484720,0.700427,0.523878
-0.397198,0.256075,0.678700,-0.318969,0.917240,-0.238599
-0.085564,-0.388408,-0.035299,0.976663,0.180911,-0.115762
-0.288993,0.639526,0.190094,0.478706,-0.877144,0.038212
-0.547068,0.497327,0.513586,-0.190376,0.331802,0.923940
-0.559991,-0.052834,0.203116,-0.263777,-0.020650,0.964363
-0.412355,-0.139660,0.599542,-0.537910,0.833139,0.128574
-0.754907,0.286705,0.375829,0.370530,0.525089,0.766152
-0.554918,0.067932,0.167537,0.096189,0.058002,0.993672
-0.218163,-0.683489,0.421839,0.945033,0.297402,-0.135882
-0.353844,-0.596605,0.171409,-0.782127,0.192681,-0.592580
0.163698,0.261583,0.074030,0.628229,0.444527,0.638533
0.024273,-0.577378,0.838550,0.209247,0.862489,0.460792
-0.109836,0.341798,0.540159,-0.235744,-0.956677,-0.170862
0.266771,0.038126,0.071294,-0.675043,0.496908,-0.545343
-0.017934,0.430444,0.894510,-0.594027,-0.654299,-0.468001
0.561801,-0.053496,0.790940,-0.208516,0.249823,-0.945574
0.581426,0.552201,0.147156,-0.460486,-0.788459,-0.407780
0.089909,0.156796,0.751346,-0.657989,-0.040879,-0.751917
-0.070951,-0.579032,0.499540,0.030363,-0.086468,0.995792
-0.520682,0.437112,0.029572,0.963669,-0.036878,0.264541
-0.452510,-0.811524,0.166865,0.055308,-0.966482,0.250707
0.361873,0.466091,0.644160,-0.590701,0.361436,-0.721413
0.593381,-0.034269,-0.614005,0.966932,-0.115823,0.227215
0.499667,0.237563,0.412384,0.695202,0.682039,0.226973
-0.238391,0.688173,0.109497,-0.754637,0.150434,-0.638665
0.453173,0.025068,0.571546,0.831635,-0.554418,-0.031686
0.252641,0.178391,0.272707,0.119214,-0.280726,0.952355
0.128977,-0.096084,0.587384,0.323858,-0.906408,-0.271183
-0.212005,0.161147,0.653167,0.631235,-0.750193,0.196858
0.143892,0.672580,0.516802,0.818090,-0.261956,0.511965
-0.235495,-0.608616,0.340810,0.973214,0.229342,-0.016005
0.616267,-0.005068,0.475495,0.592271,0.251710,-0.765413
0.289113,0.100765,0.450635,-0.150861,-0.055753,0.986982
-0.529980,0.230347,0.268099,0.871307,0.003811,-0.490723
-0.269067,-0.740509,0.688570,0.844469,0.473069,-0.251153
-0.245154,-0.373972,0.362711,-0.345088,-0.560627,0.752736
-0.103256,0.213046,0.729525,0.188764,0.963439,-0.190141
-0.468269,-0.063026,0.374197,-0.456684,-0.790965,0.407202
-0.190147,0.804530,0.552765,0.407746,0.572537,0.711297
0.541512,-0.273429,0.623571,-0.758925,-0.286848,-0.584594
-0.520199,0.318166,0.579033,-0.631532,0.027561,0.774860
-0.177406,0.060107,0.295200,0.362179,0.631285,0.685788
-0.376005,0.397884,0.307486,0.947913,-0.012829,-0.318271
0.220517,-0.090354,0.234776,-0.245567,0.911144,-0.330929
-0.744460,0.129579,0.545582,-0.229222,-0.849424,0.475328
0.396533,-0.394467,0.755073,0.447327,0.888435,0.102868
-0.167020,0.133877,0.643056,-0.467125,0.672919,-0.573564
0.219431,-0.411986,0.786381,0.597830,-0.043817,0.800425
0.035686,0.177291,0.904253,0.784849,-0.603453,0.140912
0.168951,0.245718,0.299935,0.814396,0.537390,0.219024
0.441881,-0.133766,-0.065535,-0.601689,0.413881,-0.683135
0.224200,-0.437112,0.587304,-0.160696,-0.966600,0.199653
0.496647,-0.199767,0.411808,0.858020,-0.501758,-0.109727
-0.489947,-0.213927,0.336298,-0.696928,0.510157,-0.504015
0.566391,-0.464272,0.530208,0.712109,0.674975,-0.193158
0.285368,-0.474353,0.477191,-0.574764,0.564346,-0.592588
-0.260130,0.681451,0.126807,-0.516144,-0.411375,-0.751243
-0.037498,0.626469,0.252006,-0.643032,-0.312680,0.699100
-0.569290,-0.188200,0.587544,-0.089378,-0.066830,0.993753
0.500813,0.610214,0.138085,0.061179,0.787161,0.613706
0.574481,0.013111,0.782637,0.576600,0.346951,0.739701
-0.093051,-0.610711,0.881696,0.997537,-0.019821,-0.067282
0.636918,0.264064,0.181359,-0.639567,-0.324277,-0.696992
-0.589700,-0.219217,0.629442,0.869743,0.460089,-0.178511
-0.015700,0.111401,0.615076,-0.338445,-0.932213,0.128196
-0.382466,0.360807,0.109561,0.824303,0.471287,-0.313707
-0.213997,0.305549,0.739555,-0.420878,-0.730131,0.538303
-0.119619,-0.108314,0.872401,0.879190,-0.427626,-0.210145
-0.230965,-0.640185,0.348121,0.322256,-0.942954,0.083602
-0.430893,-0.756048,0.164530,-0.035252,-0.936082,0.350012
-0.070890,0.067821,0.460073,-0.293333,-0.256535,-0.920948
0.558480,-0.525260,-0.957862,0.176726,-0.313989,-0.932834
0.055249,-0.404276,0.851396,-0.680582,0.156379,-0.715789
-0.048549,0.380310,0.530832,-0.086864,-0.965670,0.244819
-0.000785,-0.362569,0.539886,0.448207,0.827011,0.339357
-0.374313,-0.753347,0.198989,0.837435,0.321100,0.442263
-0.127831,0.258886,0.152371,0.415113,0.688207,0.595023
-0.386934,0.472372,0.572618,0.302742,0.903070,0.304650
0.207595,-0.347915,0.246838,-0.718977,-0.026225,-0.694539
-0.203007,0.652966,0.762752,0.072635,0.833767,0.547318
-0.533483,-0.189299,0.525744,-0.617824,0.533052,-0.578057
-0.129462,0.389675,0.936392,0.695727,0.345032,0.630013
-0.290441,0.849320,0.538143,0.178839,0.604301,0.776426
0.659077,0.540853,0.284257,0.192458,0.810653,0.552993
-0.386208,-0.167042,0.372757,-0.419238,-0.371587,0.828349
-0.529980,-0.002260,0.425166,0.983082,-0.118603,0.139582
-0.061592,-0.006833,0.518305,-0.029092,0.999251,0.025506
-0.064127,-0.362569,0.549421,0.746770,0.582112,0.321685
-0.431376,0.319322,0.234696,-0.015638,-0.379544,0.925042
-0.537046,0.231447,0.215499,0.043366,-0.833602,0.550661
-0.033573,0.619747,0.772383,0.717651,0.391765,-0.575758
-0.214178,0.193654,0.166993,0.093999,-0.025690,0.995241
0.283376,-0.595670,0.423678,0.937098,-0.039632,-0.346809
-0.155850,-0.680953,0.698201,-0.434727,-0.402401,-0.805659
0.435057,-0.660075,0.530352,0.716468,0.568734,-0.404000
-0.159592,-0.593797,0.874561,0.185746,-0.091464,0.978332
-0.270394,0.775551,0.484390,-0.343856,0.617746,0.707214
0.476722,0.102032,0.814633,0.978617,-0.072253,-0.192581
-0.060807,0.358877,0.922410,0.972389,0.129718,0.193994
-0.188818,-0.724752,0.276930,-0.696140,0.685611,-0.212901
0.121127,0.049915,0.696761,0.746939,-0.649589,0.141835
-0.926876,-0.103519,0.642544,-0.224540,-0.615172,0.755741
-0.654127,0.203957,0.635937,-0.700707,0.125501,-0.702324
-0.630518,0.393146,0.206284,0.728787,0.056865,-0.682375
-0.052172,0.117184,0.870129,0.719973,-0.205064,0.663014
0.132056,0.005784,0.774639,0.920448,-0.307483,0.241306
0.280478,0.468956,0.370805,0.485164,-0.466724,-0.739449
-0.400277,0.258223,0.186927,-0.598062,0.787781,0.147389
0.254090,0.201200,0.672109,0.981191,-0.086672,0.172489
-0.022100,0.482672,0.872689,0.967756,0.247268,-0.048036
-0.254213,0.872129,0.538847,0.173858,0.678633,0.713604
0.078677,0.322352,0.320684,0.929312,0.355963,0.098337
-0.168649,0.820176,0.545358,-0.405871,-0.428735,-0.807128
0.215928,0.243623,0.807946,-0.092399,0.865599,0.492139
-0.069742,-0.128257,0.840566,0.982271,-0.058119,0.178228
0.039188,-0.884194,0.295040,0.848301,-0.296278,-0.438867
0.127528,0.468018,0.289633,-0.563591,-0.389150,-0.728647
0.094982,-0.297946,0.721350,0.154469,-0.987224,0.039080
0.343457,0.465815,0.341897,0.567227,0.587576,0.577069
0.466275,0.045288,-0.035923,0.860859,0.432137,-0.268663
-0.099390,0.626358,0.778638,-0.040795,-0.780969,0.623237
0.134533,-0.279764,0.716950,0.421025,0.851310,0.313065
-0.097278,-0.201365,0.893646,0.993225,-0.036330,0.110379
-0.254513,0.795384,0.608997,0.924300,-0.050426,0.378320
0.268702,0.518155,0.101642,0.805899,0.355877,0.473159
0.361692,-0.487632,-0.967812,-0.189888,0.205889,0.959975
0.536802,0.162967,0.836166,0.979860,0.072440,-0.186082
0.342067,0.330066,0.882320,0.996768,0.078192,-0.018411
-0.367189,0.728168,0.514610,-0.399703,0.472259,0.785626
0.243160,-0.296732,0.583017,0.542643,-0.617928,-0.568949
-0.050119,0.384221,0.580105,0.210743,0.885524,-0.414047
0.738722,0.530550,0.272163,-0.064017,0.814511,0.576605
-0.166113,-0.441241,0.304846,-0.066139,-0.329148,0.941959
-0.632390,0.058621,0.198573,-0.737492,0.565361,-0.369422
-0.217137,0.727011,0.116984,-0.819618,0.415618,-0.394320
-0.525512,-0.058288,0.427518,0.925012,0.139481,0.353410
-0.486505,0.260977,0.287713,0.937236,-0.170865,-0.303964
-0.254031,0.646961,0.183919,-0.712321,0.669674,0.210085
-0.108449,0.273924,0.119624,0.807426,0.569605,-0.153668
-0.004107,-0.596716,0.444315,-0.475619,0.729700,-0.491247
-0.013950,-0.579691,0.665390,-0.560370,0.472649,0.680138
-0.243223,-0.527298,0.451755,0.444985,-0.694639,-0.565213
-0.068052,0.300424,0.931849,0.927617,-0.180962,0.326771
0.307409,0.490884,0.375445,-0.453423,0.539900,0.709165
0.301249,-0.259820,0.547294,-0.320896,-0.810166,0.490567
-0.298171,-0.004297,0.580121,0.943290,0.214407,0.253442
0.835698,-0.214314,0.944487,0.086832,0.641345,0.762324
-0.091179,-0.608727,0.498612,-0.069327,-0.371312,0.925916
-0.014010,0.246652,0.904973,0.464193,0.224931,0.856698
0.294184,0.009587,0.753313,0.122457,-0.670495,0.731738
-0.439104,0.644704,0.464809,0.605238,-0.042128,-0.794929
-0.221243,0.583440,0.399842,-0.184535,-0.894896,0.406334
-0.132480,-0.158229,0.891231,0.835278,0.071703,0.545132
-0.513556,0.082916,0.502787,-0.109628,0.850392,-0.514602
-0.115029,0.766183,0.540990,-0.526327,-0.353900,-0.773133
0.587041,-0.030301,-0.623875,0.964423,-0.263321,0.023468
0.419116,0.205168,0.357223,0.799875,0.439607,-0.408590
0.723143,0.581897,0.259477,-0.030041,0.798214,0.601624
0.149146,-0.308908,0.685787,0.165880,-0.351922,-0.921214
0.318095,0.478045,0.658702,-0.668795,0.171983,-0.723281
-0.624660,0.277780,0.608469,-0.356398,0.811965,0.462269
0.138638,-0.512038,0.837222,-0.306697,-0.084263,0.948070
0.412655,0.174480,0.296000,0.475896,-0.000130,-0.879502
0.203973,0.888767,0.708663,0.140813,-0.112424,-0.983632
0.398042,-0.428184,-0.971076,0.156537,-0.202417,-0.966708
-0.352516,0.436947,0.406945,-0.235771,0.081772,0.968362
0.607149,-0.117736,-0.328891,0.988087,-0.138849,0.066373
-0.217259,0.686024,0.139477,-0.437340,-0.418727,-0.795865
0.401967,0.584816,0.431133,-0.399678,-0.635554,0.660552
-0.009601,-0.780454,0.481446,0.926591,0.365854,-0.087062
0.107903,0.594073,0.063967,-0.102526,0.643147,0.758848
0.242014,-0.215911,0.148836,-0.770790,0.596425,-0.223963
-0.404626,0.248307,0.224953,0.528780,-0.305980,0.791687
-0.338144,0.342682,0.744531,0.359729,-0.747769,0.558066
0.258740,0.273705,0.910348,0.118559,-0.551913,-0.825431
-0.527506,0.149029,0.644864,-0.579353,-0.811634,-0.074830
0.803575,0.526582,0.334666,0.612969,-0.267652,-0.743392
0.023972,-0.426204,0.738020,0.751315,0.658982,0.035622
0.215565,-0.118008,0.528752,-0.658844,0.053267,-0.750392
-0.931224,0.042863,0.510482,-0.144155,-0.649319,-0.746729
0.369421,-0.528677,-0.965221,-0.202398,0.210455,0.956422
-0.193889,0.941823,0.428046,-0.216165,0.889222,-0.403185
-0.057062,-0.284943,0.527248,0.742462,-0.669854,0.006785
0.470020,0.130901,0.772831,-0.715242,0.689999,0.111046
0.239478,0.250123,0.596743,0.084914,-0.048842,0.995190
0.261578,-0.020771,0.610021,0.924110,0.357637,-0.134597
0.097518,-0.085834,0.753170,0.912255,0.257086,0.318900
0.433368,-0.106881,-0.129590,0.829417,0.410472,0.378919
-0.012319,-0.329293,0.537247,-0.595726,-0.448560,-0.666261
0.753878,-0.038179,0.937145,0.750658,0.636864,-0.175834
0.126200,0.713238,0.521969,0.786320,-0.367254,0.496815
-0.491878,-0.757810,0.153059,-0.509840,-0.150220,-0.847052
0.344181,0.460802,0.282002,0.626427,-0.538918,0.563166
0.637884,0.006722,0.889375,0.040755,0.992075,-0.118852
-0.194433,0.083686,0.393938,-0.573032,0.380062,-0.726077
0.474306,-0.595946,-0.957334,0.197079,-0.240752,-0.950367
0.892034,0.484105,0.368646,0.955523,0.255622,-0.147079
0.891975,0.065343,-0.974643,0.140843,0.346677,0.927350
-0.030796,-0.119552,0.010151,-0.781028,-0.612687,0.120874
0.524968,0.601454,0.311630,-0.548274,-0.211477,0.809119
0.874705,-0.172994,-0.962917,0.117037,0.077311,0.990114
0.585110,-0.120049,-0.711863,-0.473814,0.868122,-0.147865
0.245698,0.282629,0.734468,-0.363416,0.879634,-0.306875
0.135379,-0.099719,-0.073694,0.075988,0.940548,0.331053
0.359459,-0.146164,-0.227833,-0.206123,-0.809105,-0.550329
-0.105852,0.567518,0.594615,0.942249,0.162102,-0.293071
0.027051,0.530825,0.770271,0.735813,0.566807,0.370552
0.196788,0.443723,0.434669,0.301952,-0.017983,0.953154
0.298592,-0.435733,-0.176752,0.094091,0.586599,0.804393
0.115814,0.616549,0.076238,0.887674,-0.435451,0.149720
0.365798,0.681505,0.345241,0.794289,-0.593561,0.129574
0.758469,-0.204341,-0.965685,-0.103327,0.005730,0.994631
-0.041484,-0.541182,0.856323,-0.543518,0.427727,-0.722245
0.124691,-0.318936,0.336922,0.059493,0.517873,0.853386
-0.392730,0.725636,0.424462,-0.436988,0.894383,-0.095504
-0.077231,-0.604265,0.493237,-0.109434,0.881258,-0.459792
0.164059,0.545261,0.094139,0.073564,-0.961134,0.266103
0.054525,-0.233266,0.754961,-0.486852,0.188351,-0.852935
-0.047098,-0.297230,0.792860,0.249556,0.409206,0.877652
0.047762,0.342350,0.663726,-0.202208,0.054419,0.977829
-0.170280,-0.607349,0.350856,-0.455804,0.881032,-0.126593
-0.464283,0.180375,0.724901,-0.573831,0.668655,-0.472883
0.252158,-0.631260,-0.030164,-0.245575,-0.963646,-0.105262
-0.518931,0.461794,0.248790,0.900872,-0.269385,-0.340385
0.075961,0.324995,0.404289,0.824545,0.337908,-0.453811
0.078377,0.748280,0.373317,0.221179,-0.966146,-0.132822
-0.910754,0.101098,0.410160,0.060437,0.508217,0.859106
0.335667,-0.407524,0.742099,0.304790,0.950993,-0.052117
-0.041242,-0.024628,0.172049,0.234236,0.142888,0.961622
-0.475273,0.065837,0.486486,0.814557,0.517547,-0.261998
0.589818,-0.027325,0.789484,0.812216,0.193999,-0.550154
-0.297386,0.125998,0.678396,0.014654,-0.748757,0.662683
0.466034,-0.045560,0.822072,-0.726404,0.351928,-0.590325
0.441276,-0.085176,0.032068,0.901605,0.392424,0.181963
0.455587,-0.341415,0.546206,0.782284,-0.618836,0.071231
-0.252099,-0.824857,0.697929,-0.432189,0.226952,-0.872757
-0.041906,0.588837,0.769023,0.594660,0.237778,0.768012
0.383188,-0.148366,-0.045746,-0.578685,0.646957,-0.496558
0.190688,-0.483500,0.374053,0.058971,-0.718855,0.692654
-0.119196,0.273759,0.951175,-0.596681,0.385078,-0.704051
-0.028562,0.358329,0.797771,0.139362,-0.355421,0.924259
0.116358,0.541623,0.111193,-0.102726,-0.853901,-0.510197
-0.831109,0.089581,0.547933,0.808738,-0.570807,-0.141856
0.758347,-0.190897,0.953510,0.110980,-0.084334,0.990238
-0.372624,0.540079,0.585144,0.214545,-0.847217,0.485999
0.465551,-0.087930,-0.011271,0.735058,-0.654340,0.177564
0.568261,0.153104,0.362199,0.805120,-0.454978,0.380495
-0.111889,0.216517,0.928985,-0.411604,0.805033,-0.427205
-0.780208,0.291611,0.547645,-0.307207,0.768370,0.561455
0.373468,-0.151725,0.825959,0.443390,0.858483,0.257705
-0.368155,-0.639798,0.658222,0.204084,-0.485954,0.849822
0.291165,0.638477,0.097275,0.325845,-0.242704,-0.913739
-0.240988,0.802381,0.606213,0.967631,0.209591,0.140579
0.488979,-0.257450,-0.063951,0.540280,-0.274055,-0.795608
0.233501,0.190789,0.541998,0.927168,0.371461,-0.048737
-0.040277,0.592308,0.544094,0.631500,-0.024234,0.774997
-0.454080,0.739850,0.648928,-0.449248,-0.678501,-0.581217
-0.135559,0.497659,0.555756,0.742810,0.399374,0.537339
-0.474247,0.025509,0.408224,0.876385,-0.213297,-0.431802
0.387839,-0.512038,0.722390,0.602310,0.529285,-0.597561
-0.800555,-0.153874,0.666397,0.017549,-0.952380,0.304407
0.897588,-0.342296,-0.956774,-0.177442,0.152428,0.972255
0.657207,-0.017079,0.950247,0.487788,-0.776663,-0.398569
0.597789,0.099500,0.835382,0.804062,0.212535,-0.555260
0.587524,-0.474851,0.524657,0.731789,0.664799,-0.150089
0.083388,-0.475069,0.661502,0.438284,-0.809020,-0.391655
0.362477,-0.057242,0.579577,0.521318,0.658004,0.543377
-0.109717,-0.649385,0.492837,-0.468524,0.308535,-0.827823
-0.460962,0.600462,0.183983,-0.692666,0.326337,0.643210
-0.146188,0.394137,0.931273,0.729946,0.155750,0.665523
-0.492543,0.067269,0.657695,0.215852,0.581454,0.784423
-0.151501,0.081372,0.385267,0.300505,0.046926,0.952625
-0.053439,0.047104,0.334042,-0.253046,-0.860644,0.441881
-0.916249,-0.008097,0.324780,0.702239,0.684638,-0.195273
-0.316649,-0.751253,0.659630,0.543176,0.162681,-0.823708
0.271540,-0.589167,-0.088764,0.999882,-0.013237,-0.007799
0.069862,-0.372099,0.852244,-0.680582,0.156379,-0.715789
-0.219009,0.709163,0.549661,0.194902,0.425579,0.883683
0.556849,0.679632,0.105402,-0.744034,0.402604,0.533220
0.619346,-0.024517,-0.465049,-0.766189,0.489950,0.415816
0.741621,0.088646,0.484038,0.287780,-0.279332,0.916055
0.424128,-0.015482,0.128902,0.712567,-0.178729,0.678457
0.870658,-0.072835,0.982994,-0.778802,-0.183602,0.599797
0.367127,0.830204,0.097019,-0.534249,0.294693,0.792297
0.004167,-0.598919,0.482822,0.519927,-0.530567,-0.669458
0.584625,0.659469,0.323292,0.121446,-0.494912,0.860414
0.254331,-0.530603,0.368678,0.181003,0.479350,-0.858756
-0.073065,-0.065561,0.165330,-0.389703,0.663273,-0.638906
0.104763,0.334030,0.399778,0.874833,-0.401053,-0.271704
0.022100,0.311662,0.512290,-0.670110,-0.061422,-0.739716
0.313446,-0.207757,0.190286,0.913410,-0.348141,0.210904
-0.253246,-0.023414,0.562939,0.073363,-0.942820,0.325129
-0.493992,0.075424,0.650496,0.442908,0.804551,0.395639
-0.114909,-0.230125,0.936665,0.924563,0.027314,0.380049
0.890103,-0.034487,1.000000,-0.460733,-0.526532,0.714485
0.282411,-0.097735,-0.226441,0.125948,0.856869,0.499912
-0.026751,-0.743155,0.466696,0.868201,0.456958,0.193433
0.377754,-0.327749,0.775518,0.920342,0.387573,0.052520
0.212668,0.220484,0.801115,0.935411,0.314979,0.160605
0.615482,0.261969,0.356647,-0.457105,0.741687,0.490871
-0.083389,-0.611095,0.669373,-0.371476,0.905441,0.205381
0.097035,0.656934,0.706600,0.672084,0.315577,-0.669862
-0.265686,-0.236020,0.376693,0.022647,-0.260382,0.965240
-0.239841,0.840396,0.602502,0.941259,0.335046,0.042135
0.216533,-0.450277,-0.973060,-0.114101,0.187294,0.975655
-0.486746,-0.665805,0.176976,-0.517588,-0.164678,-0.839633
-0.105126,-0.077626,0.306670,-0.495714,-0.055694,-0.866698
0.214480,0.825738,0.711383,-0.313924,0.045053,0.948378
0.218585,0.039393,0.269667,-0.404364,0.291708,-0.866831
0.325040,-0.135363,0.711415,0.204478,0.898278,-0.388955
-0.276856,-0.505535,0.177632,-0.778860,0.553248,-0.295455
0.210494,-0.290891,0.802763,-0.239163,0.609614,0.755759
-0.017029,0.495400,0.835558,0.959274,-0.197327,0.202127
0.227884,-0.106441,0.068431,-0.463026,0.581804,-0.668663
-0.461869,0.595230,0.112313,0.915745,-0.003504,0.401744
0.393454,-0.420252,0.729493,0.649651,0.675726,-0.348351
0.521587,-0.440636,0.747666,0.198050,0.686956,-0.699190
-0.253850,-0.765466,0.359079,0.562443,-0.175244,-0.808052
-0.203189,0.287038,0.354408,-0.428557,-0.903099,-0.027407
-0.125597,-0.224671,0.912492,0.980143,0.193082,-0.045162
0.211098,0.353698,0.603126,0.054114,0.250563,0.966587
0.345570,-0.514076,0.461065,0.218427,-0.084237,0.972211
0.146850,-0.241309,0.738771,0.866504,-0.419262,0.270908
-0.338748,0.963529,0.447835,0.717797,-0.182550,-0.671895
-0.512227,0.107157,0.622499,0.465886,0.825436,-0.318758
-0.283195,0.559751,0.546622,-0.560440,-0.501361,0.659199
0.680272,0.041596,0.329115,0.429349,0.572394,-0.698587
0.180907,-0.413311,-0.075710,-0.352986,0.717694,0.600263
-0.005134,-0.204616,-0.045058,-0.648198,0.757895,-0.073717
0.234586,0.597708,0.332219,0.834104,0.416111,0.362110
0.612522,-0.025617,-0.596023,0.368581,-0.929422,0.017954
-0.083087,-0.234201,0.893534,0.979738,-0.182239,0.083085
-0.283980,-0.343947,0.352376,-0.131465,0.631106,-0.764475
-0.215809,-0.052945,0.854883,-0.409605,-0.298524,-0.862037
0.688968,0.561899,0.273555,-0.222051,0.955721,0.193107
0.593743,0.007273,-0.982466,0.357951,-0.539395,-0.762184
-0.085684,0.133382,0.898302,-0.618806,0.620896,0.481214
0.632993,-0.271721,-0.250198,0.335537,0.645662,0.685956
0.246241,-0.453306,0.769375,0.123769,0.990255,0.063847
0.208802,-0.380751,0.776526,0.888339,0.229045,0.397985
-0.055553,-0.352818,0.332635,-0.390352,-0.750553,0.533193
0.556547,0.000498,0.881104,0.468611,-0.597272,0.650899
0.217257,0.456064,0.665661,-0.053289,-0.062233,0.996638
-0.391764,0.470829,0.276818,-0.466667,-0.852772,-0.234525
-0.375883,0.345326,0.184719,0.834175,0.286535,-0.471221
0.558782,-0.011736,0.345097,-0.545353,0.838106,-0.012956
-0.119437,-0.568124,0.350040,-0.329588,0.942186,-0.060477
0.063643,0.001157,0.219338,-0.488917,0.707317,0.510551
0.028680,0.685691,0.362423,0.225500,-0.061904,0.972274
0.843187,-0.265991,0.941208,0.057458,0.797423,0.600679
0.367248,-0.338493,0.507571,0.312578,0.883890,-0.347898
-0.084838,0.349236,0.457578,0.389223,0.493526,0.777777
-0.264116,0.131012,0.413472,0.646712,0.060439,0.760336
0.298170,0.491930,0.399362,-0.526898,0.626273,-0.574596
-0.058330,-0.304500,0.374709,-0.222848,0.854890,0.468510
-0.783467,0.152499,0.715479,-0.471540,-0.558985,0.682045
0.066663,-0.370724,0.146516,0.615438,-0.041564,-0.787089
0.164724,-0.383451,0.587208,-0.620559,-0.673471,-0.401676
0.592716,0.111454,0.367174,0.945609,-0.301715,0.121624
-0.301975,-0.711530,0.356823,-0.681319,0.407139,0.608311
0.092203,-0.528677,0.793484,0.414185,-0.877087,0.243246
-0.447619,0.722273,0.640337,-0.634796,-0.567074,-0.524844
0.118169,0.340036,0.424878,-0.352608,-0.822029,0.447141
0.143953,-0.192551,0.288129,-0.363323,0.739453,0.566750
0.643318,-0.158723,-0.261541,0.061921,0.163010,0.984679
-0.059719,-0.731585,0.662334,-0.020520,-0.967172,0.253293
-0.190388,0.742715,0.180063,-0.626098,-0.773622,0.097521
0.829418,0.147815,-0.992673,0.134851,-0.411295,-0.901472
0.538916,0.153050,0.813289,0.956763,-0.109076,-0.269640
-0.032729,-0.251612,0.782014,0.372699,0.665477,0.646711
-0.223176,0.933887,0.458522,0.520549,-0.252206,0.815733
-0.172394,0.397608,0.461337,0.734586,0.647808,0.201813
-0.495018,-0.189797,0.428734,0.984127,-0.160916,-0.074829
0.467484,-0.096467,-0.018645,0.617216,-0.784112,0.064902
0.106635,-0.743539,0.306254,0.836512,-0.050064,-0.545656
0.277157,-0.585972,0.305422,-0.357911,0.303423,0.883082
0.514763,-0.043028,-0.124263,-0.353927,0.649840,0.672639
0.027354,-0.787724,0.372869,-0.575361,0.480463,-0.661902
0.010203,-0.898297,0.468200,0.951216,0.298068,-0.079647
0.061168,-0.808441,0.306270,-0.805041,0.261469,0.532488
0.031218,-0.920830,0.302559,-0.713158,0.377160,-0.590894
-0.353481,-0.187978,0.270627,0.097113,0.990554,0.096809
0.457279,0.704424,0.112105,0.091883,0.591678,0.800921
-0.452630,-0.687621,0.202668,0.864280,-0.415737,0.283166
0.677254,0.469397,0.294064,-0.110028,0.761961,0.638208
-0.027777,0.659577,0.532943,-0.463198,0.726473,-0.507626
0.383068,0.284062,0.439084,0.093035,0.702930,0.705148
0.501599,-0.024130,0.380980,0.847205,0.153886,-0.508491
-0.174083,-0.635998,0.657198,0.111697,-0.816432,-0.566536
0.390494,-0.228363,-0.982322,0.266829,-0.017582,-0.963583
0.526538,-0.140434,-0.083181,0.390706,-0.894254,0.218310
0.580519,0.321854,0.176800,0.294677,0.758611,0.581098
0.469537,-0.127044,0.728533,-0.459622,0.847279,0.266206
-0.079645,-0.040604,0.063727,-0.252836,0.294142,0.921713
0.100295,-0.269185,0.735204,0.627937,-0.717860,0.300618
0.071190,-0.492037,0.479479,0.089197,0.871106,0.482926
-0.215989,-0.649607,0.659630,0.282023,0.734559,0.617160
-0.249503,0.763540,0.629202,0.694951,0.374574,0.613789
-0.375401,-0.466364,0.207548,0.568938,0.545668,-0.615270
-0.127528,0.436836,0.532799,0.602158,0.515522,-0.609625
0.062555,0.640131,0.512882,0.499033,-0.276605,0.821252
0.464585,-0.107816,0.632146,0.972283,0.137038,-0.189435
0.125898,-0.217727,0.275347,0.788616,0.354327,-0.502531
-0.150233,-0.615944,0.688826,-0.803398,0.491286,-0.336436
-0.261096,0.668229,0.446795,0.800718,0.519326,0.298581
0.581487,0.306430,0.310734,-0.400857,0.685923,0.607308
-0.203672,-0.409014,0.930745,0.206279,-0.891483,0.403370
0.328180,0.815492,0.087676,-0.465705,0.260156,0.845836
0.103859,0.206106,0.423806,0.353245,0.498539,0.791629
-0.452269,0.048647,0.268339,-0.254234,0.486226,0.836032
0.047157,0.583440,0.058528,0.355204,-0.678990,-0.642498
0.377452,-0.317449,0.669149,0.933104,-0.346834,0.094989
-0.257412,0.610765,0.402497,-0.508114,-0.612512,0.605516
-0.782743,-0.348685,0.618532,0.091384,-0.026513,0.995463
-0.057545,-0.536498,0.406065,-0.602126,-0.343548,-0.720707
0.624117,-0.084073,0.972964,-0.749318,0.453597,0.482465
-0.475212,0.496338,0.135558,0.926454,0.371080,-0.063112
-0.620735,0.077572,0.191534,-0.650372,0.625655,-0.430780
0.054888,-0.541788,0.490853,0.880539,-0.414950,-0.229058
-0.033514,0.481075,0.357207,-0.473231,0.429061,-0.769389
0.256144,-0.022422,0.332123,0.138878,0.985886,0.093500
0.370147,-0.167264,-0.230089,0.223818,0.770867,0.596381
0.375340,0.139771,0.895918,0.833272,0.441264,-0.333083
0.289534,0.605916,0.196669,0.268915,0.947716,-0.171811
0.559143,-0.073658,-0.462425,0.895834,-0.254336,-0.364410
0.015276,-0.359042,0.382532,-0.722532,0.401529,-0.562780
0.692469,-0.129579,0.910764,0.902010,0.323078,0.286355
-0.552202,0.268251,0.550141,0.951648,0.282817,-0.119922
-0.195883,0.289516,0.205532,0.052150,-0.651493,0.756860
-0.502929,-0.765853,0.163138,0.782349,0.612045,0.115461
-0.436810,-0.647071,0.142757,-0.191377,-0.376772,0.906321
-0.323714,0.319211,0.062111,-0.639857,0.238903,0.730417
-0.377997,0.109084,0.643440,0.411967,-0.805537,-0.425903
-0.198358,-0.140158,0.368726,-0.220392,0.295063,-0.929712
-0.182901,-0.016914,0.203100,0.247239,-0.945725,-0.210896
0.007426,0.028979,0.781358,0.887608,-0.394870,-0.237128
-0.300707,0.563164,0.484726,0.279317,0.808383,0.518169
-0.080128,-0.732190,0.301951,-0.003747,0.697613,0.716465
-0.031642,-0.305216,0.768175,0.304979,-0.395834,0.866200
-0.440493,0.889978,0.449307,-0.212096,-0.920599,0.327891
-0.143833,0.200870,0.924970,0.550103,-0.748542,0.370232
-0.473160,0.102365,0.499444,0.307051,0.711357,-0.632211
-0.078801,-0.667509,0.427470,0.818373,-0.532273,0.216681
-0.322083,0.275302,0.210939,-0.163819,0.959083,0.230918
-0.012197,0.445925,0.264228,-0.102235,0.812473,0.573964
-0.297023,0.423392,0.261396,-0.671281,0.668870,0.319366
0.101623,-0.678640,0.520449,0.592953,0.719776,0.361012
0.446108,0.467524,0.337642,0.882452,0.171598,0.437987
-0.500333,0.333425,0.232984,0.904189,0.401471,-0.145823
-0.812513,-0.170129,0.651007,0.081398,-0.995688,-0.044489
0.811123,0.519587,0.336746,0.612969,-0.267652,-0.743392
0.113942,-0.751034,0.530048,0.495594,0.293336,0.817521
0.137007,0.487410,0.755857,0.829779,-0.097220,0.549560
0.731356,0.131123,-0.979523,0.835418,0.173021,-0.521671
-0.500937,0.205168,0.565323,0.931585,0.163500,-0.324679
-0.000544,-0.245825,0.726581,-0.030534,-0.889720,0.455485
-0.093051,-0.307863,0.728757,0.665345,-0.746259,0.020339
0.685343,-0.047820,0.872673,0.814901,0.338388,-0.470563
0.306624,-0.372486,-0.978515,0.137043,-0.210068,-0.968034
-0.144979,0.465153,0.566027,0.852151,0.516864,-0.081794
0.431556,0.293319,0.411216,0.707570,0.413542,-0.572999
-0.453536,-0.169964,0.338186,0.604462,0.786654,0.125707
0.063945,-0.260039,0.719286,-0.030919,0.904204,0.425980
-0.129220,-0.255469,0.800587,-0.386261,-0.821801,-0.418863
0.872107,-0.084291,0.986178,-0.778802,-0.183602,0.599797
0.839442,0.575945,0.325276,-0.223038,0.393671,0.891783
-0.519473,0.218390,0.715495,0.543825,0.758873,-0.358282
-0.459575,0.197676,0.725045,0.237130,-0.830248,0.504438
-0.058754,-0.682110,0.455946,0.506726,0.694844,-0.510314
0.847893,-0.351772,-0.954886,-0.011080,0.224792,0.974344
0.351911,-0.173710,0.865826,-0.766110,-0.582526,-0.271549
0.227764,0.784253,0.700649,0.248072,-0.670937,0.698787
0.695066,-0.265880,-0.242151,-0.645088,-0.640999,-0.415911
0.564578,-0.016968,-0.497396,0.809455,-0.586484,0.028619
0.575992,-0.036306,-0.989921,-0.450184,0.394846,0.800894
0.440733,-0.095311,0.632194,-0.458420,-0.876305,0.148127
-0.358976,0.149745,0.343465,-0.547075,-0.689247,0.475023
0.793068,0.475126,0.321964,-0.764002,0.312391,0.564547
0.712094,0.167869,-0.993761,0.075006,0.519572,0.851128
-0.261217,0.892459,0.639297,0.951475,0.221226,-0.213904
-0.030011,0.153709,0.829879,0.763782,-0.560857,0.319494
0.693557,-0.271223,-0.970756,-0.263026,0.056979,0.963105
-0.077412,-0.589059,0.850420,-0.619841,0.288193,-0.729892
0.538796,0.122087,-0.994833,-0.270190,0.100271,0.957571
-0.178191,-0.792519,0.431933,0.859713,0.462105,-0.217607
-0.045589,0.538317,0.236728,-0.106352,0.706775,-0.699399
0.574844,-0.086937,0.795132,-0.535841,0.023439,-0.843994
-0.858765,0.138561,0.368966,0.027360,0.319945,0.947041
0.014370,0.533801,0.774047,0.613389,0.722130,0.319817
0.814141,-0.186656,0.911868,-0.055364,0.685145,0.726299
-0.435481,0.253980,0.347033,0.950114,0.005718,-0.311851
0.587464,-0.458102,-0.960597,0.157298,-0.283627,-0.945946
0.527323,-0.082475,0.773663,0.851226,0.443014,-0.281341
0.236097,0.390392,0.372037,-0.328895,0.538080,0.776078
-0.098122,-0.690705,0.634418,0.813775,0.574901,0.085195
-0.124932,0.134979,0.633042,-0.427032,0.529779,-0.732788
-0.039129,-0.732136,0.435757,0.938791,0.337432,0.069364
0.011773,0.427195,0.563467,-0.585881,0.809621,-0.035447
-0.498038,0.378491,0.752945,-0.191252,-0.019630,0.981345
0.661010,-0.044239,-0.521633,-0.601144,0.775750,0.191934
-0.339351,0.069637,0.329611,0.848893,0.495235,-0.184723
0.590846,-0.014325,-0.502468,-0.045238,-0.997621,-0.052027
0.346175,-0.572969,-0.045346,-0.007274,0.946922,0.321380
0.218405,0.195857,0.514258,0.755766,0.615317,-0.224061
-0.259586,-0.038731,0.509603,0.814298,0.258971,0.519473
0.145160,-0.250345,-0.071406,0.027552,-0.698320,0.715255
-0.045167,0.432317,0.895038,0.561425,0.694335,0.450223
0.382887,0.265880,0.959110,0.949853,-0.309991,0.041041
0.320330,-0.318660,0.724933,0.623095,0.663600,0.413990
-0.289295,-0.040052,0.872001,0.240471,0.870340,0.429747
-0.165750,-0.755550,0.451403,0.805421,-0.573723,0.148789
0.785942,0.258829,-1.000000,-0.126802,0.251160,0.959604
0.406073,0.012065,0.525184,0.572477,0.751852,-0.327092
-0.401547,-0.767064,0.140053,-0.391091,0.785912,-0.478947
0.519351,0.449453,0.413824,-0.190400,0.052847,0.980283
0.244671,-0.011571,0.478759,0.070004,0.690935,0.719519
-0.003140,-0.557599,0.846357,0.579882,-0.084400,0.810317
