0.048434,0.651674,0.116692,0.950193,-0.053407,0.307051
0.142941,0.501705,-0.949002,-0.204263,0.038840,0.978145
0.307567,0.435810,0.451286,-0.502550,0.119544,0.856243
-0.436889,0.148004,-0.966894,-0.288996,-0.153160,0.944999
0.026062,-0.164607,0.828065,-0.157058,0.299605,0.941047
-0.059055,-0.073315,0.770455,0.583731,0.794045,0.169560
-0.007130,-0.168728,-0.369690,0.990641,-0.125090,-0.054609
-0.167970,-0.487304,0.671472,0.967670,-0.251820,-0.014176
-0.213846,0.255347,0.619718,-0.797437,-0.140199,0.586889
0.236563,-0.406295,0.135858,-0.563645,0.096945,-0.820309
0.452919,0.182384,0.792900,-0.747026,-0.003768,-0.664784
0.018390,-0.178382,0.208081,0.602109,-0.603752,0.522445
-0.759945,-0.196281,-0.977303,-0.233929,0.075037,0.969354
-0.612284,0.402723,-0.990571,-0.185920,0.018123,0.982398
0.130845,-0.491779,0.431882,0.052309,0.712112,0.700115
0.103359,-0.077986,0.568595,-0.129352,-0.987425,-0.090883
0.320648,-0.147535,0.896114,-0.643751,0.463737,0.608714
0.062645,0.216492,0.409437,-0.061628,-0.062345,0.996150
0.630920,0.333136,0.260886,0.474543,0.104869,-0.873963
0.668241,-0.178698,0.450544,0.378957,0.249819,-0.891057
0.097998,-0.144315,0.608804,0.804389,-0.345684,0.483179
0.018833,-0.004868,0.512932,-0.058214,0.666598,0.743141
0.264297,-0.370267,0.148369,0.009456,-0.344438,0.938762
0.679944,-0.865104,0.458446,0.066582,0.227785,0.971432
0.278065,0.217629,0.332941,-0.378612,0.205390,-0.902479
-0.690072,-0.328036,-0.967258,0.230873,-0.112452,-0.966464
-0.254610,0.699086,-0.985261,-0.176700,0.079675,0.981035
0.243841,-0.466659,0.143186,0.102083,-0.031593,0.994274
0.289128,-0.104674,0.841599,0.846517,-0.088682,-0.524923
0.415892,-0.180229,0.476561,0.198131,0.123756,0.972331
0.113341,0.243376,0.102345,0.037200,0.051545,0.997978
0.043468,-0.073552,-0.118779,0.993555,-0.011930,-0.112725
-0.131091,0.846893,-0.986256,-0.155446,0.130922,0.979130
0.109259,-0.007692,0.848885,0.764131,-0.643878,-0.039045
-0.977725,-0.018014,-0.993948,-0.109748,0.108849,0.987981
0.166298,0.187566,0.202659,-0.596292,0.260874,0.759198
0.234449,0.053966,0.734575,0.168702,-0.953836,0.248470
0.175641,0.250323,0.455321,-0.183501,-0.936901,-0.297562
-0.147170,0.276422,0.735934,0.452079,-0.190471,0.871405
-0.402910,0.107815,0.635354,-0.090640,-0.254754,0.962749
0.678813,-0.126339,0.474823,-0.227654,-0.528769,0.817665
-0.267886,-0.178343,0.292003,-0.258862,-0.205159,-0.943875
0.401141,0.252247,0.793558,-0.661286,-0.689610,0.295194
-0.424006,0.298952,-0.971839,-0.169552,0.232041,0.957815
-0.245021,0.447426,-0.973016,-0.073685,0.109819,0.991217
0.633673,-0.167942,0.453304,-0.333922,-0.251193,0.908514
0.355019,0.485066,0.089400,-0.460403,0.485338,0.743287
0.727984,0.539739,0.227219,0.542100,0.224038,-0.809898
-0.076609,-0.182504,-0.551740,0.972372,-0.232724,-0.018247
0.285538,0.083285,0.537632,0.335440,-0.387138,-0.858839
-0.009294,-0.259469,0.623389,-0.226444,0.270271,0.935776
-0.561785,-0.039837,-0.971671,0.228602,-0.067017,-0.971211
-0.128485,0.037442,0.712018,0.154077,0.567317,-0.808957
-0.821459,-0.406295,-0.974571,0.303200,-0.246340,-0.920536
-0.395289,-0.022489,0.400933,0.478122,0.196525,0.856024
0.088066,-0.186900,0.837649,-0.484479,0.819473,-0.306177
-0.381521,0.411907,-0.976309,0.226855,-0.108074,-0.967914
-0.062792,0.240197,0.686828,0.060969,-0.443649,0.894124
0.250381,0.270496,0.457927,0.792283,-0.509758,0.335312
-0.098835,-0.383413,0.159844,-0.318497,0.544497,0.775940
0.097359,0.419130,0.449759,0.126546,0.186813,0.974211
0.231008,0.218219,0.774042,-0.575712,-0.267298,-0.772727
-0.753406,-0.075710,0.310791,0.293600,-0.041076,0.955045
-0.082805,-0.204835,0.676642,0.803341,-0.102320,-0.586663
0.436495,0.375014,0.442586,0.088076,-0.549649,0.830740
0.247284,0.326896,0.827575,0.888405,-0.444576,0.114408
-0.577764,-0.175399,0.198554,-0.370339,0.793097,0.483575
0.087034,-0.097021,0.493065,-0.016331,0.900754,0.434022
-0.165462,-0.350602,-0.870222,-0.071881,-0.995426,0.062929
0.329991,0.244869,0.435314,0.241105,0.101573,0.965169
0.043862,0.158168,0.398761,0.186059,0.434724,-0.881134
0.090180,-0.248913,0.155627,-0.148992,0.144328,0.978249
0.399567,0.195768,0.421823,0.110187,0.011542,-0.993844
-0.083739,-0.313357,0.149896,-0.719523,0.138017,0.680615
0.397601,-0.762196,0.447447,-0.448837,0.261670,0.854444
0.350396,-0.428235,0.116762,0.601489,0.093109,0.793437
0.276098,-0.098671,0.709790,0.968527,0.143151,-0.203627
0.223484,0.227128,0.252886,-0.322636,0.324728,0.889077
0.009294,-0.139526,0.167577,0.968252,-0.059464,-0.242800
-0.441413,0.011932,0.608090,-0.205002,0.778836,-0.592781
-0.134976,0.415755,0.334132,0.166304,0.140403,0.976028
-0.081084,-0.168728,0.651606,0.796782,-0.082840,0.598561
-0.257953,0.011498,0.446747,-0.587420,0.188193,-0.787097
0.097458,-0.336631,0.141560,0.469645,0.255357,0.845119
0.178051,-0.017231,0.693819,0.447411,0.522005,-0.726177
-0.022667,0.552807,-0.961107,-0.169891,0.200323,0.964887
-0.401977,0.446642,-0.978116,0.204696,-0.066274,-0.976579
-0.464720,-0.176341,0.223156,0.127766,-0.571088,-0.810885
-0.020259,0.304251,0.732809,-0.404963,0.435960,-0.803706
-0.554310,0.097179,0.315876,-0.682489,0.647552,-0.338948
0.115258,0.136230,0.464988,-0.416114,-0.380030,0.826091
0.356345,-0.768869,0.444617,0.754419,0.655516,0.033924
-0.068446,0.208486,0.423448,0.632852,-0.742245,-0.220388
0.090574,0.468894,-0.954256,0.227258,-0.067390,-0.971500
-0.012784,-0.036855,0.748725,0.536291,0.645125,0.544247
0.304027,0.057262,0.137357,-0.007720,0.051526,0.998642
-0.214977,-0.421289,-0.931027,0.456596,0.193716,-0.868328
-0.383145,0.103064,0.602598,0.923410,-0.358705,0.136547
0.357969,-0.069705,0.619970,-0.533879,-0.435039,0.725062
0.271427,0.237608,0.429556,-0.439309,0.316108,0.840882
0.646310,-0.824325,0.583235,-0.481506,0.488007,0.728012
0.469981,-0.117706,0.627942,0.037412,0.994299,0.099848
-0.526774,0.335963,-0.982907,-0.178046,0.304979,0.935568
0.381964,-0.475451,0.419174,-0.578905,-0.171029,-0.797257
0.930767,0.404175,0.223871,0.051510,0.827481,0.559127
-0.565423,0.057969,0.236634,-0.027643,-0.299515,0.953691
-0.637263,0.373405,-0.990683,-0.137301,0.150656,0.979005
0.103212,0.366889,0.435945,-0.354733,-0.818298,0.452275
0.131190,0.495151,0.307905,0.736380,-0.080479,-0.671765
0.691007,0.432356,0.239058,0.965183,-0.106073,-0.239103
-0.791414,0.054946,-0.987489,-0.202261,0.109093,0.973237
0.476423,-0.481612,0.417746,0.378741,-0.495819,-0.781485
-0.325613,0.227403,-0.954915,0.341611,-0.497856,-0.797146
0.269705,-0.578829,0.136867,0.287851,-0.521265,0.803383
0.379948,-0.304800,0.403455,0.325465,-0.252846,-0.911121
0.375817,0.151221,0.805145,0.082161,0.482800,0.871868
-0.698136,-0.142863,0.327071,0.638388,0.380744,0.668951
0.013817,0.127515,0.703556,-0.204436,0.751354,-0.627433
-0.073314,-0.171868,-0.504259,0.832619,-0.546483,-0.090010
-0.293063,0.408101,-0.973212,0.123124,0.008508,-0.992355
-0.965089,-0.245341,-0.985808,0.267155,-0.008203,-0.963619
-0.082017,0.045958,0.743373,-0.755069,0.495584,0.429264
-0.361952,0.045999,0.321817,0.856075,0.018679,0.516514
-0.177017,-0.352094,0.480007,0.264642,0.484558,0.833768
0.234548,-0.039327,0.452323,-0.224760,-0.622801,0.749401
0.331219,-0.709408,0.440624,-0.026345,0.348455,0.936955
0.005508,0.011735,0.694323,-0.357857,-0.889240,0.284941
-0.857747,-0.445191,-0.972512,-0.237765,0.161323,0.957832
0.207455,-0.362651,0.524028,-0.612627,0.317424,0.723830
-0.529478,-0.142274,0.301418,0.242183,0.004652,-0.970220
-0.162560,0.651360,0.150905,-0.495361,0.393790,-0.774304
0.557212,-0.182308,0.456988,-0.543222,-0.747232,0.382823
-0.022816,0.223125,0.447293,0.804625,-0.258881,-0.534377
-0.135270,0.797989,0.176642,-0.473724,0.391178,-0.789028
0.301077,-0.329684,0.274868,0.422362,-0.447642,-0.788179
-0.033289,0.327131,0.094135,0.369637,0.628237,0.684607
-0.195359,0.001413,0.724529,-0.430647,-0.901304,-0.046848
-0.036731,-0.481967,0.618569,-0.499403,0.480242,-0.721085
0.373851,0.378469,0.354923,0.033362,-0.128642,0.991130
0.562030,-0.119668,0.470046,0.259662,0.465208,-0.846261
-0.530413,0.430904,-0.987965,-0.033231,0.062982,0.997461
-0.442298,0.292515,0.654380,-0.588709,-0.026934,-0.807896
0.057137,0.509635,0.452589,-0.065948,-0.845582,0.529756
-0.247726,0.534009,-0.971769,-0.224265,0.101438,0.969235
-0.295667,0.152007,0.470830,0.143921,-0.194762,0.970234
0.391012,0.131441,0.532056,0.999826,0.016706,0.008357
0.331416,-0.726912,0.439924,-0.030518,-0.174710,0.984147
-0.582142,-0.255229,0.316703,-0.165747,0.212169,0.963074
-0.354773,0.073904,0.285754,-0.562612,0.012274,0.826630
-0.021931,0.118254,-0.938509,-0.083358,0.040330,0.995703
0.146876,0.108284,0.779183,0.419570,0.901035,-0.109989
-0.946502,0.049256,-0.993457,0.113866,-0.028828,-0.993078
0.333777,0.459985,0.448792,0.788303,0.294055,-0.540472
0.281310,-0.274226,1.000000,0.831378,0.477121,0.284897
-0.658946,0.008399,0.495138,-0.576886,0.279468,-0.767528
0.468309,-0.903255,0.454341,-0.006897,0.286005,0.958203
0.397798,0.480316,0.431910,-0.210439,-0.229385,-0.950315
-0.210503,0.020604,0.732599,0.396441,0.905565,0.150953
-0.224664,0.085012,0.603662,-0.052723,0.042828,0.997690
-0.127355,0.083795,-0.950151,-0.318901,-0.056076,0.946128
0.386291,-0.641117,0.427973,-0.223919,-0.203556,0.953113
-0.173477,0.123553,0.232922,0.271127,0.295202,0.916158
-0.168855,-0.274226,-0.676082,0.960915,0.253677,0.110862
0.773616,-0.233368,0.468617,0.471642,0.014475,-0.881671
0.096869,0.321793,0.415910,0.552582,-0.199414,-0.809251
0.745243,-0.312729,0.642149,-0.144193,0.587206,0.796491
0.025962,0.148828,0.672971,-0.422317,-0.815358,0.396029
0.279147,0.261549,0.428674,0.643359,0.232674,-0.729350
-0.553081,0.311667,0.329074,0.430897,0.539464,-0.723400
0.038895,0.298087,0.390453,0.447749,-0.052170,-0.892636
-0.008655,-0.063189,0.252116,-0.032774,0.995295,0.091179
-0.079264,-0.143374,0.228480,0.059892,-0.451976,0.890017
-0.251463,-0.058323,0.776480,0.823761,-0.232595,0.517027
-0.090181,-0.377055,-0.897697,0.673507,-0.697485,0.244753
0.554900,-0.200677,0.603284,0.381307,0.411758,0.827684
0.327285,0.044820,0.542353,-0.500029,-0.085921,0.861736
0.579092,0.119667,0.474487,0.387560,-0.075401,-0.918755
-0.030731,-0.459554,0.717552,-0.349279,0.936193,-0.039335
0.103359,-0.354370,0.481927,0.338483,-0.897627,-0.282304
-0.814870,-0.483694,-0.965703,-0.168307,0.123782,0.977932
-0.248414,0.224890,0.625378,-0.500507,0.858892,0.108615
0.267248,-0.289533,0.408667,-0.703064,-0.115542,-0.701677
0.189163,0.454413,0.444715,-0.122017,0.248972,0.960794
0.187245,-0.013463,0.303337,0.920142,0.380975,0.090536
-0.103506,0.470701,0.337004,-0.135730,-0.421996,0.896380
-0.078134,-0.020724,0.749496,-0.102304,-0.980824,-0.165887
-0.442199,-0.290082,0.325263,-0.121812,0.378468,0.917564
0.221223,0.298559,0.832073,0.910674,-0.410668,-0.044988
-0.266362,0.304524,-0.962494,0.256375,-0.349836,-0.901048
0.048138,0.410691,0.392835,-0.059290,0.627960,0.775984
-0.159167,-0.211861,-0.605582,0.977823,-0.188955,-0.090322
0.223534,0.004748,0.773635,0.992332,0.100408,0.072073
0.173624,-0.072766,0.798476,-0.562596,0.726945,0.393747
-0.214043,0.377565,0.355778,-0.559094,0.203113,-0.803840
0.714167,0.022527,0.481674,0.351220,0.056014,-0.934616
0.001327,0.582008,-0.958375,0.196520,-0.137799,-0.970768
0.123223,-0.400840,0.153483,0.533741,0.492580,0.687376
0.297144,0.497192,0.334202,-0.009356,0.336723,0.941557
0.146187,0.486401,0.303926,0.736380,-0.080479,-0.671765
0.423662,0.131952,0.740893,-0.106323,0.199679,0.974076
-0.712986,0.066447,-0.982319,-0.215749,0.107639,0.970498
0.443330,0.104557,0.733146,0.180466,0.182776,-0.966450
0.277377,-0.129597,0.895203,0.024457,0.501267,0.864947
-0.241038,0.053259,0.464960,-0.695823,0.270885,-0.665171
0.433889,-0.812434,0.459636,0.646995,0.503808,0.572341
-0.467277,-0.304407,0.352219,0.927185,0.277576,0.251554
-0.392241,0.485536,-0.980344,0.142787,-0.129910,-0.981191
0.693416,0.531810,0.259905,0.902983,-0.372318,-0.214478
-0.263706,0.185132,0.616482,-0.393948,-0.140986,0.908255
-0.469195,0.353232,-0.980133,0.212450,-0.212208,-0.953851
0.102031,0.082381,0.637665,0.831432,-0.010289,0.555532
-0.596204,-0.209468,-0.965100,0.240845,-0.054698,-0.969021
0.395191,-0.546176,0.136909,0.307482,-0.280897,0.909149
-0.218517,-0.316260,0.104293,0.327069,-0.761458,-0.559649
0.160152,0.122571,0.472638,-0.012243,0.066900,0.997685
-0.214388,0.317987,0.114016,0.196215,0.478629,0.855812
0.423908,-0.046667,0.372534,0.212231,0.866070,0.452638
0.394552,0.117234,0.770091,0.123899,-0.710901,0.692292
0.308798,-0.291850,0.157602,0.128678,-0.281337,0.950942
0.319860,-0.171279,0.875014,0.524954,-0.637076,0.564410
-0.314648,-0.024216,0.344780,0.671199,-0.563304,-0.481851
0.000837,-0.173516,-0.222596,0.955779,0.111868,-0.271977
-0.053598,-0.125712,-0.357347,0.859221,-0.458507,-0.226958
0.145155,0.375838,0.446691,-0.241847,-0.844659,0.477557
-0.104735,-0.460105,0.753391,0.964868,0.122963,0.232185
0.322024,0.068253,0.137819,-0.080744,-0.006776,0.996712
0.777942,0.435338,0.293712,0.737306,0.345694,-0.580410
-0.172248,0.179991,0.472974,0.254577,-0.917330,-0.306098
-0.724099,0.061541,-0.983314,-0.209753,0.116459,0.970794
-0.741113,0.244711,-0.993079,-0.236668,0.076752,0.968554
-0.471506,-0.382865,0.093687,-0.535954,0.671704,0.511437
0.370458,-0.838102,0.478788,0.347923,0.919694,0.181967
0.171658,0.148083,0.333305,0.045457,-0.070416,-0.996481
0.208388,0.367243,0.103872,0.285321,-0.638609,-0.714682
-0.626199,-0.131010,-0.972568,-0.238758,0.102745,0.965628
-0.257510,0.020251,0.737489,-0.313998,0.829173,0.462468
-0.249692,0.034811,0.600888,0.073231,-0.286820,0.955181
-0.021488,-0.442915,0.632454,0.190649,-0.701343,0.686856
-0.345184,-0.200243,0.230372,-0.250765,0.759773,0.599884
-0.255052,0.209310,-0.943805,0.518137,-0.502555,-0.692079
-0.515613,-0.015542,0.421710,-0.506063,-0.171599,-0.845254
-0.836800,-0.311512,-0.977289,-0.033200,0.198708,0.979496
-0.438266,-0.173281,0.421402,-0.225259,0.221613,0.948760
-0.231056,0.167980,0.351323,0.520153,-0.334694,0.785762
-0.122584,-0.615801,0.086163,-0.632579,-0.223351,0.741592
-0.466096,0.493858,-0.985583,0.232406,0.034104,-0.972021
0.590303,-0.539308,0.410880,0.328411,0.051020,-0.943156
-0.767174,-0.285686,-0.975328,-0.213440,0.137292,0.967261
0.512367,-0.444209,0.112559,0.117515,-0.258593,0.958812
-0.478832,0.061933,-0.968757,-0.122545,0.167146,0.978287
-0.077592,-0.479964,0.754890,-0.049546,0.994482,0.092470
-0.092245,-0.336080,-0.855638,-0.432093,-0.896871,0.094438
0.699660,-0.834923,0.588307,0.418532,-0.502000,-0.756853
-0.111866,0.294712,0.409101,-0.443515,-0.509411,-0.737425
-0.500860,0.112838,-0.973871,-0.276645,0.016776,0.960826
0.478930,-0.859532,0.450137,0.256892,-0.196557,-0.946241
0.207552,0.407943,0.331750,0.573271,-0.057452,-0.817349
-0.090033,0.556182,0.135129,-0.420753,0.080126,-0.903630
-0.132566,0.211703,0.363343,0.561471,-0.805769,-0.188378
-0.082706,-0.143295,0.397136,-0.548010,0.662981,0.510039
0.133944,-0.027709,0.167423,-0.193916,-0.938938,0.284240
-0.348184,0.207190,-0.953892,0.381833,-0.340139,-0.859365
0.148941,0.258880,0.795141,0.541435,0.346243,-0.766135
0.393273,0.342989,0.435665,-0.138834,-0.522846,0.841046
0.144662,0.113504,0.641392,-0.528749,-0.594794,-0.605512
-0.010573,-0.121237,0.359673,0.482715,0.750567,-0.451260
-0.395388,-0.157150,0.706764,0.452037,0.113536,0.884744
0.326646,0.238432,0.792185,0.088090,-0.899825,0.427265
0.201849,-0.716120,0.447475,0.217641,-0.327133,-0.919574
0.222501,-0.147456,0.891855,0.071845,0.078606,0.994314
-0.039435,0.772166,0.154170,0.442661,-0.328496,0.834351
0.209913,-0.420661,0.602093,-0.300631,0.290727,0.908349
0.367262,-0.071001,0.619620,-0.533879,-0.435039,0.725062
0.199685,0.125671,0.391714,-0.232143,-0.504810,0.831431
0.271820,0.285017,0.813789,0.266051,-0.649975,0.711863
-0.177066,-0.299894,-0.799078,0.974709,-0.195284,0.108657
0.440724,-0.263983,0.587859,0.715432,0.043419,-0.697332
0.332105,-0.067271,0.782476,-0.129614,-0.612188,0.780017
0.166741,0.492758,0.315358,0.726241,-0.157385,-0.669182
-0.066627,-0.192630,0.332633,0.273579,-0.143471,-0.951089
-0.414319,-0.013384,0.299512,0.394246,0.298151,0.869296
0.300585,0.148121,0.419721,0.119931,-0.812383,0.570657
-0.316173,-0.081716,0.479755,0.017158,0.116169,0.993081
-0.918474,-0.003768,-0.991888,0.198502,-0.104047,-0.974562
0.180606,0.233212,0.799793,-0.515595,-0.520143,0.680892
0.620151,-0.201697,0.603606,-0.506645,-0.821934,-0.260261
-0.261149,0.063110,0.602051,0.081256,-0.127305,0.988530
-0.138320,0.452059,-0.965535,0.157729,-0.036563,-0.986805
0.656046,0.048943,0.492757,-0.322067,0.068923,0.944205
0.263117,0.310216,0.818328,0.721351,-0.576628,0.383606
-0.071642,-0.033715,0.638282,-0.141226,0.985376,0.095338
0.035109,0.485026,0.351211,0.087246,-0.233849,0.968351
0.217977,-0.397503,0.435525,0.478106,0.213481,0.851963
0.358313,0.252247,0.806420,0.063139,-0.527742,0.847055
0.677435,-0.289454,0.642303,0.301657,0.379451,0.874654
-0.445936,-0.396093,0.351253,0.904806,0.424339,0.035526
-0.057235,-0.425567,0.632173,0.440956,-0.442825,0.780681
-0.475685,0.276305,-0.973913,-0.262640,0.089730,0.960713
-0.254463,0.030691,0.234869,-0.268599,-0.378421,0.885806
0.119880,0.123081,0.684376,0.934946,0.236381,-0.264577
-0.182475,-0.284979,-0.837046,0.446118,-0.733935,0.512170
0.499927,-0.809845,0.451748,0.071270,-0.019999,-0.997257
0.150269,-0.083285,0.672523,-0.414996,-0.817770,0.398785
0.068251,-0.363868,0.712032,-0.528532,-0.027787,0.848458
-0.293357,-0.318734,0.425241,-0.161850,-0.799241,-0.578807
0.152973,0.207072,0.414985,0.589191,0.459021,-0.664946
-0.240596,0.688057,-0.981366,-0.177925,0.064599,0.981921
0.473080,-0.799757,0.446228,-0.074927,-0.040185,0.996379
0.174509,0.217709,0.466221,-0.554503,-0.063730,-0.829738
0.520727,0.383806,0.123823,-0.140440,0.732490,0.666135
0.422284,-0.123081,0.367743,0.423980,0.885916,0.188132
-0.014653,0.133090,-0.944925,-0.167093,0.179617,0.969442
0.303437,-0.291809,0.398551,0.013375,0.100173,0.994880
-0.249988,-0.150438,0.686533,-0.650926,0.578870,-0.491126
0.082019,-0.403902,0.726617,-0.578519,0.224759,-0.784091
-0.262231,0.338945,0.359687,-0.426931,0.268911,-0.863375
0.178887,0.213351,0.191689,-0.558995,0.812618,0.164853
0.681467,-0.258449,0.640355,-0.078500,-0.653653,0.752712
-0.320549,-0.337807,0.426908,0.892139,0.174291,-0.416787
-0.128435,-0.146591,0.326104,0.171739,-0.104917,-0.979540
0.479766,0.476313,0.472386,-0.244721,-0.506066,0.827048
-0.406009,-0.195771,0.403161,-0.530233,0.319726,0.785256
-0.494370,0.392125,-0.985289,-0.229025,0.101786,0.968084
-0.228598,-0.034893,0.767261,-0.693147,0.445534,-0.566610
-0.400649,-0.194906,0.193609,0.748087,0.457639,0.480554
-0.168903,0.764236,-0.983804,-0.114170,0.148313,0.982328
0.416581,-0.051808,0.447896,-0.092989,-0.950853,-0.295351
0.105227,-0.428001,0.070486,0.314076,-0.126636,0.940914
-0.521710,-0.282744,0.324675,-0.060851,0.505671,0.860577
0.303930,-0.557598,0.445724,-0.280327,0.276469,0.919229
0.123323,0.046116,0.659914,0.851274,0.361426,0.380400
-0.001033,-0.427843,0.729643,0.785596,0.334742,0.520372
0.218519,0.057890,0.779562,0.728890,-0.118945,0.674219
0.389783,-0.496685,0.418796,-0.369440,-0.315898,-0.873912
0.279688,-0.329057,0.143676,-0.005534,-0.575450,0.817818
-0.371195,-0.079320,0.094415,-0.179492,-0.634037,0.752183
-0.268723,0.447898,-0.973016,-0.156164,0.127204,0.979506
0.392291,0.320655,0.430593,-0.371213,-0.560260,0.740479
-0.872253,0.132931,-0.992939,0.130161,-0.064364,-0.989401
-0.157250,-0.215198,-0.594528,0.991212,-0.046264,-0.123929
0.047501,-0.350484,0.281565,-0.137498,-0.228629,0.963755
0.553474,-0.467404,0.110639,0.042377,-0.223364,0.973814
0.113242,0.087680,0.331050,0.149098,-0.088156,0.984885
0.202488,-0.049257,0.809362,0.791955,-0.610095,0.024316
-0.154595,-0.021941,0.766224,0.163470,-0.749499,0.641506
0.070463,-0.001845,0.736438,0.947343,0.161872,0.276293
-0.181295,0.040700,0.353116,0.943977,-0.302265,-0.132449
-0.266460,0.225441,0.373291,0.012490,0.534125,0.845313
0.161528,-0.333452,0.505254,-0.672700,0.486923,0.557118
-0.094163,-0.205149,-0.643606,0.952734,-0.296546,0.066015
-0.774549,0.162329,-0.994900,-0.151852,0.069882,0.985930
-0.095983,0.747636,-0.978256,-0.237684,0.243346,0.940366
0.729360,0.553003,0.227373,0.741632,0.164386,-0.650353
0.068495,0.367595,0.392779,0.300228,-0.730669,-0.613176
-0.053991,0.799168,-0.980358,0.204758,-0.182669,-0.961616
0.312830,-0.121905,0.555313,-0.617815,-0.410715,-0.670535
-0.053203,-0.224890,-0.466936,0.889761,0.445481,-0.099354
0.078233,0.107815,0.390650,0.363033,0.537582,-0.761060
0.150072,0.208445,0.250645,0.219750,0.846064,0.485681
0.330285,-0.185252,0.600706,0.476267,0.166765,-0.863342
-0.070758,-0.363161,0.645371,-0.336395,-0.064872,-0.939484
-0.101048,0.163429,0.685034,0.727409,0.197044,0.657305
-0.213896,0.195809,0.251429,0.185558,-0.303146,-0.934704
-0.166003,0.049256,0.120264,-0.321250,0.531663,0.783667
-0.444313,-0.071314,0.469976,0.501959,0.754218,0.423310
0.590746,-0.209782,0.626471,-0.128614,0.753378,0.644888
0.217338,0.074100,0.834454,0.052453,0.516501,0.854679
-0.271623,-0.021469,0.220887,0.173419,0.234411,-0.956544
0.193441,0.151535,0.748991,0.488239,-0.688688,0.536032
0.470817,-0.736410,0.442095,0.088923,0.551754,0.829253
0.398289,-0.812199,0.462382,-0.323774,0.751419,0.574926
-0.507499,-0.093569,0.311057,0.225814,0.272415,0.935306
0.695973,-0.504063,0.411455,-0.307609,-0.595084,0.742463
-0.299652,-0.145767,0.221867,-0.244088,0.043530,0.968776
0.312681,-0.053259,0.772080,-0.247041,0.311378,0.917613
-0.012441,-0.389891,0.716936,-0.406529,0.811823,0.419139
0.539067,-0.033949,0.806378,-0.665503,-0.111555,0.738012
0.117127,0.172886,0.401606,0.147452,0.290558,-0.945428
-0.117618,0.429687,-0.966417,0.219441,-0.138991,-0.965674
-0.149580,-0.052867,0.522753,-0.653874,0.637301,-0.407793
-0.204849,-0.039799,0.768830,-0.496982,0.749792,-0.436831
-0.073659,0.587228,0.131543,-0.370827,0.032345,-0.928138
-0.332350,0.323365,-0.970060,-0.070937,0.155307,0.985316
0.107686,-0.000745,0.500925,-0.038529,-0.976228,0.213293
0.391848,-0.840574,0.469962,0.059140,0.985307,0.160230
-0.018980,0.437968,0.347120,-0.137888,-0.282985,0.949161
0.216649,0.462457,0.375757,-0.722071,0.415333,-0.553274
0.372327,0.075003,0.730442,-0.267344,0.947346,-0.176244
0.446773,-0.890420,0.451623,-0.145281,0.302019,0.942167
-0.073709,-0.036738,0.575586,-0.731019,0.070953,-0.678658
0.200767,0.253737,0.463951,-0.566800,0.006238,-0.823832
0.012736,-0.225245,0.440176,0.215194,0.904131,0.369104
0.072970,0.518505,-0.956386,-0.197811,0.018298,0.980069
0.002802,0.300090,0.098731,-0.474308,-0.476881,-0.740011
0.649949,-0.272422,0.645245,-0.077215,0.235161,0.968884
0.322369,-0.248989,0.666961,0.786567,0.540947,0.297805
0.153858,-0.101182,0.367028,0.452368,-0.865045,0.216932
-0.068249,-0.206014,0.604629,0.161406,0.400750,0.901858
-0.262970,-0.070842,0.788318,0.694375,-0.194886,0.692721
0.240351,-0.295853,0.531033,0.769143,0.338114,-0.542308
-0.087919,0.285293,0.112321,-0.450120,-0.292870,-0.843575
-0.023602,-0.400999,0.098240,-0.508019,-0.105378,-0.854876
-0.126716,0.488204,-0.964204,-0.205733,0.012168,0.978533
-0.502532,0.256722,0.372114,-0.395097,-0.655887,-0.643204
0.365590,-0.136582,0.588545,-0.296677,0.050526,-0.953640
-0.177509,0.257663,0.346769,0.147038,0.273220,0.950648
0.205980,-0.348836,0.430509,-0.516355,0.177202,-0.837841
-0.062055,-0.117275,0.312766,0.012255,0.037189,0.999233
0.214487,-0.072177,0.889683,0.807503,0.134866,0.574239
0.161774,-0.521921,0.449002,0.142170,0.632052,0.761773
-0.327039,0.215785,0.371133,0.650658,0.265374,-0.711492
0.185230,0.027984,0.789635,-0.515634,0.141548,-0.845036
-0.800906,-0.288434,-0.977696,-0.162059,0.140275,0.976760
0.151841,-0.075827,0.382496,0.733586,-0.641844,0.223357
-0.708561,-0.168531,0.308339,-0.299529,0.455035,0.838585
-0.058317,-0.162566,-0.504736,0.832619,-0.546483,-0.090010
-0.651718,-0.027513,0.325866,0.047793,-0.342399,0.938338
-0.670109,-0.045529,-0.978704,0.217003,-0.094964,-0.971541
0.200324,0.214726,0.799849,-0.096124,-0.349065,0.932156
-0.585681,-0.118844,0.467076,-0.634586,0.771408,0.047223
0.533806,0.018879,0.477065,-0.592827,0.262234,0.761439
0.024586,0.041524,0.250729,0.072558,0.006023,0.997346
0.227320,-0.114920,0.591361,0.567993,0.820621,-0.062972
-0.246988,-0.262021,0.467104,0.236948,0.203956,0.949872
-0.184049,-0.263786,-0.679752,0.971154,0.181766,0.154338
0.566309,0.254836,0.204789,-0.336867,-0.005001,0.941539
-0.313370,0.198554,0.365487,-0.505890,0.301613,0.808149
0.306731,0.013463,0.759051,-0.079225,0.890576,0.447881
0.721198,0.335218,0.238736,-0.625863,0.438378,0.645074
0.061662,0.101965,0.662926,0.867345,0.459838,0.190424
-0.203717,0.687664,-0.983874,-0.169163,0.028441,0.985178
0.191916,-0.116017,0.338657,-0.869822,0.372587,-0.323402
-0.809214,0.027040,-0.986396,0.105610,-0.102429,-0.989118
-0.193834,0.692295,-0.979755,0.161889,-0.033726,-0.986232
0.450608,-0.715728,0.446593,0.202207,0.231513,0.951585
0.131042,0.097689,0.776213,0.387314,0.909178,0.152915
0.155627,0.175478,0.467482,0.279026,-0.075125,0.957340
-0.175788,-0.301700,-0.734925,0.964523,0.254849,-0.068906
0.141613,0.458337,0.093351,-0.693247,-0.454670,-0.559182
-0.146334,-0.372307,0.648243,0.820898,0.359635,0.443608
-0.058071,-0.118372,0.505324,0.318338,0.018844,-0.947790
0.211388,-0.505515,0.630310,0.539134,0.316036,0.780677
-0.485716,0.058400,0.485766,-0.432447,-0.900929,0.036289
-0.092835,-0.095334,0.275205,-0.663958,-0.590001,-0.459410
0.301077,-0.200205,0.972414,0.688079,0.514978,0.511219
-0.629395,-0.145022,0.321957,-0.441516,-0.148137,-0.884940
-0.284359,0.283096,0.649630,0.144744,0.014758,0.989359
-0.349659,-0.120688,0.173168,0.349224,-0.063888,0.934859
0.338103,-0.364144,0.409493,-0.063481,0.438831,0.896324
-0.489109,-0.378783,0.077169,-0.376580,0.742994,0.553306
0.063579,-0.031321,0.506837,-0.393667,0.159516,-0.905307
-0.335103,-0.043488,0.715717,0.956187,0.257717,-0.138883
0.445002,-0.891754,0.456162,-0.145281,0.302019,0.942167
-0.292227,-0.086777,0.086780,-0.174827,-0.154280,0.972437
-0.312927,0.289140,0.363259,0.803398,-0.244192,0.543067
0.504106,0.078220,0.739072,-0.334903,0.011860,0.942178
0.211781,-0.083953,0.708712,0.899221,0.431954,-0.069406
0.464523,0.139605,0.771618,-0.521201,0.639957,-0.564628
-0.557605,-0.189334,0.317320,0.124100,-0.029224,0.991839
-0.681566,-0.271047,-0.970774,-0.208927,0.109904,0.971736
0.575306,0.098472,0.475286,-0.300619,0.125853,0.945404
0.240105,-0.584521,0.612965,-0.504981,-0.850653,-0.146233
-0.078134,-0.139174,-0.399714,0.988136,0.062331,-0.140364
0.314402,-0.524590,0.621133,-0.710332,-0.133223,-0.691144
-0.052220,-0.127125,0.177819,0.870942,0.075181,-0.485600
-0.159316,-0.025081,0.771898,0.163470,-0.749499,0.641506
0.187638,0.212958,0.786875,-0.675198,-0.411172,0.612409
-0.048532,-0.266337,0.472105,-0.107944,-0.262712,-0.958817
0.250283,-0.440913,0.543894,0.341084,0.437187,0.832184
0.051483,0.557713,0.109757,-0.660947,0.156527,-0.733926
0.144416,-0.109817,0.358328,0.788717,-0.592600,0.163557
0.046319,0.121589,0.388926,-0.316062,-0.707411,0.632199
0.002999,-0.065663,0.742056,0.575901,0.164960,-0.800704
0.000688,-0.337573,0.694995,0.319909,0.250123,0.913836
-0.056842,-0.090742,0.273621,0.094776,0.642084,0.760753
0.173674,-0.581970,0.132762,-0.082332,-0.152943,0.984799
-0.847077,-0.344206,-0.974319,-0.138672,0.031366,0.989842
0.449820,-0.034383,0.799625,0.331439,-0.220708,-0.917298
-0.071495,0.006516,0.566969,0.774005,-0.172881,0.609121
0.053597,-0.050160,-0.194995,0.990056,-0.138556,-0.024314
-0.330039,0.241649,0.351014,0.319460,-0.841725,0.435253
0.194424,-0.034225,0.643970,-0.161641,-0.975786,0.147357
-0.282342,0.372463,0.636951,0.530380,-0.380873,0.757385
0.237351,-0.062798,0.878461,0.923058,-0.014462,0.384389
0.263462,0.279170,0.335687,0.223298,-0.060562,0.972867
-0.190342,0.302287,-0.961065,0.008085,0.168834,0.985611
-0.308306,0.297618,0.638170,-0.204827,-0.741912,0.638446
-0.099424,-0.202246,0.664719,0.911091,0.353737,-0.211622
0.142499,0.396562,0.449002,-0.349573,-0.068767,-0.934382
0.442642,-0.024334,0.799779,-0.314981,0.066164,0.946789
0.221862,-0.651478,0.437682,-0.123266,0.281186,0.951704
0.180410,-0.512148,0.444407,0.132873,0.608694,0.782199
0.476963,0.156757,0.163318,-0.558522,0.795236,0.235908
0.433496,-0.652539,0.442740,0.470482,0.507034,0.722193
0.051237,0.218298,0.305999,-0.485749,0.229030,0.843560
0.061070,0.165666,0.698260,-0.204740,0.865107,-0.457898
0.514826,0.381451,0.134051,-0.042920,0.806319,0.589922
0.340414,0.278504,0.232417,-0.431074,0.853024,0.294150
-0.321532,0.244359,0.631529,0.149215,-0.463245,0.873578
0.197177,-0.439030,0.149098,-0.561327,-0.254390,-0.787526
0.099867,-0.356648,0.513520,-0.472806,0.284700,0.833907
0.103851,0.236861,0.096237,0.065638,0.455839,0.887639
-0.363917,-0.069822,0.089834,0.281510,0.683925,-0.673052
-0.381128,0.307116,-0.968967,0.121475,-0.223492,-0.967107
0.334612,-0.101927,0.920926,0.546546,0.834410,0.071047
0.401387,-0.535382,0.127284,-0.696288,0.341586,-0.631270
-0.091852,-0.073276,0.543124,-0.288763,0.853033,-0.434685
-0.560456,-0.059148,0.494102,0.622835,0.115321,0.773807
-0.169346,0.177519,0.375448,-0.345473,0.899467,0.267594
0.722920,-0.145925,0.464190,0.681080,0.707159,0.189884
0.005556,-0.109266,0.507061,-0.746162,0.434127,-0.504754
0.139254,-0.049374,0.574815,-0.188736,0.980006,-0.062980
-0.570734,0.314101,-0.982375,0.205230,-0.129483,-0.970111
0.460688,-0.122023,0.627550,0.262678,0.842079,-0.471067
0.331072,-0.430748,0.597246,-0.059365,0.055084,0.996715
0.160840,0.272340,0.778399,-0.806829,0.444820,-0.388797
0.248612,-0.111583,0.878082,-0.752516,-0.487756,-0.442508
0.123323,-0.053849,0.146744,-0.002734,-0.783048,0.621955
-0.485323,-0.068253,0.481268,-0.528479,-0.687115,-0.498580
-0.147220,0.165429,0.620264,0.012380,-0.722596,0.691159
-0.192113,0.139054,0.591712,0.196635,0.257377,0.946093
-0.913360,0.131717,0.531719,0.547482,0.111957,0.829294
-0.080542,-0.009343,0.511587,0.341381,0.673816,0.655310
0.448738,0.122533,0.156845,0.951963,-0.218342,0.214695
-0.481093,0.339848,-0.979993,-0.244367,0.296474,0.923248
-0.539116,0.222104,-0.978536,-0.258808,0.035960,0.965259
0.152137,0.404529,0.383434,0.094971,0.529666,0.842873
-0.128435,0.620786,-0.975314,-0.277865,0.150195,0.948806
0.062694,-0.228503,0.705251,0.262671,-0.173005,0.949249
-0.790333,0.000235,0.330391,0.739076,-0.238577,0.629958
0.263019,-0.173044,0.892331,-0.182521,0.392548,0.901439
-0.571028,0.331605,0.673686,0.809134,0.055390,0.585008
0.095688,-0.016563,0.699703,-0.426190,-0.566851,-0.705012
-0.089984,-0.287923,-0.678253,0.891620,0.100527,0.441483
-0.320057,0.024216,0.296276,0.927611,0.271014,-0.257080
0.580273,0.130735,0.192796,0.083100,0.798730,0.595923
0.268673,-0.199733,0.910446,0.428246,-0.814493,0.391416
0.066578,0.664310,0.100510,0.929666,0.160383,0.331660
0.073855,-0.073904,0.092300,0.029543,0.951402,0.306530
-0.524513,0.421171,-0.986732,-0.050492,0.059210,0.996968
0.284851,-0.644138,0.439770,-0.077792,0.208554,0.974912
-0.882775,-0.450959,-0.972918,-0.205345,0.167660,0.964222
-0.748636,0.281487,-0.996035,-0.215345,0.118088,0.969372
-0.361952,-0.088584,0.085127,-0.481831,-0.571738,0.664044
-0.148645,-0.244711,0.396380,0.346540,0.581112,0.736355
-0.789006,0.009536,0.327575,0.739076,-0.238577,0.629958
0.174952,0.275285,0.787828,-0.011650,-0.967448,0.252801
-0.010916,0.221436,0.365025,0.365615,-0.924500,-0.107824
0.350298,0.058048,0.803814,0.957749,0.091782,-0.272568
0.397798,0.118999,0.777811,0.102894,-0.338820,0.935208
0.278949,0.397582,0.445332,-0.414212,-0.125498,0.901487
-0.011260,-0.054673,0.607207,-0.013096,-0.379060,0.925279
0.287653,-0.169159,0.633266,-0.500984,0.430040,0.751053
0.266263,-0.369874,0.134821,-0.420095,0.505710,-0.753510
-0.721199,-0.089604,-0.981801,0.181812,-0.102560,-0.977970
0.111226,-0.139840,0.197055,-0.492969,0.841580,-0.220735
0.283424,-0.016445,0.450838,0.213846,0.819985,-0.530938
0.183606,-0.358883,0.428393,0.695528,-0.342387,0.631674
-0.348134,-0.059540,-0.958053,-0.222899,0.128382,0.966351
-0.391209,0.196829,-0.959258,-0.400016,0.227175,0.887907
0.236367,-0.211940,0.162281,0.333950,0.053484,0.941072
-0.406648,-0.012129,0.094948,-0.071375,-0.231776,0.970147
0.045827,-0.095451,-0.012133,0.975791,0.203293,-0.080650
-0.202587,0.018917,0.145679,-0.040797,0.704179,0.708849
0.067119,-0.166529,0.472904,0.898682,-0.349951,0.264394
0.008752,0.045567,0.756067,-0.383332,-0.791392,-0.476188
0.546246,-0.542094,0.415854,-0.374974,0.378291,-0.846339
0.073806,-0.116724,0.374299,0.150161,-0.943026,0.296907
-0.133746,0.318380,0.415013,-0.312207,-0.580793,-0.751802
-0.110439,-0.472428,0.755492,0.990338,0.128365,0.052477
0.137877,0.017897,0.834440,0.673574,-0.053949,0.737148
-0.536067,-0.003375,0.415896,-0.506063,-0.171599,-0.845254
-0.176919,-0.271754,-0.913837,-0.384239,0.805966,0.450310
0.109997,-0.016876,0.842860,0.561812,0.053125,0.825558
-0.142892,-0.089801,0.375533,0.155326,-0.497525,0.853430
0.363181,0.131441,0.520399,-0.539492,0.410892,0.734925
0.257905,-0.171751,0.866622,0.135464,0.723293,-0.677124
-0.390373,0.050473,0.734308,0.610669,0.429458,0.665319
-0.099720,-0.354253,0.285614,0.391072,-0.239877,0.888550
-0.551803,0.007613,0.312752,0.361145,0.056545,0.930794
0.022570,-0.113938,-0.229951,0.996759,-0.021620,-0.077481
0.178690,0.365988,0.431013,-0.111472,-0.814347,0.569573
-0.083051,0.284744,0.406453,0.303684,0.210597,0.929207
-0.411810,-0.386554,-0.946663,-0.247714,0.121663,0.961164
0.772288,-0.215275,0.471405,0.422216,0.009197,-0.906448
-0.720706,-0.207662,0.307737,0.306522,0.770778,-0.558520
-0.182869,0.596295,0.150205,-0.407800,0.213037,-0.887871
0.795202,0.051532,0.507538,-0.564450,0.237440,0.790581
-0.142253,0.040934,0.493247,0.558714,0.804220,-0.202653
0.072774,-0.428274,0.699591,-0.688139,-0.049729,0.723873
-0.248856,-0.091801,0.772234,-0.818931,0.347895,-0.456421
0.322812,0.369795,0.439630,-0.154009,-0.206985,0.966146
0.187245,-0.209545,0.395987,-0.569293,-0.241244,-0.785943
0.278212,-0.198046,0.949437,0.862520,-0.487005,-0.137426
0.277869,-0.289926,0.537856,0.751507,0.400471,0.524271
-0.191375,-0.027984,0.384219,-0.088251,0.026451,0.995747
-0.301569,-0.193100,0.697097,0.596318,-0.199341,0.777604
-0.240449,-0.077672,0.399742,0.145853,0.472190,0.869347
-0.259281,0.191451,-0.944449,0.184489,-0.834847,0.518646
0.001623,0.024489,0.754820,-0.367850,0.855486,-0.364458
0.523087,0.100278,0.207633,0.116657,0.670709,0.732490
-0.135616,-0.132187,0.687598,-0.023053,-0.978521,-0.204854
-0.435906,-0.001727,0.226981,-0.084070,-0.364024,-0.927588
0.728278,0.530868,0.225622,-0.096944,-0.201508,0.974678
-0.308993,0.271047,0.618864,-0.517391,0.254500,-0.817029
0.151351,0.200557,0.778385,0.241764,0.597568,-0.764502
0.249349,0.437103,0.068917,0.914700,0.388281,-0.112080
-0.738752,0.113662,-0.986046,0.184540,-0.118283,-0.975681
0.344249,-0.108718,0.611844,-0.280875,-0.783013,0.554977
0.178295,-0.058010,0.435637,0.045421,-0.933571,0.355501
0.056794,-0.289219,0.184376,0.989330,-0.011538,0.145236
0.013719,-0.451273,0.737783,-0.837718,0.220015,-0.499822
0.344594,0.154127,0.530360,0.338363,0.652221,-0.678320
0.497223,0.119392,0.193314,-0.107732,0.912756,0.394044
0.206766,-0.120061,0.874930,-0.666262,0.702997,0.248776
0.213306,-0.246438,0.556672,0.986656,0.007170,0.162660
0.705316,-0.155619,0.465030,0.864874,-0.463787,0.192077
-0.064809,0.318339,0.739983,-0.364794,0.077576,-0.927851
-0.078231,-0.267830,-0.712284,0.948926,0.068235,-0.308030
0.533167,-0.268340,0.623655,0.277543,-0.401976,-0.872574
-0.515170,0.277091,0.360009,0.416819,0.893522,0.166973
0.151891,-0.025512,0.685413,0.191944,0.914982,-0.354916
0.136894,0.198437,0.176222,-0.419544,0.854850,0.305311
-0.162413,-0.261903,-0.811617,-0.697000,0.710189,-0.099108
-0.067316,-0.190431,-0.333740,0.944819,-0.125979,-0.302400
0.328809,0.023548,0.762483,0.265019,-0.690163,-0.673379
-0.077249,0.228541,0.363582,-0.156449,0.708532,0.688118
-0.442052,0.423878,-0.983272,0.256962,-0.084936,-0.962682
-0.208388,-0.327878,0.651830,-0.675622,-0.625810,-0.389739
-0.079067,-0.339300,0.251191,0.030536,-0.011352,0.999469
-0.515416,0.089407,0.646352,-0.425999,-0.257781,-0.867222
0.752816,-0.253426,0.468043,0.437243,-0.010422,-0.899283
0.362688,-0.064446,0.112012,-0.046597,-0.156904,0.986514
-0.258249,0.427960,-0.970760,0.141439,0.005217,-0.989933
0.369573,-0.327995,0.109084,-0.652404,0.011536,-0.757784
0.249791,-0.092038,0.197167,-0.671724,0.342231,-0.657012
-0.458524,0.277876,0.337831,-0.026652,-0.122944,0.992056
-0.049712,0.515130,0.352668,0.181167,-0.358367,0.915834
0.435316,-0.924369,0.453038,0.391264,-0.291160,-0.873005
-0.764224,0.237488,-0.993737,0.232191,-0.044104,-0.971670
0.246791,0.104595,0.250560,0.181331,-0.010779,-0.983363
0.267198,-0.725499,0.444281,0.085762,0.350580,0.932598
-0.397649,-0.400095,0.355890,0.904806,0.424339,0.035526
-0.444510,-0.249579,0.321747,-0.005769,0.293048,0.956080
-0.010719,0.238746,0.397599,-0.038877,-0.436255,0.898983
0.275802,0.499274,0.448302,0.973642,-0.215420,0.074942
-0.649211,0.111267,0.486018,0.420330,-0.095277,0.902355
-0.792645,-0.136975,-0.982095,0.190173,-0.036886,-0.981057
0.405320,-0.713294,0.447756,-0.117169,-0.191548,-0.974464
-0.478438,0.032615,0.228914,0.049732,0.250035,0.966959
0.153906,-0.486755,0.432821,0.080758,0.673870,0.734424
0.121109,-0.081282,0.038823,0.918930,0.386455,-0.078865
-0.455278,-0.133169,0.409213,-0.294929,-0.430384,0.853104
0.378374,0.491541,0.344359,-0.316211,0.707074,0.632500
0.516301,-0.443502,0.113049,0.079420,-0.258021,0.962869
-0.540985,0.068133,0.489464,-0.205868,-0.895320,-0.394995
0.434528,-0.332628,0.489604,0.192456,0.542769,0.817535
-0.157053,0.499157,-0.968323,-0.253936,0.136313,0.957567
-0.323203,-0.218336,0.465787,-0.171165,0.195480,0.965655
0.283376,0.022410,0.718393,0.719762,-0.589235,-0.367076
-0.381374,0.083637,0.456862,0.098285,-0.310710,0.945410
0.283031,-0.029436,0.836724,-0.152935,0.361901,0.919586
0.132862,0.223242,0.429654,0.610430,0.561192,-0.558962
-0.575503,0.241611,-0.980245,0.313668,-0.081571,-0.946023
-0.103162,0.690960,-0.976014,-0.211798,0.141639,0.966995
0.597581,-0.161036,0.455335,-0.232587,0.094365,-0.967987
-0.231352,-0.085208,0.753503,0.894051,0.044962,0.445702
0.246251,-0.275677,0.258210,-0.545770,0.184908,0.817278
0.271034,-0.416069,0.421823,-0.300856,-0.055007,-0.952082
0.148842,0.230896,0.327477,0.513821,0.697109,-0.500027
-0.846290,0.164174,-0.992322,-0.112066,0.042548,0.992789
0.362001,-0.573571,0.129161,0.073933,-0.207574,0.975422
0.088263,-0.028770,0.730806,0.593061,0.778973,0.203666
0.650145,0.176616,0.141434,0.394664,0.881473,0.259317
-0.126223,-0.192630,0.320122,-0.033641,-0.795943,0.604436
0.358755,-0.548334,0.431910,-0.392659,-0.560017,-0.729520
0.553081,0.129046,0.747744,-0.263886,-0.015655,0.964427
0.275016,-0.215785,0.806686,-0.030794,0.209658,0.977290
-0.147466,-0.038268,0.138562,0.209437,0.138082,0.968023
0.269805,0.179833,0.751765,-0.606186,0.707294,-0.363695
0.362984,-0.561208,0.435987,0.158022,0.588323,0.793035
-0.064709,-0.063426,0.766980,0.564646,0.487121,0.666249
-0.792939,0.114407,0.514711,-0.608056,0.049843,-0.792328
-0.117224,-0.371563,0.648411,-0.831411,0.234334,-0.503829
0.230713,-0.184663,0.681293,0.096316,-0.651730,0.752311
0.798496,0.374935,0.280374,-0.710788,-0.452933,0.538175
-0.466489,0.242787,0.338125,0.438076,0.126937,-0.889930
0.310370,0.466108,0.436730,0.966396,0.175809,0.187535
0.701727,-0.221005,0.452533,-0.532358,-0.157831,0.831676
0.108473,0.039248,0.664649,0.857697,0.404772,0.317041
0.132026,-0.411948,0.634373,0.135351,0.427238,0.893951
0.230220,0.229679,0.456582,0.738683,0.234496,0.631948
-0.457442,0.122650,0.639178,-0.551622,0.283838,-0.784314
-0.409599,-0.120492,0.201076,-0.771624,-0.480487,-0.416807
-0.343856,-0.041014,0.323470,0.113829,-0.240544,0.963941
-0.299306,0.167470,0.388590,-0.422700,0.334293,0.842362
0.716134,-0.323521,0.652012,-0.010673,0.537718,0.843057
0.444067,-0.858275,0.447139,-0.474437,-0.114498,0.872811
0.002312,0.627027,0.127844,0.567802,-0.227076,0.791225
-0.221910,-0.268771,0.484168,0.749851,-0.609632,-0.257045
-0.399027,0.009105,0.737026,0.624443,0.424955,0.655350
-0.009785,0.293888,0.097708,0.428107,0.415326,0.802639
0.204013,-0.130735,0.887805,0.946264,-0.240080,0.216669
0.032798,-0.419444,0.651438,-0.452606,0.006600,0.891686
-0.085952,0.231248,-0.952533,0.049612,0.263817,0.963296
-0.189506,0.358607,0.108636,-0.188176,-0.505395,-0.842120
0.527266,0.248361,0.099417,0.998647,-0.003813,-0.051863
0.452083,0.378548,0.449311,-0.010871,-0.596694,0.802395
0.710184,-0.255663,0.649350,0.720216,0.692706,0.038037
-0.166199,-0.158247,0.321383,0.364541,0.466957,-0.805643
0.594730,0.171159,0.196411,0.776125,-0.051260,-0.628493
0.226976,-0.283135,0.249047,0.766022,-0.164529,-0.621402
-0.565078,-0.187841,-0.965913,-0.221228,0.056224,0.973600
-0.047106,0.717962,0.153399,0.375666,-0.362476,0.852928
0.048384,-0.173792,0.689616,-0.576488,0.374481,-0.726240
-0.766042,-0.296832,-0.974837,-0.202791,0.101977,0.973898
0.108719,0.453156,0.442880,0.009153,-0.285652,0.958290
-0.212766,-0.456179,0.128307,-0.179316,0.907911,-0.378871
0.258002,-0.394246,0.592146,0.151289,0.598840,0.786449
0.485716,0.092311,0.737041,-0.315833,0.115707,0.941733
-0.164724,0.155696,0.399560,0.178628,-0.136599,-0.974388
0.695826,0.077672,0.199745,0.098884,0.852250,0.513704
0.093869,0.470269,0.466515,-0.310920,-0.378159,0.871966
0.195702,-0.142195,0.155136,0.234368,0.521628,0.820351
-0.243055,0.385612,0.362629,-0.399289,0.339537,-0.851635
-0.222698,0.712980,-0.981689,-0.132683,0.175950,0.975416
0.542952,-0.793555,0.452631,-0.081468,0.040279,0.995862
-0.387177,-0.640135,0.276297,0.987923,0.013229,0.154381
0.165119,0.492327,0.316339,0.726241,-0.157385,-0.669182
-0.684024,-0.233174,0.285516,0.367455,0.826722,-0.426037
0.333777,-0.247066,0.656383,0.888990,0.426458,0.166825
-0.861140,0.089525,0.522094,0.746562,0.426383,0.510728
0.299946,-0.115547,0.839316,-0.546097,-0.475767,0.689510
0.382702,-0.429414,0.607880,-0.158624,-0.051417,-0.985999
-0.768943,-0.170965,0.313425,0.394763,-0.673817,0.624606
0.127502,-0.054634,0.556952,0.051447,0.988781,-0.140235
-0.212224,0.129401,0.363456,0.867857,-0.046198,0.494661
0.006933,0.054162,0.491678,0.775077,-0.262607,0.574712
0.159955,0.272891,0.433003,0.443129,0.588973,0.675831
-0.274131,-0.264531,0.092986,-0.168947,0.143467,0.975128
-0.372867,0.151969,0.627256,-0.079612,-0.495008,-0.865234
0.028618,-0.219829,0.155557,0.792518,0.588807,0.158816
0.433644,0.437223,0.463559,0.436138,0.255563,-0.862827
-0.828638,0.005730,0.334048,-0.620729,0.236151,-0.747615
-0.329695,-0.039993,0.455994,0.174438,-0.089596,0.980584
0.249102,-0.562542,0.607347,0.640746,0.054101,0.765845
0.370065,-0.245889,0.154562,-0.138664,0.353533,-0.925088
0.062104,0.176381,0.233762,0.054432,0.476314,0.877589
-0.281113,-0.299542,-0.942348,-0.388183,0.151739,0.909005
-0.121306,-0.310923,-0.704635,0.946713,0.199875,-0.252557
-0.617003,-0.153147,0.323806,-0.582855,0.303029,-0.753958
-0.252495,-0.178540,0.094626,0.185971,0.133302,-0.973471
0.703496,-0.242397,0.642359,0.504111,0.844158,-0.182399
-0.540641,0.338397,-0.984182,-0.194299,0.292070,0.936452
0.244087,-0.130579,0.691017,0.771583,0.492961,-0.402056
0.646163,-0.163704,0.556714,-0.383218,0.092187,0.919046
-0.826917,0.022331,-0.988666,0.072159,-0.115697,-0.990660
0.346758,-0.477885,0.431350,-0.373120,-0.087786,-0.923621
-0.484928,0.010715,0.233216,-0.227469,-0.143938,0.963089
-0.029848,0.227245,0.410894,0.839320,-0.226197,0.494345
-0.004081,0.290316,0.396590,0.593143,0.142356,0.792412
-0.365787,0.121237,-0.964134,-0.283644,-0.207279,0.936259
-0.424891,0.035990,0.605736,-0.349105,0.830387,-0.434262
-0.636624,0.412339,-0.993177,-0.254758,0.055314,0.965422
-0.368049,-0.052514,0.322686,-0.584011,-0.202052,0.786197
-0.034027,-0.204639,0.625154,0.048417,-0.043239,0.997891
0.178099,0.227834,0.200936,-0.555137,0.817424,0.153754
0.675273,-0.260959,0.621441,0.088519,0.118264,0.989029
-0.402616,0.413045,-0.977387,0.282705,-0.178906,-0.942375
-0.161037,0.324148,0.364408,-0.091232,-0.291450,0.952226
-0.071053,0.486674,-0.964190,-0.247072,-0.099506,0.963874
0.224959,-0.633777,0.125995,-0.108307,0.484916,-0.867828
0.103456,0.179951,0.191171,0.858381,-0.511520,-0.039115
-0.597778,0.060951,-0.882369,-0.398925,-0.916817,0.017460
-0.174706,0.339613,0.110387,-0.188176,-0.505395,-0.842120
-0.040862,-0.459674,0.750168,0.878505,-0.013787,0.477535
0.587599,0.048039,0.221965,0.070447,0.733972,0.675517
-0.140680,0.402488,-0.965745,0.228309,-0.090813,-0.969344
-0.891824,0.201735,-0.997464,-0.208161,0.053028,0.976656
-0.243742,-0.005023,0.735696,-0.583451,0.520126,0.623742
0.310027,-0.117861,0.590072,-0.702545,-0.343659,0.623161
0.226730,-0.223949,0.806378,0.294724,0.245314,0.923558
-0.444657,0.286079,0.653511,0.671234,-0.051699,0.739441
-0.100359,0.276501,0.688607,-0.330072,0.592106,-0.735162
-0.085313,-0.268927,0.298784,-0.501295,0.200724,-0.841673
0.030584,0.160013,0.700712,0.088525,-0.658580,0.747286
-0.105473,-0.205149,-0.624846,0.830226,-0.556204,-0.036901
-0.036485,-0.019782,0.435931,0.608960,0.382273,0.695007
0.377391,-0.566310,0.131137,0.170479,-0.271426,0.947241
0.362099,-0.252915,0.659592,0.843575,0.523041,0.121689
0.107637,0.145256,0.775359,0.901725,-0.391416,0.183535
-0.135566,0.111777,0.345929,0.991944,-0.125281,-0.018767
0.385799,0.046861,0.778413,0.911480,-0.261500,0.317525
-0.044746,-0.415520,0.719401,0.503928,-0.658814,-0.558588
-0.362000,-0.403509,0.104559,0.045386,-0.095847,0.994361
-0.334857,-0.467563,0.083305,-0.021194,-0.222364,0.974733
-0.210896,-0.480278,0.665882,0.854794,-0.007749,0.518909
-0.198259,0.370226,0.363666,-0.162225,-0.296807,0.941057
0.053794,-0.039720,0.674709,0.142450,0.974855,-0.171366
-0.360034,0.036225,-0.964624,0.204098,-0.147996,-0.967699
0.222501,-0.219122,0.160993,0.074817,-0.201373,0.976653
0.208831,0.296125,0.766602,0.139364,-0.905021,0.401890
0.080740,-0.323521,0.687248,0.327607,-0.284101,0.901088
-0.460638,0.059617,0.112601,0.228594,-0.263358,0.937223
0.470916,0.520505,0.342230,-0.630161,0.623115,0.463276
-0.635935,0.273795,-0.987363,-0.204041,0.111102,0.972637
0.284949,-0.065936,0.585379,0.216614,0.387923,0.895876
-0.008556,0.184504,0.647192,0.656427,0.578605,0.484065
0.032994,0.064798,0.164467,-0.641146,0.466732,0.609174
0.694498,-0.248951,0.471965,0.382219,0.681886,-0.623650
0.047106,0.100789,0.665868,0.847550,0.512901,-0.136352
0.447559,0.435573,0.120194,-0.428591,0.395342,0.812413
-0.100605,-0.423761,0.752956,-0.409235,-0.895990,-0.172421
0.389831,0.153813,0.382524,-0.053210,0.651590,-0.756703
-0.544181,0.269751,0.640201,0.325265,-0.826336,0.459752
0.299159,0.782409,0.132874,-0.474934,0.803985,-0.357833
-0.769485,-0.296636,-0.972792,-0.202791,0.101977,0.973898
0.262330,-0.111897,0.618808,0.265693,0.871315,0.412574
-0.374638,-0.320462,0.322055,0.089005,0.249103,0.964379
0.151990,0.121198,0.243597,0.078522,-0.156810,-0.984502
0.218862,0.167824,0.698834,0.724650,-0.341904,-0.598318
0.329252,0.171669,0.787800,-0.561743,0.778882,0.278904
0.234647,0.186270,0.522221,-0.008374,0.705217,0.708942
0.124551,-0.122691,0.837270,-0.218127,0.829338,0.514411
0.013473,0.351701,0.081218,0.118475,-0.232763,-0.965290
0.538427,-0.823422,0.452954,-0.107985,-0.005629,0.994137
0.646310,-0.229875,0.632117,-0.212659,0.401450,0.890850
-0.022963,0.480513,0.348086,-0.079640,-0.288870,0.954050
-0.230024,-0.047295,0.693665,0.068773,-0.264839,0.961837
0.020701,-0.402136,0.625939,-0.764691,0.555514,0.326577
0.323302,-0.542211,0.428057,-0.032011,0.565458,0.824156
0.591828,-0.072297,0.480820,-0.423994,-0.314455,0.849322
0.095491,-0.180267,0.596741,0.881200,-0.305418,0.360843
-0.069480,-0.322934,-0.901045,0.987019,0.160315,-0.009644
0.406255,-0.758468,0.450376,-0.275698,0.461131,0.843415
-0.820229,-0.338790,-0.975398,-0.013516,0.111389,0.993685
-0.016423,0.178930,0.707605,-0.418232,0.146323,-0.896477
-0.583764,0.221201,0.328626,0.575012,-0.440571,-0.689390
0.319615,0.430315,0.448624,0.776386,-0.070221,-0.626334
-0.172494,-0.267279,0.632594,-0.374182,-0.378999,-0.846373
-0.353395,0.186821,0.637679,-0.516723,0.128649,0.846432
0.575012,0.351661,0.160950,0.416028,-0.850360,-0.322194
-0.451984,-0.188979,0.315484,0.213167,-0.339011,-0.916314
-0.087820,0.189724,0.691773,0.339985,-0.037930,0.939666
0.143581,0.931630,0.181980,0.089819,-0.744257,0.661826
0.461671,-0.139567,0.386615,-0.188096,-0.982058,0.013483
0.223829,-0.521646,0.133042,-0.285626,-0.084360,0.954621
-0.888234,-0.245614,0.295926,0.323558,-0.250145,0.912545
0.673649,-0.245614,0.583095,-0.110120,-0.944472,-0.309589
0.691106,-0.301307,0.638100,0.322655,0.351381,0.878877
