0.132758,0.252617,0.051673,-0.682398,-0.578582,0.446740
0.178713,-0.107180,-0.039278,-0.352643,0.935510,-0.021531
0.504542,0.433484,0.337749,-0.220310,0.540924,0.811704
-0.520637,-0.376124,0.766412,0.070538,0.497021,0.864867
0.252239,-0.347446,0.852872,0.900244,-0.247393,0.358269
0.266385,-0.378898,0.797423,0.711914,0.640252,0.288540
0.224201,0.096347,0.744960,-0.193559,-0.978583,-0.070072
0.303869,-0.492202,0.845421,0.324773,0.896307,0.301920
0.365367,-0.009105,0.111061,0.871309,-0.376878,-0.314300
0.285741,0.147582,0.462321,0.094117,-0.978880,0.181482
-0.042332,0.118903,0.690665,-0.518084,0.063569,-0.852964
0.086211,-0.250470,0.562029,-0.649836,-0.513583,-0.560309
0.024374,-0.112203,0.835184,-0.314219,0.485693,0.815702
0.046314,0.854093,0.254501,0.033804,-0.104752,0.993924
0.735330,-0.182174,-0.955064,0.312522,0.001435,-0.949910
0.247834,0.029569,0.747921,-0.599305,-0.800291,-0.019191
0.121323,-0.191699,0.776147,0.967122,-0.132244,0.217225
-0.164016,-0.334938,0.427998,-0.614494,-0.405250,-0.676882
-0.040131,-0.419824,0.763426,0.464326,-0.704679,-0.536497
0.390906,0.403810,0.473963,-0.515055,-0.054091,0.855449
0.207048,0.177885,0.704390,-0.557633,-0.213009,0.802292
0.092818,0.417940,0.670643,-0.166203,-0.887448,0.429899
0.544694,0.635022,0.256683,0.948926,0.299596,-0.098907
-0.211919,-0.185263,0.094527,-0.147729,0.985829,0.079476
-0.011753,0.413545,0.608044,-0.068877,0.576057,0.814503
0.483577,-0.024806,0.769749,0.597221,0.606676,-0.524662
0.047034,-0.130417,0.818047,0.606910,-0.239373,0.757866
0.053218,0.058092,0.496619,0.906471,-0.356723,0.225963
0.202093,0.076984,0.453364,-0.336125,0.355669,-0.872078
0.034920,-0.582479,0.828359,-0.568219,0.689736,-0.448766
0.152792,0.293646,0.015418,0.974995,0.216767,0.048959
-0.281846,-0.327769,0.689135,-0.150773,-0.952550,0.264415
0.492641,-0.025487,0.768570,0.727997,0.585933,-0.355954
0.776964,0.022452,0.324050,0.231190,-0.400013,-0.886871
0.707503,0.055003,0.312283,0.155282,0.410538,0.898524
0.411024,-0.650827,0.757104,0.266466,0.757626,0.595817
-0.287309,-0.213104,0.186657,0.836094,0.512851,0.194756
0.357617,0.336248,0.468644,-0.440868,0.111723,0.890591
0.638593,0.117177,-0.970870,0.258935,-0.087969,-0.961881
0.449185,0.406166,0.030773,-0.082939,-0.879025,0.469506
0.310646,-0.469699,0.744383,-0.388149,-0.172925,-0.905228
-0.392347,-0.307881,0.797373,-0.167340,0.420518,0.891718
0.112090,-0.259682,0.724738,0.288256,0.713346,0.638784
0.386798,0.026011,-0.992749,-0.119005,0.049038,0.991682
0.230808,-0.331118,0.821510,0.329983,0.938911,-0.097765
0.235341,0.839596,0.264511,-0.705992,-0.140585,-0.694126
-0.476589,-0.721426,0.273720,-0.444354,-0.288872,0.847999
0.170368,0.045530,0.781466,0.406632,-0.896183,-0.177500
0.475783,0.122567,-0.968537,-0.054316,0.246208,0.967694
0.513310,0.506803,0.545193,-0.456792,0.819768,0.345429
-0.292561,-0.552333,0.651600,-0.017475,-0.567726,0.823032
0.521230,0.160351,-0.978147,-0.104379,0.033673,-0.993967
-0.210351,-0.321489,0.703838,0.842731,0.462562,-0.275391
0.252325,-0.165061,0.824495,0.926354,-0.234440,-0.294799
0.743969,-0.040715,-0.951551,-0.123080,0.115358,0.985669
0.209673,-0.781713,0.595198,-0.585541,0.806062,0.086055
-0.176722,-0.297519,0.689812,-0.727249,0.041713,0.685105
0.530208,-0.430290,0.768520,0.954846,0.297066,0.004506
0.004553,-0.157212,0.513956,0.262982,-0.865643,0.426032
-0.125135,-0.162183,0.671823,0.527350,-0.783172,0.329458
0.339405,0.700387,0.256859,0.130035,-0.216975,0.967477
0.373118,0.102365,-0.754820,-0.708999,-0.696971,-0.107485
0.330425,-0.413073,0.871564,0.975417,-0.119115,0.185402
0.580271,-0.113093,0.621693,-0.791945,0.467818,0.392389
0.751678,-0.058929,-0.951275,0.193033,0.025098,-0.980871
0.597043,0.069814,-0.969164,-0.215710,0.129278,0.967862
-0.028864,0.045427,0.693576,0.201460,0.687802,0.697383
-0.483535,-0.559974,0.586918,-0.247327,-0.590456,0.768239
-0.087780,-0.446304,0.809943,0.571428,0.798341,0.190059
0.063510,-0.326146,0.776222,-0.426373,-0.114453,0.897277
-0.101968,-0.475560,0.895048,0.922502,0.385974,0.003672
-0.038945,-0.211481,0.811499,-0.620150,-0.167158,0.766467
0.703522,0.096924,-0.958125,-0.057257,0.050519,0.997080
0.336397,-0.685524,0.546925,-0.774644,0.578036,0.256519
0.321615,0.273970,0.438686,-0.567589,-0.520485,0.637916
0.460198,0.501309,0.321667,0.824653,-0.045122,-0.563837
0.131106,-0.286058,0.739967,-0.420428,0.621020,0.661494
-0.315729,-0.345456,0.236361,0.203366,0.420349,0.884279
0.472777,0.077873,-0.078369,0.103577,0.767981,-0.632041
0.356346,0.082269,-0.036845,0.774987,0.536782,-0.333557
-0.364181,-0.307096,0.276404,-0.221095,-0.345376,-0.912049
0.167997,-0.538204,0.825926,0.968279,-0.237062,-0.078977
0.603693,0.373037,0.352377,-0.084689,0.992821,-0.084463
0.381080,0.089911,-0.528684,-0.186943,0.958381,0.215774
-0.030473,-0.241469,0.861403,0.503762,0.612576,0.609077
0.319963,-0.739219,0.535459,0.234996,-0.914186,-0.330212
0.007560,0.538153,0.120344,0.193638,0.200049,0.960461
-0.183837,-0.482311,0.592990,0.224412,0.317526,0.921312
-0.119672,-0.599224,0.798728,-0.578117,-0.709236,0.403441
0.361979,0.143082,0.183345,-0.212122,0.966791,0.142546
0.085026,0.544170,0.075308,0.974127,0.187577,0.126057
0.257619,-0.105976,0.828334,-0.754256,-0.397646,-0.522470
0.215434,0.022923,-0.348488,-0.376047,0.854402,0.358588
-0.054658,-0.150826,0.749527,-0.644679,0.482559,0.592896
0.034624,-0.168516,0.283304,0.804196,-0.504365,0.314459
-0.155376,0.256699,0.666604,0.914555,0.195911,0.353848
0.600220,0.532395,0.281397,-0.538343,-0.653805,-0.531719
0.005442,0.073844,0.542032,0.871892,-0.377959,0.311369
0.725419,0.103098,-0.957021,-0.080170,-0.082502,0.993361
0.366637,0.015334,-0.331753,0.913468,-0.399337,0.078145
0.464010,-0.352627,0.543086,-0.458267,-0.210105,0.863625
0.241863,-0.452846,0.858994,0.696308,0.239456,0.676622
0.076554,-0.286371,0.582051,0.160269,0.968339,-0.191400
0.397132,-0.308247,0.605460,0.232108,-0.903565,-0.360134
0.280701,0.153025,0.717737,0.565725,0.076094,0.821075
0.053048,-0.428878,0.801990,-0.248404,0.533119,0.808752
0.244743,0.048461,-0.362739,-0.459898,0.887123,0.038820
0.156900,0.244819,0.676565,0.512431,0.798096,0.316950
0.639271,0.025174,-0.966982,-0.228044,0.004656,0.973640
0.237796,-0.498535,0.671722,0.451332,-0.521160,-0.724356
0.013786,-0.612779,0.584409,-0.393099,-0.642054,-0.658209
0.782893,0.270777,0.272866,0.184485,-0.157330,0.970161
0.649266,-0.128008,-0.965827,0.242648,-0.035030,-0.969482
-0.085534,-0.218128,0.785732,0.757442,0.242151,0.606337
0.456429,-0.469228,0.731110,-0.359328,0.465058,-0.809076
0.120772,-0.829861,0.508813,-0.114388,-0.925578,-0.360861
-0.074141,0.316151,0.644801,0.145518,0.623065,-0.768514
0.442790,0.381359,0.241654,-0.154507,-0.726936,0.669097
-0.633510,-0.214255,0.395356,0.117836,0.471013,0.874220
-0.356431,-0.125130,0.779609,0.197332,-0.215405,-0.956379
-0.276593,-0.282657,0.201460,-0.252600,0.224198,0.941238
0.101204,0.426837,0.647636,0.305788,-0.754495,-0.580717
0.153427,0.263137,0.690239,-0.718112,-0.528971,0.452221
0.387349,-0.100168,0.567473,0.983021,-0.034527,-0.180215
-0.168252,-0.356499,0.721877,-0.561175,0.648503,-0.514321
0.506618,-0.422546,0.589001,0.388530,-0.076954,-0.918217
0.348425,-0.475820,0.576029,-0.153651,0.983983,0.090379
-0.033736,-0.260519,0.612058,0.953469,-0.290829,0.079471
0.159951,-0.020409,0.751584,-0.175637,-0.028543,0.984041
-0.180364,-0.540663,0.600015,0.223025,0.466790,0.855784
0.391542,-0.609535,0.828937,0.042044,-0.276554,0.960078
0.343174,-0.737125,0.710461,0.922942,0.084274,0.375601
0.338514,-0.513135,0.698293,0.154159,-0.902750,0.401595
-0.321531,-0.469070,0.755799,0.109863,0.611950,0.783229
0.050592,-0.673174,0.507358,0.421814,0.080012,0.903145
0.313060,-0.265909,0.869833,0.316364,0.899821,0.300392
0.150886,-0.058195,-0.007615,0.969459,0.212619,0.122240
0.101967,0.406584,0.657923,-0.245056,0.678650,0.692374
0.430507,0.123457,0.317577,0.010957,-0.906228,0.422648
-0.502467,-0.258949,0.666378,-0.707549,0.706293,-0.022897
0.312763,0.153706,0.333936,-0.380988,0.922789,0.057519
-0.067957,-0.043071,0.761745,-0.463443,0.570400,0.678133
-0.123653,-0.663439,0.705067,0.845467,-0.426367,-0.321552
0.574173,0.142767,0.576456,0.927836,-0.091956,-0.361477
0.283624,0.226136,0.062462,0.560113,-0.155674,0.813658
0.073209,0.333630,0.672199,0.990628,-0.134748,0.022340
0.475191,-0.214883,0.753240,-0.437752,-0.517846,0.734989
0.229156,0.342318,0.126090,-0.043401,-0.510331,0.858882
0.469049,0.379266,-0.006360,-0.026427,-0.731375,0.681464
0.133225,-0.617751,0.765710,0.670814,-0.574661,0.468800
0.000487,-0.476712,0.487938,-0.655149,-0.578237,-0.486232
-0.135004,-0.422284,0.746491,-0.437943,0.456936,-0.774219
0.259820,-0.282918,0.631353,0.849799,0.527080,-0.005291
-0.029543,0.327559,0.644148,0.802015,-0.269570,0.533014
-0.091422,-0.114768,0.739340,0.425345,0.047810,0.903768
0.309248,0.138319,0.177198,0.849930,-0.521046,-0.078292
0.676161,0.478857,0.265766,0.287049,0.628048,0.723297
-0.097817,-0.125549,0.808137,0.194882,0.461277,0.865589
0.311577,-0.530510,0.770753,0.855356,-0.361240,-0.371311
0.392686,0.115030,-0.858743,0.852137,-0.516997,0.081098
0.691408,0.147845,-0.954261,-0.179683,0.067712,0.981391
-0.038055,0.317616,0.646482,0.486564,-0.507178,0.711355
0.300100,-0.516903,0.728677,0.839531,-0.499344,-0.214109
-0.278542,-0.338025,0.706121,0.561416,-0.585602,0.584707
0.575316,0.159829,-0.977946,0.048504,0.098761,-0.993928
0.287647,-0.084519,0.676740,0.698800,-0.453248,0.553394
-0.289215,-0.135911,0.609173,-0.759054,0.512642,0.401292
0.368544,0.404228,0.605008,0.108572,-0.646932,0.754779
-0.106965,0.346191,0.642768,-0.014678,-0.405554,0.913953
0.498443,0.498640,0.558416,-0.093504,0.957029,0.274503
-0.607336,-0.298252,0.414976,0.406884,-0.481626,-0.776197
0.342496,-0.153024,0.200457,-0.945113,0.161928,-0.283797
-0.262913,-0.035692,0.762824,0.073313,-0.905659,-0.417622
0.670740,-0.029463,-0.968713,-0.185190,-0.017727,0.982543
0.115139,-0.670190,0.835811,0.415020,0.550698,0.724217
0.022088,-0.768579,0.538294,0.784642,-0.618989,-0.034478
-0.131488,-0.573581,0.788692,-0.069602,0.863394,-0.499707
0.172952,-0.390203,0.921619,0.725446,0.672190,-0.147949
-0.052964,-0.250419,0.843238,0.414370,0.909764,-0.025029
0.404376,0.173384,0.111513,-0.505716,0.758641,-0.410749
0.134410,0.779674,0.054634,-0.355672,-0.601420,-0.715396
0.331823,-0.135807,0.746440,0.767529,0.528986,0.362041
-0.002562,-0.645437,0.601370,-0.584207,-0.754014,-0.300274
0.416488,0.407265,0.591485,0.047050,0.537985,-0.841640
0.292348,-0.326879,0.620689,-0.611979,-0.685644,-0.394175
0.871031,0.221007,0.272766,-0.121762,-0.257634,0.958540
0.408652,-0.156478,0.752587,-0.092721,0.160658,0.982645
0.387222,-0.055892,0.201937,0.897694,-0.439736,-0.027889
-0.102561,-0.150304,0.791151,0.654070,0.755193,0.043300
0.307892,-0.730009,0.645403,0.177049,0.839160,0.514262
-0.130556,-0.341374,0.711766,0.072847,-0.065054,0.995219
-0.038098,-0.193793,0.791126,0.079951,0.922628,0.377312
0.196289,-0.240370,0.847779,0.892807,0.009600,0.450337
0.378455,0.488697,0.649116,-0.192441,0.832469,-0.519578
-0.044494,-0.459388,0.788265,0.748674,0.645316,0.151836
0.464095,-0.197090,0.754243,-0.334064,-0.228653,0.914395
0.015904,0.059294,0.733645,0.322223,-0.337895,0.884307
0.352492,0.200492,0.502214,-0.602882,0.551899,-0.576144
0.138984,-0.189658,0.399646,0.791187,-0.611256,-0.019730
0.259228,0.101214,0.369262,0.220827,-0.967507,-0.123152
0.173841,-0.219908,0.573746,0.063399,0.995635,0.068498
0.369602,-0.089387,0.420622,0.999667,-0.016966,0.019453
-0.037929,-0.395174,0.763853,-0.355426,0.922456,0.150823
-0.004595,-0.377434,0.806581,0.080099,0.426698,0.900840
0.655196,-0.221949,0.690690,-0.693621,0.714159,0.094164
0.927490,0.288309,0.228432,0.326546,0.241878,0.913708
0.588319,-0.076355,-0.970996,0.460672,-0.073667,-0.884508
0.343386,-0.090904,0.124409,0.976884,-0.213686,-0.006050
-0.017386,-0.120786,0.787513,0.215511,0.255454,0.942496
0.046738,-0.331483,0.854905,0.852100,-0.252004,0.458715
-0.006078,-0.131410,0.529311,0.428388,-0.891431,-0.147767
0.402300,-0.414225,0.836137,0.396824,-0.091596,-0.913313
0.157197,-0.552333,0.866772,0.573930,-0.753561,-0.320548
-0.855319,-0.177203,0.587947,-0.523979,-0.055315,0.849933
0.259143,-0.246231,0.721275,0.987130,0.051438,-0.151424
-0.396709,-0.244452,0.297379,0.483160,-0.874697,0.038231
-0.300015,-0.252773,0.576104,-0.613668,0.395039,-0.683634
-0.120306,-0.044275,0.750229,0.398031,0.495474,0.772060
-0.655450,-0.430134,0.633786,-0.649969,0.298111,-0.699050
0.760869,0.071646,-0.953784,-0.193766,-0.015482,0.980926
0.280277,-0.506175,0.846374,-0.226087,0.611934,0.757906
0.481628,0.199027,-0.980329,-0.298168,-0.041862,0.953595
0.214502,-0.578291,0.874048,0.670261,0.572366,0.472385
-0.061096,0.413859,0.667106,0.404846,0.817084,-0.410456
-0.579383,-0.514601,0.639381,-0.371676,0.160633,-0.914360
-0.000360,0.060446,0.716960,0.955401,-0.295285,0.003986
0.083289,-0.106604,0.184048,-0.793107,0.594743,-0.131387
-0.341607,-0.459859,0.268375,0.800723,-0.449942,0.395469
0.638000,0.203737,-0.973856,0.203977,-0.087448,-0.975062
0.390822,0.115240,-0.793534,0.897079,-0.300542,0.323919
-0.007052,0.018841,0.724085,-0.510073,0.318859,0.798846
-0.185617,-0.282238,0.570886,0.767851,0.071470,0.636629
-0.561424,-0.607651,0.598284,0.369634,-0.305571,0.877495
-0.015820,-0.497121,0.802015,0.843261,-0.312409,-0.437391
0.247410,-0.258583,0.650296,0.929289,0.233045,0.286553
0.318269,0.196306,0.619661,0.490815,0.698868,0.520273
0.532199,-0.385231,0.754444,-0.094920,0.421704,0.901751
-0.388451,-0.370630,0.759838,0.704189,0.543189,0.457234
0.196162,-0.432018,0.797649,0.468378,0.781415,0.412326
-0.290697,-0.228229,0.170324,-0.406718,0.911252,0.064815
0.361682,-0.146902,0.754419,-0.211756,0.639874,0.738729
0.414921,0.252407,0.155796,0.982510,-0.172906,-0.069122
-0.433981,-0.292651,0.617954,0.170100,-0.809306,0.562219
0.204930,-0.769206,0.485178,-0.122200,-0.723874,0.679024
0.468626,-0.053433,0.701906,-0.152275,0.784578,0.601040
0.338981,0.137639,0.168893,-0.733846,0.679316,-0.000239
0.312509,0.721844,0.263909,0.149707,0.003668,0.988724
0.304717,0.128167,0.459260,-0.424656,0.901562,-0.082783
0.163677,-0.003820,-0.300716,0.370109,-0.928969,-0.006026
0.338811,0.238330,0.675762,0.986454,0.110025,0.121664
0.466467,0.406060,0.599313,0.042470,-0.184810,0.981856
0.125897,-0.071383,0.086623,-0.223042,-0.973136,-0.057085
0.450837,-0.694840,0.809165,0.136267,0.377618,0.915880
0.551301,0.191648,0.565742,0.871485,0.116519,-0.476379
0.040555,-0.494976,0.825047,0.013745,0.664574,0.747096
0.259269,-0.126909,0.338126,-0.117189,0.993076,0.008121
-0.622329,-0.163388,0.647862,0.188889,0.242668,0.951542
0.520468,0.350377,0.364846,-0.469403,-0.453137,-0.757844
0.412888,-0.080595,0.752312,0.064494,-0.113899,-0.991397
0.025221,-0.182280,0.781943,0.810108,-0.514676,-0.280774
0.277779,-0.388580,0.874349,0.133117,0.980987,-0.141224
0.213570,0.223571,0.482243,0.613192,0.519198,0.595339
-0.028060,-0.000993,0.729379,-0.090032,0.789383,0.607263
0.034751,0.014497,-0.091516,0.676145,-0.356834,0.644591
0.091209,-0.261147,0.454393,0.999913,-0.010933,-0.007354
0.544143,0.218652,0.287318,0.224307,-0.090583,0.970300
0.213104,-0.601318,0.844618,0.909785,-0.317345,-0.267551
-0.727833,-0.102731,0.613990,-0.150049,-0.857125,-0.492769
-0.047797,-0.433430,0.855657,-0.625356,0.057102,-0.778248
0.297092,-0.706405,0.593943,-0.355013,0.932409,0.067671
0.184685,-0.155118,0.852571,-0.816626,0.563399,-0.125312
0.112429,-0.270095,0.383689,-0.884571,0.399206,-0.241184
-0.522162,-0.451904,0.762247,0.068682,0.060858,0.995781
0.143601,-0.693112,0.681282,0.446535,0.002819,0.894761
0.233307,0.391145,0.638503,-0.121451,-0.221035,0.967674
0.004680,0.086247,0.823341,-0.127881,0.424243,0.896473
0.233900,-0.126962,0.756677,-0.234050,-0.418479,0.877551
0.579213,0.025330,-0.983315,-0.351547,0.060590,0.934207
-0.806654,-0.518264,0.509766,0.915190,0.174153,-0.363453
-0.525931,-0.366129,0.211095,-0.326938,0.936376,0.127716
0.074352,-0.787209,0.509189,-0.606012,-0.624660,-0.492493
-0.092142,-0.623403,0.775018,-0.201888,0.008516,0.979372
0.411660,0.157630,0.276781,0.638072,0.714068,-0.288047
0.349739,-0.525644,0.836087,-0.791349,0.317216,-0.522629
-0.501621,-0.504081,0.592814,0.487826,0.432067,0.758515
-0.036022,0.059923,0.615471,0.901013,0.433726,0.007531
-0.217679,-0.437565,0.743405,0.096908,0.907417,0.408906
-0.885984,-0.345824,0.457102,-0.176618,-0.695450,0.696531
0.341606,0.151978,0.156951,-0.565917,0.824152,-0.022616
-0.234578,-0.572117,0.744810,0.690926,0.001894,0.722923
0.010949,-0.102209,-0.125387,-0.829521,0.193622,-0.523837
0.268418,-0.462162,0.926662,-0.616468,-0.782701,-0.085709
-0.711103,-0.569552,0.636973,0.917479,0.173042,-0.358175
0.726689,0.684531,-0.025705,0.398138,0.441002,0.804365
-0.835836,-0.285116,0.564538,0.039894,-0.255637,0.965949
0.126236,0.866340,0.079347,0.510742,0.519819,0.684785
-0.167363,-0.095090,0.774065,-0.167744,0.604683,0.778602
0.241482,0.244348,0.638654,0.757686,-0.388043,0.524723
-0.289681,-0.441385,0.278512,0.413546,-0.158873,-0.896515
0.472438,-0.273393,0.648138,-0.588416,-0.040693,0.807534
0.488448,0.015230,-0.984419,0.060587,-0.364652,0.929171
0.336778,0.057463,-0.109581,-0.071341,-0.994689,0.074188
0.223058,-0.801550,0.617177,-0.355783,0.934341,-0.020624
-0.383537,-0.358069,0.722379,-0.020586,0.962079,0.271993
-0.374897,-0.199236,0.622847,0.788114,-0.493525,0.367843
-0.764216,-0.259473,0.560072,-0.365358,-0.791708,0.489604
0.398319,0.042967,-0.176220,0.816840,-0.569422,0.092362
-0.518986,-0.326199,0.642994,0.684390,0.004669,0.729101
-0.339785,-0.331170,0.576255,0.410868,-0.907817,0.083998
0.654095,-0.095090,-0.972050,-0.277467,0.046277,0.959620
-0.164355,0.224932,0.228583,-0.627116,0.346278,0.697722
0.088499,-0.216977,0.360656,0.321156,0.807662,0.494511
0.246564,-0.290192,0.743254,0.887546,0.133815,0.440858
0.032548,0.383295,0.639080,0.716824,-0.530541,-0.452427
-0.797760,-0.299664,0.534505,0.569649,-0.076599,0.818311
0.537324,0.226764,-0.974559,0.050846,-0.018616,0.998533
0.489592,0.584258,0.011027,0.398106,0.523861,0.753048
0.391880,0.154961,0.263784,-0.454956,0.844378,0.282913
0.144448,-0.167417,0.197596,-0.466101,-0.757829,-0.456559
0.498062,0.188350,-0.972100,-0.261909,0.046396,0.963977
0.082103,0.609326,0.091466,0.982217,0.122912,-0.141927
0.078545,0.252354,0.676515,0.554376,0.267562,0.788085
-0.030093,-0.328553,0.793886,-0.279172,0.251995,0.926586
-0.648800,-0.399100,0.470927,-0.588795,0.754225,-0.290628
0.014125,-0.459859,0.829488,0.466436,0.461400,-0.754683
-0.277017,-0.200282,0.140818,-0.304613,0.922957,0.235289
-0.507211,-0.636801,0.559319,0.298647,-0.433053,0.850456
-0.103577,-0.181232,0.787036,0.466675,0.834178,-0.293874
-0.579085,-0.311178,0.656718,0.164437,0.942685,-0.290354
-0.228733,-0.161294,0.828836,-0.505171,0.862313,0.034907
0.182313,-0.085985,-0.028239,0.454336,0.866937,0.204937
-0.756888,-0.477181,0.594822,0.444932,0.752100,0.486190
-0.068169,-0.506750,0.581850,-0.661162,-0.020841,-0.749953
0.405265,-0.835095,0.677995,-0.723458,0.452598,0.521309
-0.614663,-0.379213,0.408679,0.719523,0.507645,0.473902
-0.475276,-0.540035,0.594596,0.833527,0.475305,-0.281635
0.548463,0.010886,-0.985498,-0.028450,0.014767,0.999486
-0.140891,0.193689,0.670468,0.884576,0.310347,0.348153
0.126109,-0.316517,0.853625,-0.104105,0.888521,0.446869
-0.017641,-0.009525,0.723257,0.622692,0.004016,-0.782456
-0.011796,0.789618,0.095957,-0.443117,-0.278000,-0.852269
0.818979,-0.021823,0.330197,-0.013297,-0.791633,0.610852
0.102010,0.354721,0.691418,0.125787,-0.590589,0.797108
0.073760,-0.489743,0.812302,0.784998,0.575237,0.229959
-0.337244,-0.616181,0.530415,0.969758,-0.173375,-0.171785
0.165583,0.053800,0.753541,0.114381,0.743485,0.658898
-0.016201,-0.401402,0.763652,0.350334,-0.936449,0.018169
0.035302,0.110164,0.660231,-0.504124,0.095856,0.858295
0.341818,-0.552124,0.622145,0.679779,-0.694589,-0.235473
0.043265,-0.609377,0.507609,0.937343,0.255997,-0.236333
-0.322420,-0.409671,0.714501,0.599054,0.742884,-0.298760
-0.212215,-0.234456,0.665350,0.754290,-0.512162,0.410775
0.611910,-0.231892,-0.975010,-0.033911,0.223906,0.974021
-0.210055,-0.194264,0.766111,0.322061,-0.768846,-0.552407
0.379132,-0.027790,0.302046,0.979482,0.176708,0.096902
-0.484298,-0.409722,0.720648,0.601967,0.170502,0.780105
0.694161,0.620474,0.004880,0.365297,0.447704,0.816161
0.745494,-0.179191,-0.954687,-0.291994,0.055481,0.954810
0.467864,-0.206249,0.739942,0.828566,0.483274,-0.282709
-0.265539,-0.231840,0.697565,0.763319,0.307504,0.568143
0.397768,-0.109012,0.515738,0.420825,-0.907121,0.006115
0.582008,0.183379,-0.973379,0.045356,0.033452,-0.998411
-0.144830,-0.601580,0.611657,0.148886,0.704113,0.694304
0.401113,0.056573,-0.255604,0.331876,-0.942555,-0.038059
0.726139,0.205098,-0.956895,0.296323,0.039215,-0.954282
0.211961,-0.429297,0.768520,0.196687,0.942705,-0.269483
-0.109676,-0.226606,0.759663,-0.303377,-0.173995,0.936850
0.582262,-0.227548,0.678447,0.133949,0.719087,0.681888
0.437114,-0.449026,0.843438,0.549644,0.050486,0.833872
0.457275,-0.310288,0.632808,-0.388437,0.797875,0.460990
0.448423,-0.159986,0.724236,0.510767,0.824348,0.244063
-0.210182,-0.118274,0.808262,-0.213810,0.423207,0.880444
-0.221236,-0.681024,0.757806,0.603981,-0.765617,0.221444
0.113826,-0.064581,0.812051,0.323625,-0.707363,0.628414
0.398276,-0.180186,0.432865,0.847380,-0.151020,-0.509058
-0.046865,0.100429,0.452687,0.993495,0.043024,-0.105439
0.021579,-0.130888,-0.102856,0.284876,0.936207,0.205821
0.190784,-0.480741,0.813782,0.946377,-0.017758,0.322577
0.011499,-0.198241,0.688758,-0.286099,-0.455392,-0.843069
-0.144534,-0.096033,0.626560,0.066347,0.639346,0.766051
0.259736,-0.710749,0.859596,-0.364704,-0.779383,-0.509464
0.916563,0.153078,0.249508,0.183727,-0.005796,0.982960
0.111836,0.343730,0.669665,-0.683277,0.335367,-0.648584
-0.424367,-0.596190,0.350395,0.069491,-0.609104,0.790040
-0.329409,-0.503297,0.769197,-0.659241,-0.288768,0.694272
0.400352,0.120788,0.622345,0.746096,0.501212,0.438323
0.231825,-0.431966,0.954060,0.109629,0.897472,0.427231
-0.426992,-0.171708,0.302924,0.787188,0.377074,0.488007
-0.012643,-0.158729,0.465984,0.017996,0.992347,0.122159
0.084348,0.560760,0.055160,0.961595,0.241791,0.129896
0.212214,0.454103,0.431887,-0.693685,-0.126843,0.709022
0.297135,-0.645175,0.779208,0.233890,-0.895152,-0.379471
0.735033,-0.220064,-0.954211,-0.279913,0.042411,0.959088
-0.280955,-0.295163,0.544290,0.515101,-0.762316,0.391848
0.876072,-0.074210,0.328315,-0.142158,-0.764580,0.628657
-0.704750,-0.240108,0.536186,-0.134603,0.988618,0.067198
0.142457,-0.199131,0.711038,0.753396,-0.626497,0.199740
0.239364,-0.642610,0.792380,-0.502420,-0.591662,-0.630485
0.658500,-0.235713,-0.966555,-0.156228,0.066414,0.985486
0.050211,-0.094359,-0.127946,0.218261,0.935195,0.278877
-0.015226,-0.420452,0.826829,0.864620,0.330634,-0.378303
0.124076,-0.726554,0.530917,-0.046359,-0.592060,0.804559
0.404290,-0.539355,0.720598,-0.389838,0.258863,0.883751
0.679846,-0.004814,0.352552,0.525370,0.549446,0.649689
0.808560,-0.017270,0.332305,-0.009800,-0.377802,0.925834
0.583575,-0.050659,-0.978975,-0.460818,-0.037135,0.886717
0.214417,-0.536319,0.802467,0.914970,-0.321338,0.244073
0.224624,-0.769519,0.647586,-0.608584,0.776789,-0.161940
0.231909,0.433274,0.623976,0.123155,0.638094,0.760045
0.366637,-0.679557,0.820305,0.637944,0.459403,-0.618042
-0.217891,-0.125602,0.768419,0.067323,0.206771,-0.976070
-0.629064,-0.274807,0.409231,-0.366712,-0.550507,-0.749976
-0.091082,0.240946,0.640962,-0.034773,0.561253,0.826913
0.604879,0.474933,0.545570,0.153879,-0.516566,0.842307
0.067534,0.029778,0.698243,0.945327,-0.253677,-0.204950
0.067660,0.131044,0.699071,0.817333,-0.126726,-0.562057
-0.220728,-0.596714,0.774692,0.320642,-0.679632,0.659764
0.702547,0.565522,0.023698,-0.383268,-0.430335,-0.817262
0.204379,-0.283337,0.856510,0.762499,0.267293,0.589194
0.001038,-0.582845,0.558290,0.007681,0.532708,0.846264
-0.099680,-0.580960,0.807033,-0.369314,-0.609354,0.701637
0.595222,0.215825,0.624001,-0.739022,-0.554190,0.383041
0.804070,0.302909,0.290053,0.004262,-0.237218,0.971447
0.059062,-0.425686,0.745487,-0.247945,-0.868321,0.429582
0.075920,-0.485504,0.454619,-0.091631,0.279285,0.955826
-0.451642,-0.338340,0.279139,-0.454212,0.787328,-0.416901
0.231952,0.056416,-0.404965,0.089851,-0.992714,-0.080288
0.086127,-0.137586,0.218496,0.999671,-0.022550,-0.012210
0.432117,0.336142,0.565767,-0.282593,-0.825406,0.488718
0.010610,-0.199968,0.770828,-0.644140,0.479806,0.595710
0.206031,-0.393239,0.857514,0.919671,0.226379,0.320869
0.648546,-0.155485,-0.964598,0.235485,0.150711,-0.960121
-0.377989,-0.308562,0.595850,-0.661433,0.475984,-0.579608
-0.067533,-0.540454,0.576481,-0.619275,0.155730,-0.769576
-0.189048,-0.180133,0.108201,-0.283043,0.956240,-0.074108
0.332204,-0.150932,0.287971,-0.518840,-0.714799,-0.468901
0.594164,0.181390,0.566495,0.987354,0.107921,-0.116123
0.509921,0.307359,0.524017,0.805964,0.064993,-0.588386
0.258931,-0.282394,0.728351,-0.675628,0.535821,0.506382
0.613307,-0.173382,0.650948,-0.369554,0.264527,0.890761
0.557442,0.609273,0.233751,0.877166,-0.420370,0.232098
-0.656086,-0.556939,0.655113,-0.303935,0.456120,0.836408
0.533681,-0.326564,0.753114,-0.142905,0.472750,0.869532
0.151944,0.801340,0.031576,0.527729,0.617932,0.582806
0.264776,-0.592632,0.672776,-0.042421,0.179711,0.982804
0.379428,-0.005756,0.105817,0.933849,-0.251589,-0.254224
-0.180788,-0.189920,0.095355,-0.098859,0.985451,0.138253
0.125304,-0.271667,0.808513,-0.258825,0.122532,0.958121
0.353169,0.116809,-0.589402,0.060963,-0.985789,-0.156534
-0.086889,-0.184059,0.774867,-0.627338,-0.757043,0.182573
-0.067492,-0.180552,0.579115,0.321227,0.879524,0.351072
0.020732,0.937775,0.042615,-0.338828,-0.270583,-0.901100
0.490100,-0.412131,0.694579,0.722802,-0.681513,0.114444
0.544863,-0.138738,-0.978523,0.209167,-0.021340,-0.977647
0.386162,0.092842,-0.760039,0.971634,-0.223760,0.076547
0.141695,0.412655,0.674482,0.708122,0.327074,0.625768
0.503441,0.319238,0.293189,0.840515,0.159262,-0.517852
0.222803,0.253088,0.636847,-0.727356,0.537696,-0.426424
0.463798,0.040979,-0.970143,-0.073283,-0.567396,0.820177
-0.120857,-0.093573,0.800560,0.778665,0.601708,0.177846
0.559857,0.131987,0.608947,0.937971,-0.287205,0.194226
0.585651,0.543019,0.298935,0.718504,-0.695360,0.015018
-0.718515,-0.306782,0.531469,-0.414373,0.405782,-0.814639
0.007645,-0.101370,-0.100347,0.828166,0.051606,0.558102
0.172148,-0.508844,0.721827,0.816297,-0.417157,0.399549
0.298786,-0.490945,0.743731,-0.268766,0.036058,-0.962530
0.092268,0.034226,0.738487,-0.233894,0.852498,0.467483
-0.303869,-0.061230,0.782972,-0.363390,0.691585,0.624226
-0.715551,-0.544589,0.621618,0.328009,0.405600,-0.853170
-0.388366,-0.439344,0.634087,0.276730,-0.286571,0.917223
-0.147244,-0.456457,0.679199,0.938295,0.333067,0.093104
0.630546,0.159149,0.000615,0.205461,0.506484,-0.837412
0.118951,-0.667103,0.472784,0.814780,0.214306,0.538708
0.295864,-0.107022,0.387001,0.341511,-0.936841,-0.075485
0.349653,-0.442903,0.786359,0.582541,0.782631,0.219395
0.315177,-0.532499,0.764129,0.989330,0.076492,-0.124000
0.401537,-0.138842,0.600768,0.386360,0.893955,0.227089
0.252113,0.415218,0.660005,0.492436,0.785212,-0.375432
0.049702,-0.526219,0.724135,-0.258246,0.240232,0.935734
-0.006035,0.029516,0.727071,-0.646408,0.297685,0.702524
0.540036,0.426366,0.528634,0.161890,-0.334334,-0.928446
0.760743,0.127591,-0.953006,0.235656,0.018876,-0.971653
0.285995,-0.383608,0.839549,-0.308206,0.246859,0.918732
0.110353,0.454940,0.060229,-0.800175,-0.369568,0.472377
0.519197,0.121154,0.541305,-0.766679,0.443587,0.464149
-0.721904,-0.299298,0.526802,0.142591,-0.411298,0.900279
0.147668,-0.187355,0.694780,-0.734009,-0.112657,-0.669730
0.200653,-0.016014,0.777803,0.583407,-0.148096,0.798564
0.636644,0.009263,-0.969089,0.221808,0.032949,-0.974534
-0.143729,-0.554689,0.623248,0.084710,0.688163,0.720594
0.287986,-0.503716,0.713874,0.834247,-0.503918,-0.223826
-0.742699,-0.416684,0.513630,-0.511116,0.758139,-0.404952
0.084814,-0.514130,0.460791,-0.197349,-0.143431,-0.969784
-0.817116,-0.185472,0.595223,0.580696,0.419087,-0.697968
-0.392135,-0.231159,0.769950,0.743905,0.123104,0.656850
0.094894,0.071541,0.720447,-0.211333,0.478795,0.852112
-0.055759,0.394390,0.675912,-0.329907,-0.850682,0.409270
0.007814,-0.111523,0.561878,0.038462,-0.998264,0.044616
-0.740539,-0.280197,0.536236,-0.109648,-0.976479,0.185649
-0.292645,-0.270881,0.587169,0.829231,0.297686,-0.473032
0.553800,0.585044,0.230339,0.482649,-0.539354,-0.690034
-0.089981,-0.498220,0.736229,0.341829,-0.114899,-0.932712
-0.187141,-0.108592,0.733193,-0.589735,0.546976,-0.594163
-0.202897,-0.616181,0.653532,-0.475427,-0.511526,-0.715758
0.160289,0.487858,0.125864,0.741747,0.586554,-0.325216
0.079477,0.073897,0.779258,0.193496,-0.923559,0.331056
0.013235,-0.154228,0.545244,-0.408127,0.909900,-0.074260
0.220389,0.050764,-0.405241,0.089851,-0.992714,-0.080288
-0.302344,-0.473990,0.543412,0.349380,0.202075,0.914931
0.497384,0.273708,0.610101,0.716454,0.653538,-0.244094
0.077233,-0.511147,0.763903,-0.334326,-0.728165,-0.598333
0.411872,0.460801,0.626560,-0.095985,-0.678865,0.727963
-0.297686,-0.657891,0.281899,0.292548,0.368379,0.882447
0.269901,0.056626,-0.415704,-0.017319,0.998561,0.050749
-0.030432,-0.231630,0.557111,0.937268,0.344644,0.052439
-0.211749,-0.187355,0.077942,-0.063599,0.982805,0.173347
0.070837,-0.148158,0.796922,-0.477263,0.599297,0.642700
-0.220516,-0.126229,0.774190,0.087424,-0.315537,0.944877
0.068931,0.381045,0.656593,0.735451,-0.228166,-0.638006
-0.699456,-0.574733,0.657020,0.263158,-0.403341,-0.876393
0.308910,-0.572901,0.792932,-0.031395,0.352126,0.935426
-0.176002,-0.147215,0.786058,0.348033,0.009854,-0.937430
0.155334,-0.085985,0.011127,0.986064,0.095091,0.136513
0.065246,-0.199655,0.827908,0.900509,-0.074562,0.428396
0.222888,-0.365291,0.830768,-0.622189,-0.777376,-0.092563
0.252833,0.001517,0.731888,-0.156737,0.975046,-0.157221
-0.848373,-0.410980,0.486759,0.750323,0.028460,-0.660458
0.191123,0.014916,0.783473,0.330482,0.608183,0.721731
-0.042036,-0.185523,0.556108,0.577684,0.747018,0.329008
-0.128184,-0.221216,0.793283,-0.145864,-0.097722,0.984466
0.174265,-0.007903,-0.333133,-0.323617,0.907021,0.269416
-0.041910,-0.601265,0.629295,-0.527704,-0.838808,-0.133902
0.552487,0.510676,0.332480,-0.629208,0.634863,0.448382
-0.462570,-0.193950,0.389460,-0.460157,0.887722,0.014316
0.109168,-0.059398,-0.222084,0.409429,-0.909335,-0.074012
-0.008788,-0.800031,0.535258,0.931944,-0.325099,-0.160599
-0.093200,-0.523603,0.588298,0.686227,-0.162290,0.709052
-0.367782,-0.415586,0.641915,0.224352,-0.875233,0.428525
-0.282776,-0.424691,0.263408,-0.468624,0.642180,0.606627
-0.008958,-0.631358,0.589528,-0.669924,-0.609285,-0.424232
0.464391,-0.065627,-0.990541,-0.082101,-0.078596,0.993520
0.058173,0.406375,0.650321,-0.332299,0.706666,0.624660
0.188031,-0.278887,0.740193,-0.147360,-0.883279,-0.445089
0.215645,-0.439188,0.908321,0.636806,0.689615,-0.344833
-0.006333,-0.754397,0.774993,-0.509999,-0.274663,-0.815145
0.319582,-0.437827,0.790373,0.357233,0.920089,0.160690
-0.203491,-0.700021,0.740017,0.005011,-0.993904,0.110135
-0.383453,-0.109693,0.772459,-0.406934,0.296304,0.864066
0.147370,0.043124,0.797273,-0.152484,-0.922030,-0.355823
0.064993,0.086038,0.692773,0.900746,-0.107725,-0.420775
-0.001504,-0.716558,0.778957,-0.661769,-0.331700,0.672337
0.384511,-0.042234,0.421374,0.967555,0.240500,0.077434
-0.253256,-0.726501,0.290480,0.157233,0.116581,0.980656
0.429279,0.262298,-0.043619,-0.876220,0.423633,0.229727
-0.055421,0.151508,0.719970,-0.794950,0.041101,0.605281
0.680185,0.097655,-0.958200,-0.131263,0.013632,0.991254
0.395354,0.058823,0.757204,-0.366211,-0.888495,-0.276525
0.639652,-0.206615,0.683113,0.542788,-0.730150,-0.415045
-0.058639,-0.466872,0.718365,-0.128412,-0.652147,0.747138
0.739565,-0.075989,0.342265,-0.083077,0.265946,0.960401
-0.720972,-0.273340,0.597130,-0.539941,-0.715326,0.443590
0.523686,0.446462,0.058573,-0.007135,-0.419783,0.907596
0.133606,-0.667154,0.680755,0.401999,-0.155345,0.902366
-0.041528,0.311807,0.635292,0.719296,-0.128610,0.682695
-0.643591,-0.330594,0.503393,0.591439,-0.513846,0.621420
0.329875,-0.107075,0.725641,-0.261557,0.112177,0.958647
0.201203,0.771353,0.057720,0.158769,0.751778,0.640017
0.722157,0.228649,-0.957071,-0.426933,0.229522,0.874670
0.426781,-0.486184,0.634363,0.073277,0.966215,-0.247103
0.500815,0.309451,0.591259,0.425157,0.889338,-0.168285
-0.377904,-0.404752,0.626711,0.899981,-0.433600,0.045002
0.104212,0.007484,-0.077039,0.387146,0.682097,-0.620373
0.047246,-0.105714,0.368485,0.998588,0.038434,0.036679
0.177951,-0.077297,0.680178,0.536108,-0.178787,0.824999
-0.075793,-0.416841,0.549659,-0.609966,-0.519394,-0.598474
0.074564,-0.083839,-0.168893,0.512063,-0.857325,0.052784
0.620253,-0.099906,0.671070,-0.556840,-0.561129,-0.612425
0.426018,0.314738,0.475443,-0.340483,0.034128,0.939631
0.436182,0.493719,0.538494,-0.792774,0.486774,0.366825
-0.851296,-0.154543,0.587119,0.593815,0.116930,-0.796060
-0.463672,-0.450283,0.645804,0.675090,0.342546,0.653388
0.656043,-0.078345,-0.969315,0.244591,0.078680,-0.966429
0.018615,-0.201590,0.806732,0.014588,-0.998983,0.042655
0.306453,-0.478071,0.661962,0.867691,-0.438335,0.234469
-0.213655,-0.248691,0.666428,0.721616,-0.530032,0.445350
0.567692,0.129109,-0.978046,0.082465,0.004251,-0.996585
0.559602,0.302700,0.551190,0.903233,-0.104598,-0.416208
0.098451,-0.310026,0.806029,-0.422199,0.068963,0.903876
-0.029753,-0.491522,0.551165,-0.535458,-0.620916,-0.572493
-0.666886,-0.301234,0.510946,0.296861,-0.549124,0.781240
0.225556,-0.435105,0.902350,0.663414,0.747703,0.028674
0.358124,-0.445415,0.508336,-0.414204,0.838662,0.353667
0.749899,0.477811,0.021665,0.509506,0.258759,0.820639
0.402936,-0.045478,0.470425,0.947436,-0.289307,0.136628
0.147879,0.203318,0.469773,-0.162790,-0.223383,0.961041
0.016243,0.217186,0.596854,0.107481,-0.668784,0.735647
0.072531,-0.899047,0.556885,0.254734,0.511329,0.820764
-0.213655,-0.308509,0.582527,0.708141,0.640407,0.297346
0.686030,0.179245,0.269504,0.037831,0.645334,0.762963
-0.102180,-0.765752,0.774592,0.819352,0.469131,-0.329512
-0.024714,0.686885,0.079071,-0.119548,0.623821,0.772370
0.024417,-0.150355,0.388833,0.863479,-0.488812,0.124366
0.489930,-0.087031,0.747218,0.933636,0.191430,-0.302785
0.183371,-0.620420,0.836238,0.213659,0.499780,0.839387
0.148345,0.581955,0.169571,-0.344161,-0.297771,0.890441
-0.276085,-0.241312,0.820356,0.560382,0.737373,0.377166
0.463502,0.470798,0.614241,-0.350294,0.928737,-0.121413
0.397387,-0.200126,0.743354,0.467872,0.247573,0.848412
0.633171,0.031925,-0.965878,0.225348,-0.023147,-0.974003
0.043349,-0.571855,0.839248,0.938073,-0.191445,0.288734
-0.241228,-0.188874,0.746691,0.431821,-0.901858,0.013520
0.345672,0.132092,0.180209,0.142152,-0.989402,-0.029596
-0.397047,-0.318191,0.643446,-0.234715,0.648513,-0.724113
0.589208,0.059923,-0.976767,0.333126,-0.007585,-0.942852
0.503949,0.358698,0.528960,-0.656190,0.129313,0.743434
-0.030897,-0.189555,0.777452,0.490410,0.856938,-0.158606
-0.186040,-0.193741,0.740118,0.653603,-0.527135,0.543077
0.557740,0.552126,0.324276,-0.328343,-0.708553,-0.624614
0.198703,0.396744,0.156223,0.805313,-0.058987,0.589908
0.010101,-0.544327,0.564964,0.038783,0.751993,0.658029
-0.069778,-0.217605,0.867776,-0.005896,-0.999980,-0.002132
0.029330,0.236917,0.602348,-0.765437,0.295462,0.571672
0.136612,-0.250052,0.815589,0.754740,-0.165475,-0.634812
0.578069,-0.095039,0.575276,-0.253440,0.755607,0.604009
0.654222,0.438245,0.300340,0.075193,0.540212,0.838163
0.227589,-0.360006,0.881199,0.381386,-0.612712,0.692192
-0.358548,-0.177883,0.772910,0.369973,-0.454258,-0.810413
0.218314,-0.503872,0.858693,-0.699468,0.450259,0.554988
-0.165837,-0.710331,0.724562,0.008092,-0.999009,0.043756
-0.762352,-0.368484,0.537767,-0.502450,0.395458,-0.768867
-0.048093,0.678355,0.074179,0.317651,0.929927,0.185293
0.012261,-0.438089,0.681683,0.655954,0.428384,0.621460
0.335508,-0.142558,0.741799,0.436760,0.833497,0.338414
0.655408,-0.242464,-0.956168,-0.156228,0.066414,0.985486
0.514242,0.061703,-0.982036,0.051552,0.000820,0.998670
-0.818640,-0.431913,0.504924,0.717575,0.215663,-0.662251
0.722920,-0.166422,-0.872718,0.979508,-0.187810,0.072743
0.155884,-0.107861,0.492981,-0.593860,-0.282556,-0.753321
-0.088288,-0.245500,0.474013,0.641346,-0.742599,0.192930
0.471252,0.285902,0.571789,-0.462007,-0.843849,0.272888
0.172530,-0.700021,0.687780,0.447823,0.145508,0.882203
-0.410093,-0.223309,0.350746,-0.158755,-0.984205,0.078338
-0.081213,-0.349435,0.708028,-0.496604,-0.203574,0.843767
0.352068,-0.119269,0.732741,-0.634620,0.676667,0.373336
0.053599,0.532448,0.119592,0.448997,-0.559902,0.696356
0.416785,0.001675,0.740143,0.359471,0.748037,-0.557872
0.340716,0.323059,0.562907,-0.603191,0.460991,-0.650882
-0.133183,-0.444892,0.694830,0.459067,0.869727,-0.181200
0.349950,0.643290,0.240500,0.113611,0.166037,0.979553
0.009762,-0.568453,0.746415,0.287534,0.368119,0.884202
0.380827,0.047624,-0.242809,-0.780627,0.614198,0.115683
0.315008,-0.463366,0.734272,0.900587,-0.240849,-0.361849
0.739015,-0.069394,-0.958677,-0.160342,-0.039174,0.986284
-0.258762,-0.259577,0.833728,0.658671,0.723763,0.205718
0.147243,0.372777,0.739290,0.913629,0.128464,-0.385720
0.732915,-0.269991,-0.953107,0.192507,-0.062933,-0.979275
0.613095,-0.271143,0.690992,0.875012,-0.056056,0.480845
0.507338,0.412864,0.517770,0.631631,-0.266472,-0.728035
-0.458080,-0.272398,0.633761,-0.484295,-0.864511,0.134460
0.389678,-0.330543,0.591660,0.258350,0.727898,0.635154
-0.252960,-0.103464,0.783900,0.027391,-0.275373,0.960947
0.024036,0.870369,0.053530,-0.495797,-0.577314,-0.648763
-0.469939,-0.293280,0.633184,-0.272147,0.302989,-0.913309
0.268757,-0.450492,0.725139,0.579681,0.551919,0.599463
0.245208,0.063744,-0.417234,-0.176928,0.981578,0.072121
0.095190,0.206406,0.679902,-0.144946,0.779863,0.608937
0.027551,-0.139680,0.517645,-0.109790,-0.934624,0.338267
-0.516402,-0.254919,0.668160,0.763625,-0.645631,0.006042
0.443298,-0.451747,0.842887,0.634525,0.180813,0.751455
0.494589,-0.343259,0.717788,-0.610736,-0.037994,-0.790922
0.206878,0.760310,0.275074,0.137615,-0.189448,0.972199
0.315347,-0.760886,0.637224,0.719198,-0.369795,-0.588222
-0.021706,-0.205935,0.862256,-0.167022,0.809087,0.563455
0.397556,0.083160,-0.891837,-0.342005,0.938342,0.050472
-0.126110,-0.407734,0.818398,0.308864,0.947838,-0.078784
-0.090405,-0.458289,0.889328,0.278705,0.808580,0.518191
0.747104,0.162079,-0.954411,-0.085598,0.054109,0.994859
0.329069,0.125969,0.375761,-0.284966,0.958368,0.018048
0.506278,0.240790,0.527229,0.811121,0.522285,-0.263250
0.328137,-0.290925,0.880797,-0.192643,0.705488,0.682038
-0.578154,-0.331432,0.434045,-0.520188,-0.757862,-0.393763
0.102222,0.289722,0.656443,-0.525723,0.322533,0.787139
0.002308,-0.221949,0.860274,0.902657,0.318150,-0.289811
0.145508,-0.036373,-0.237264,-0.389804,0.919500,0.050716
-0.836979,-0.109902,0.482218,0.978990,0.200128,0.039079
0.356642,0.232940,0.488716,-0.599502,0.593276,0.537235
0.018148,-0.116495,0.816567,-0.575502,0.387604,0.720111
0.070159,-0.211849,0.839800,0.930396,0.005279,0.366517
0.373202,-0.151663,0.756828,0.125146,0.378649,0.917040
0.214078,-0.835985,0.453063,0.286756,-0.540503,0.790966
-0.316703,-0.347707,0.231217,0.347872,0.547604,0.760996
-0.077995,-0.176837,0.594696,-0.262572,-0.873295,-0.410379
0.005104,-0.214989,0.771957,0.842925,0.086631,-0.531011
0.197306,0.203790,0.702307,-0.371444,0.199618,0.906742
0.566507,0.545793,0.542860,-0.313912,0.025325,0.949114
-0.247878,-0.193844,0.140065,-0.002056,0.875291,0.483592
0.591453,0.690549,0.226927,0.355180,0.273534,0.893883
0.344063,-0.176890,0.760014,-0.082958,0.945910,0.313645
-0.211538,-0.099278,0.634564,0.323960,0.945980,0.013134
-0.423773,-0.311858,0.733695,0.957888,-0.145007,-0.247839
-0.532836,-0.311336,0.721902,-0.710941,0.498451,0.496094
-0.257746,-0.665532,0.654737,-0.438905,0.205546,-0.874707
0.156180,-0.142401,0.138735,0.733914,0.603721,0.311275
-0.437962,-0.255181,0.319208,0.776415,-0.473117,0.416342
0.111073,-0.354563,0.889880,0.404337,0.856505,0.320797
-0.102900,-0.432122,0.817771,-0.686952,-0.716979,-0.118478
0.122255,-0.078554,-0.210442,-0.351957,0.908875,0.223769
0.224921,-0.019678,0.742326,0.134202,-0.675003,0.725507
0.456005,0.292338,0.191173,0.943193,-0.322038,0.081722
-0.440249,-0.584049,0.561352,0.311438,-0.303666,0.900441
-0.027510,0.603150,0.122903,0.362490,0.659369,0.658661
-0.522078,-0.402815,0.374983,0.323952,0.750219,-0.576391
-0.017133,-0.295582,0.778179,0.188522,-0.214959,-0.958255
0.008577,-0.579808,0.565466,0.047252,0.401902,0.914463
0.510345,-0.193007,0.682887,0.090599,0.884471,0.457715
-0.085492,-0.015281,0.732967,0.214902,0.133303,0.967495
0.385104,0.139365,-0.770376,-0.810115,0.563334,-0.162381
0.387349,0.033704,-0.342993,0.996555,-0.054571,-0.062456
-0.122086,-0.575047,0.794513,0.573742,0.704367,-0.417956
0.620889,0.458551,0.527455,0.059021,-0.380418,0.922929
0.728977,0.233200,-0.956795,-0.345158,0.257700,0.902472
-0.116833,-0.402868,0.564764,-0.650324,-0.560274,-0.513003
-0.058046,-0.750000,0.807259,-0.459042,0.641880,-0.614224
0.199931,0.481996,0.174238,0.180291,0.607674,-0.773452
0.280236,-0.195729,0.807284,0.892715,0.448799,0.040489
-0.395142,-0.314057,0.789545,-0.071980,0.385089,0.920068
0.063467,-0.022451,0.716809,0.518014,0.222776,0.825852
0.156562,0.165900,0.830768,-0.246300,-0.597195,-0.763344
-0.061816,-0.242358,0.899389,-0.007823,0.899806,0.436220
0.104000,0.948974,-0.021740,-0.451393,-0.743046,-0.494092
0.517545,-0.069132,0.406145,0.138818,0.623398,0.769483
-0.348977,-0.327769,0.685898,-0.186575,0.115720,-0.975602
-0.079054,-0.207504,0.789671,-0.140760,0.188595,0.971915
0.376972,-0.140151,0.747369,-0.237483,0.034736,-0.970770
-0.342581,-0.668515,0.527706,0.134652,0.196318,0.971251
-0.223397,-0.265856,0.216866,0.421955,0.096435,-0.901473
0.271595,-0.757169,0.654711,-0.507977,0.858538,-0.069803
0.254993,0.017793,-0.266017,-0.218864,0.974712,0.045110
0.004723,0.838812,0.102505,0.441793,0.283955,0.850993
0.065119,0.014392,0.812352,-0.267443,0.209582,0.940505
-0.076470,-0.115449,0.349366,-0.136047,-0.982381,-0.128139
-0.273544,-0.230479,0.196969,0.745785,0.419797,0.517277
0.065796,-0.192380,0.807760,-0.449131,0.817770,-0.359906
0.007772,-0.224774,0.277458,0.950900,-0.194478,0.240765
0.045001,0.728857,0.101753,0.137630,0.229926,0.963427
-0.104974,-0.321069,0.749426,0.614670,0.782490,0.099443
0.650410,0.485504,0.045074,-0.224328,-0.399307,-0.888949
0.084814,0.908992,0.046805,-0.165477,0.436278,0.884465
0.235001,-0.545217,0.833127,-0.612378,0.734824,-0.291592
0.206370,-0.746650,0.675912,-0.091771,-0.040971,0.994937
-0.331907,-0.141041,0.738637,0.819792,0.504155,-0.271603
0.374303,0.007955,-0.037698,0.964028,0.217496,-0.152789
-0.424281,-0.375183,0.729003,-0.185397,-0.248613,-0.950694
0.109590,-0.134968,-0.111061,-0.199120,0.977089,0.075159
0.012897,-0.268316,0.803821,0.699578,0.699013,-0.148228
0.166473,0.909723,-0.030698,0.590763,0.625663,0.509455
0.128777,-0.640516,0.855883,0.802877,-0.169384,0.571575
-0.201331,-0.138685,0.464404,-0.554812,-0.704427,-0.442680
0.407890,0.601371,0.263483,0.499664,-0.343838,-0.795054
-0.029923,0.284383,0.621843,-0.023708,-0.290802,0.956489
0.049787,-0.116391,0.282100,0.514048,-0.851292,0.105151
-0.389891,-0.202638,0.800836,0.441024,0.561211,-0.700386
0.491455,-0.698660,0.794814,0.141644,0.608020,0.781184
-0.342243,-0.341480,0.814409,-0.692720,0.464985,-0.551296
-0.690307,-0.263135,0.637198,0.693817,0.329485,-0.640357
0.107304,0.417889,0.711565,0.915703,0.224867,-0.333052
0.093454,-0.494818,0.467440,-0.005283,0.340395,0.940268
-0.375067,-0.571278,0.549634,-0.320181,-0.063231,-0.945244
0.611994,0.593836,0.260196,0.099243,-0.907623,0.407886
-0.238432,-0.128270,0.602800,0.392249,0.865973,-0.310212
0.292052,-0.343677,0.659077,0.950377,0.278511,0.138618
0.039029,-0.566412,0.546598,0.550540,0.761120,0.342930
0.259100,-0.319499,0.788316,0.421632,0.841797,0.337052
0.024036,0.229798,0.629044,-0.060970,0.985237,-0.159971
0.225472,0.400617,0.675260,-0.855497,0.413304,-0.311937
0.635543,-0.045845,0.619259,-0.582445,0.695777,0.420300
-0.317804,-0.303904,0.751308,0.876808,0.282007,0.389460
-0.503950,-0.353412,0.749752,0.898528,-0.245287,-0.363982
-0.328604,-0.368746,0.731311,0.187443,-0.923410,-0.334932
-0.709240,-0.391092,0.510268,0.967543,-0.179119,-0.178263
0.018699,0.216820,0.699347,-0.038099,0.364389,0.930467
0.352576,0.131516,0.186758,-0.212122,0.966791,0.142546
0.398741,-0.521613,0.820080,-0.324212,-0.566426,0.757660
0.401199,0.029884,-0.993953,-0.212243,0.021714,0.976976
1.000000,0.212214,0.270383,-0.331015,-0.081095,-0.940134
-0.269435,-0.726554,0.281447,0.157233,0.116581,0.980656
0.222126,-0.314738,0.808538,0.798103,-0.432737,0.419250
0.358294,-0.157421,0.183245,0.969474,-0.245071,0.007776
0.177484,0.264707,0.660959,0.799826,0.482548,0.356969
-0.114971,-0.669981,0.777627,0.371976,-0.121842,-0.920211
0.469219,0.178774,0.191500,0.657283,0.408474,-0.633347
0.288155,0.544484,0.274472,0.157270,0.542104,-0.825463
0.294551,-0.157683,0.331025,0.048320,-0.994088,0.097228
0.081257,-0.070546,-0.176320,0.418112,-0.905416,0.073506
0.150843,-0.093311,0.107021,0.336377,0.900829,0.274514
-0.352703,-0.403392,0.613112,0.877100,-0.402158,0.262611
0.380064,0.021457,-0.991143,-0.150931,0.041864,0.987657
0.163550,0.874502,0.002070,0.557654,0.654661,0.510335
-0.860444,-0.230426,0.603779,-0.424179,0.901385,0.087047
0.280363,-0.251883,0.692296,0.815336,-0.567517,0.114682
0.359946,0.014916,-0.102907,0.260089,0.965555,-0.007594
0.091590,0.331223,0.688909,0.804549,-0.031737,-0.593038
0.606447,0.008008,-0.971698,0.292180,-0.081149,-0.952914
0.546811,-0.199027,0.708956,0.007584,0.754183,0.656621
0.560322,-0.056311,-0.979301,-0.250949,-0.034135,0.967398
-0.133140,-0.109116,0.610402,-0.043105,-0.081211,0.995764
0.562610,0.162551,0.567423,0.823438,-0.092287,-0.559850
0.482179,-0.668306,0.768896,-0.035593,0.751895,0.658321
-0.318396,-0.538779,0.660056,0.720440,0.282813,-0.633233
0.313484,0.674744,0.255730,0.421365,0.076760,0.903637
0.086635,0.360268,0.053103,-0.029416,-0.241885,0.969859
0.592724,0.024965,-0.976164,-0.390007,0.075726,0.917693
0.094894,0.049980,0.742175,-0.137321,0.840015,0.524898
0.289044,-0.177150,0.563810,0.969806,-0.044909,0.239708
-0.565574,-0.318138,0.665149,-0.194777,-0.974590,0.110622
-0.209886,-0.099278,0.846273,-0.470779,-0.751995,-0.461379
0.070159,-0.122305,0.188238,-0.817058,0.470699,-0.332953
0.353000,0.076618,-0.509014,-0.229330,-0.961388,-0.152124
0.637364,-0.212424,0.674482,-0.476288,0.645492,0.597067
0.341014,-0.179034,0.446113,0.130751,0.246715,0.960227
0.244700,-0.409828,0.710411,0.492699,-0.855579,-0.158844
-0.918214,-0.342475,0.597105,0.734302,0.049708,0.677001
-0.388535,-0.243039,0.259569,0.820160,-0.409038,0.400031
-0.355117,-0.127433,0.766989,-0.237959,-0.264575,0.934546
0.045382,-0.213104,0.732440,0.753774,0.121096,0.645879
0.267445,0.014444,0.750455,-0.463277,0.873806,0.147773
0.273882,-0.168254,0.441446,0.001261,0.981756,0.190141
0.019843,-0.037628,0.457629,0.991170,-0.036721,0.127414
0.804409,0.063220,0.315519,-0.376385,-0.527308,-0.761762
-0.439952,-0.267375,0.794538,-0.637056,-0.243998,-0.731180
0.260837,0.096504,-0.468568,-0.753048,-0.609609,-0.247581
-0.081384,-0.696671,0.760491,0.065187,-0.181961,0.981143
-0.307216,-0.638266,0.279917,-0.174042,-0.331848,-0.927139
0.256263,-0.164486,0.429955,-0.224889,0.967059,0.119258
0.405518,0.302491,0.540175,0.086406,-0.909567,0.406476
-0.332966,-0.258059,0.729680,0.755082,-0.038911,0.654475
-0.271427,-0.692432,0.671020,0.357167,0.635268,-0.684738
0.336312,0.153759,0.341312,0.297817,-0.950937,-0.083812
0.861884,-0.110424,0.300415,-0.124718,-0.586242,0.800478
0.538934,0.367124,0.296752,0.823921,-0.047221,-0.564734
0.101883,0.743092,0.093724,0.020033,0.102291,0.994553
-0.005909,-0.414329,0.833352,-0.699679,-0.443881,0.559838
0.095529,0.461691,0.638102,-0.237328,0.221132,0.945926
0.552529,-0.116338,-0.976616,-0.235593,0.108526,0.965773
0.257534,0.405537,0.655590,0.505383,0.524920,-0.684870
-0.122001,-0.393239,0.630525,-0.762495,0.564587,-0.315980
-0.489676,-0.519311,0.582427,-0.635205,-0.004025,-0.772333
0.159019,-0.236706,0.630048,-0.187563,0.982227,0.007117
0.859851,0.172074,0.268150,-0.114412,-0.337761,0.934252
-0.447322,-0.356448,0.654636,0.673401,0.143196,-0.725276
-0.010102,-0.448817,0.483347,0.283399,0.847352,0.449087
