-0.775755,0.073738,0.241102,-0.253188,-0.301746,-0.919155
0.230815,0.208157,0.734551,0.843068,-0.504140,0.187294
-0.292681,-0.950656,0.386714,-0.294181,-0.662211,0.689155
-0.107558,-0.129514,0.867090,-0.548202,-0.540258,-0.638432
0.477977,-0.256815,0.673760,0.279908,-0.481648,-0.830462
0.574133,-0.063243,0.194526,0.077193,0.274410,0.958509
-0.702344,0.336396,0.360732,-0.638477,0.534579,-0.553690
0.236939,-0.410849,0.884645,-0.413476,0.786631,0.458529
-0.618148,0.485931,0.105030,-0.101507,0.372891,0.922306
-0.729976,-0.184920,0.422911,0.758187,0.652030,0.003056
0.082220,-0.812611,0.628449,-0.423138,-0.881283,-0.210463
-0.366623,0.119148,0.640547,0.707732,0.499465,0.499651
-0.102549,-0.656141,0.655834,0.844350,-0.127086,0.520502
-0.555989,0.422218,0.361667,0.203555,0.391924,0.897196
0.016290,-0.430899,0.790833,0.719141,0.441206,0.536818
-0.226809,-0.590178,0.361557,0.183233,0.263193,-0.947183
-0.575902,0.428341,0.447712,-0.696280,0.461591,0.549662
0.355428,0.426343,0.689982,0.415391,0.907509,-0.062274
0.518278,0.237143,0.822727,0.211580,-0.254600,-0.943617
0.450168,0.048317,0.251701,0.901415,-0.365692,-0.231776
-0.833379,-0.070612,0.120070,0.685161,0.478469,-0.549201
-0.019887,-0.454635,0.219573,0.022474,0.248373,0.968404
-0.211373,0.545520,0.804525,-0.793337,-0.605648,-0.061703
0.572720,-0.003589,0.356058,0.290455,-0.211852,0.933142
-0.632171,-0.267810,0.426486,0.380039,0.193909,0.904417
0.378112,-0.492736,0.422416,0.546927,0.239276,0.802258
-0.647195,-0.411223,0.547903,-0.373528,-0.702344,-0.605962
0.151922,0.034886,-0.407198,0.996833,0.027520,-0.074606
0.767389,-0.532027,0.530540,-0.286076,0.890886,-0.352820
0.188333,-0.223148,0.897197,-0.378461,0.915945,0.133461
-0.170954,0.389362,0.491030,0.958137,-0.110013,0.264329
-0.419356,0.225710,0.661992,-0.619965,0.464944,-0.632037
0.053350,0.544273,0.640959,-0.582444,-0.407947,-0.703092
0.216909,-0.232332,0.854085,-0.580743,-0.256756,-0.772538
-0.731037,-0.208969,0.392186,-0.048376,-0.680612,0.731045
0.135601,0.318969,0.175870,0.578760,0.540757,-0.610425
-0.206011,-0.823602,0.552013,0.350974,-0.935961,-0.028193
0.372337,-0.130139,0.527694,0.762699,0.595539,-0.252236
-0.997880,-0.009087,0.124263,0.738809,-0.620372,0.263250
-0.340936,0.202976,0.769593,-0.639602,-0.675631,-0.366650
-0.225631,0.750400,0.679355,-0.560538,-0.800231,0.213137
-0.112152,0.682939,0.676070,0.073631,-0.071272,0.994736
0.834848,-0.062244,0.308038,0.473483,0.627881,0.617721
0.293208,0.415348,0.710672,-0.247891,0.796486,0.551507
0.264633,-0.183296,0.751131,-0.521000,-0.853552,-0.002924
0.029134,-0.411848,0.493999,0.972451,0.120235,0.199708
-0.508795,0.758147,0.605271,-0.773453,0.223097,0.593295
-0.807512,-0.071176,0.118338,0.594102,0.244763,-0.766247
0.829842,-0.532027,0.549099,-0.057771,-0.872499,0.485189
0.596404,0.292172,0.393781,-0.726100,0.677816,0.115516
-0.726499,-0.134386,0.370575,-0.203368,0.198812,0.958705
-0.327560,-0.783004,0.339891,-0.139080,0.726569,0.672870
-0.585213,-0.478623,0.545607,-0.458401,-0.887498,0.047080
0.553984,-0.357818,0.570641,-0.138488,-0.866091,-0.480320
0.422772,0.416472,0.544851,-0.304373,0.951196,-0.050827
0.018588,0.009525,0.858470,-0.636708,0.084346,0.766478
0.570246,0.102286,0.803206,-0.014359,-0.857563,0.514179
-0.264518,-0.461696,0.536864,-0.182066,-0.956340,-0.228619
0.302989,0.136388,0.231877,0.619889,-0.333577,-0.710256
-0.457889,0.554204,0.496130,0.748994,0.550835,-0.368225
0.159403,0.036697,-0.226406,0.511454,0.859245,-0.010614
-0.910975,-0.130326,0.397465,0.248428,0.814822,0.523783
0.234289,-0.757830,0.533935,-0.055287,-0.843675,-0.534000
0.125231,0.262000,0.596816,0.731441,-0.038764,0.680802
-0.083754,0.385428,0.434500,0.934804,0.343370,-0.090767
0.104609,-0.478184,0.764933,0.748055,-0.637645,-0.183910
0.195521,-0.186106,0.596816,-0.260391,-0.487891,-0.833162
0.467490,-0.011085,0.781939,0.661698,0.099160,-0.743185
0.173898,0.056312,-0.679328,0.948019,0.317698,0.018119
-0.781059,0.024329,0.242614,-0.083265,-0.193176,0.977625
-0.052822,0.290921,-0.997319,-0.391910,-0.008218,0.919967
-0.442393,-0.690808,0.486905,0.358192,0.675917,0.644076
0.189864,-0.770324,0.597352,0.192838,0.958892,0.208181
0.150566,0.186236,0.861096,0.870170,0.316521,0.377650
-0.167890,0.122709,0.368815,0.083560,0.128894,0.988132
-0.622213,-0.313845,0.567300,0.804102,-0.282772,0.522933
0.532184,0.192233,0.704623,0.343474,0.006517,-0.939139
0.187626,-0.646210,0.529138,0.241554,0.807012,0.538872
0.088937,0.538089,0.639557,0.659586,0.343735,0.668425
0.500898,-0.292793,0.557595,-0.695876,0.154867,0.701265
-0.438977,-0.262374,-0.103587,0.649507,-0.633072,0.421142
0.036204,-0.032884,0.820486,0.171739,-0.390246,-0.904552
-0.458654,0.267498,0.667780,0.687168,0.246357,0.683453
0.193754,0.086857,-0.755063,0.024793,-0.998520,0.048412
-0.133188,-0.394795,0.631556,-0.580784,-0.031034,-0.813466
-0.286965,0.091542,0.508571,-0.615239,-0.631061,0.472486
-0.120107,0.616667,0.668742,0.210415,-0.695680,0.686844
0.106023,0.714735,0.542349,0.818206,0.573374,-0.042194
-0.406158,-0.517350,0.704142,-0.611330,-0.639001,-0.466854
-0.280542,0.144070,0.198842,0.658553,0.246550,-0.711001
0.186270,0.094165,-0.573817,0.958904,-0.282988,-0.020530
-0.244779,-0.696054,0.357144,0.188014,-0.294380,0.937012
-0.328856,-0.416846,0.638952,0.138336,0.743582,0.654178
-0.362381,-0.916237,0.393134,-0.279239,0.261734,-0.923862
-0.423598,0.563510,0.208850,0.153405,-0.166092,0.974105
-0.471263,0.840595,0.360278,0.752232,0.330262,-0.570152
-0.326146,-0.943221,0.316644,0.856321,0.389071,0.339615
-0.519754,0.735970,0.702162,-0.604953,0.676526,0.419934
0.376872,-0.346449,0.571232,-0.520459,-0.144316,0.841603
0.055470,-0.409099,0.722055,-0.261221,-0.346696,0.900869
-0.279364,-0.462881,0.569033,0.779656,0.625052,0.038046
0.111562,-0.211718,-0.071651,0.858321,-0.431856,-0.277102
-0.749066,-0.129453,0.123947,0.138745,-0.372117,0.917758
0.271703,0.508482,0.698038,0.036799,-0.115533,0.992622
-0.191517,-0.587308,0.661443,0.213550,-0.938321,0.271939
-0.254325,-0.632153,0.647888,0.444921,-0.142138,-0.884219
-0.427958,0.559637,0.595345,0.383133,-0.406588,0.829395
-0.576904,-0.143757,0.394537,0.468245,0.198758,0.860954
-0.709885,-0.231081,0.405053,0.632343,0.673742,0.382380
0.016055,-0.319152,0.577968,0.931104,0.084521,0.354826
-0.649846,-0.151005,0.117760,0.514861,0.339747,0.787077
0.408338,-0.037509,0.738208,0.350730,0.933038,-0.080179
-0.097011,0.127082,0.807069,-0.345686,-0.055482,0.936708
-0.251967,-0.017268,0.575095,-0.602327,0.795001,0.071942
0.121342,-0.269495,0.784661,0.717700,0.689955,-0.094177
0.450049,-0.165809,-0.964133,-0.094835,-0.060644,0.993644
-0.373811,-0.443643,0.334337,-0.311400,-0.948031,-0.065329
-0.246194,0.242263,0.777911,-0.114012,-0.754977,0.645764
-0.897070,-0.019956,0.388268,-0.681931,-0.432311,-0.589980
-0.223215,-0.093163,0.375125,-0.260785,0.824105,-0.502834
0.470792,-0.036822,0.735294,0.004077,-0.802689,0.596385
0.188863,0.014775,0.993291,-0.586546,0.793239,-0.163507
-0.678658,0.025267,0.349775,-0.634211,0.028115,-0.772649
0.158873,-0.056060,0.618331,-0.293042,-0.363524,0.884295
-0.522640,-0.059182,0.530361,0.121464,0.179219,0.976282
0.053291,-0.323338,0.825133,0.293269,0.351946,-0.888891
-0.399676,0.368001,0.402978,0.239924,-0.656503,0.715150
0.124347,-0.144508,0.443904,0.924310,-0.036046,0.379936
0.278360,-0.203597,0.588884,0.374688,0.408729,0.832196
-0.212315,0.446953,0.774652,0.923845,0.331436,0.191471
-0.057358,-0.292480,0.623926,-0.537404,0.184661,-0.822859
-0.329976,0.189545,0.777952,0.103621,0.805604,0.583323
0.453174,0.078237,0.830879,0.477743,-0.841011,0.253894
0.678360,-0.137322,0.595950,0.860597,0.230896,-0.453938
-0.159878,-0.265309,0.503361,-0.150757,0.753965,0.639382
-0.084343,0.041569,0.708335,-0.373745,-0.900415,-0.222638
-0.241363,-0.997125,0.407886,-0.360909,0.838630,0.407976
0.771571,-0.027265,0.317208,0.766062,0.304514,0.566057
-0.508205,0.630407,0.424231,0.790413,0.019883,0.612251
-0.228577,-0.493487,0.342640,-0.001147,0.955123,0.296206
0.518987,0.284364,0.300559,0.307130,-0.247055,-0.919040
0.216909,0.052438,0.961370,0.380427,0.910457,0.162307
-0.663515,-0.305786,0.384006,0.513278,0.390034,-0.764473
-0.537841,-0.071176,0.393354,0.588658,-0.577793,-0.565364
-0.877980,-0.109091,0.102569,-0.937923,-0.100216,0.332051
0.155397,0.030639,-0.543682,0.977213,-0.211031,0.022826
-0.353898,0.361318,0.556151,-0.097923,-0.599309,0.794506
-0.177907,-0.774571,0.563534,-0.625181,0.613217,-0.482819
0.560051,0.300105,0.372843,-0.770140,0.306054,0.559657
0.188392,0.484372,0.689075,0.213097,-0.421127,0.881613
0.027661,-0.315157,0.717615,-0.051051,0.926900,0.371820
0.481454,-0.559324,0.488170,-0.486433,-0.580904,0.652636
-0.532186,-0.046189,0.225911,-0.370444,0.641599,-0.671656
0.202474,-0.198851,0.704087,0.591319,-0.101205,-0.800062
0.366562,0.055625,0.820321,0.621700,-0.648198,-0.439692
0.055648,0.358382,0.603195,-0.214942,-0.555594,0.803191
0.143613,0.184612,0.850153,0.974098,0.203409,0.098783
-0.849168,-0.070425,0.114983,0.524255,0.138469,-0.840228
-0.661807,-0.046628,0.386893,0.338152,-0.831111,-0.441484
0.094121,0.298481,0.852037,0.908815,0.207014,-0.362216
-0.464901,-0.293605,0.113883,0.772548,-0.027847,-0.634345
0.201884,-0.225458,0.390330,0.493541,-0.824460,-0.276917
0.324199,-0.266686,0.602136,-0.288404,0.943652,0.162307
0.007689,-0.452950,0.716707,0.574069,0.801487,0.167522
0.226867,-0.119895,0.770762,0.969711,-0.230399,-0.081097
-0.410046,0.762268,0.363839,0.666391,0.396023,-0.631735
0.177551,0.018835,0.501258,0.899509,-0.401969,0.171183
0.118219,-0.064741,0.709998,0.892091,-0.017782,0.451506
0.292028,-0.049624,0.910106,-0.764376,0.079651,-0.639832
0.013108,-0.245820,0.913130,-0.675824,-0.635791,-0.372869
0.158992,0.061558,-0.394042,0.992494,0.099280,-0.071405
-0.404037,0.804994,0.326652,-0.674851,-0.186413,-0.714021
0.065958,0.013651,0.836186,-0.066388,0.897112,0.436787
0.668815,0.026891,0.812733,-0.202833,-0.979178,0.008274
0.244484,0.031077,0.927070,-0.622029,0.695241,0.360167
-0.102608,0.110094,0.246024,-0.660201,0.711229,0.241428
-0.834733,-0.007901,0.124648,0.667431,0.433820,-0.605258
0.391425,0.009651,0.924307,0.345431,-0.919714,-0.186555
-0.337163,-0.755958,0.623926,0.987576,-0.134969,0.080478
0.232228,0.036948,0.902421,0.065457,0.667846,-0.741415
0.072262,-0.307471,0.770473,0.437681,-0.561306,0.702403
-0.771749,-0.329023,0.410332,-0.254451,0.956082,0.145471
-0.504965,-0.393609,0.409906,0.469818,0.777702,0.417673
0.288317,0.293232,0.933256,-0.564183,0.779139,-0.273201
-0.727500,0.247387,0.363495,0.815735,-0.190949,-0.545999
0.224803,-0.407540,0.796456,0.363408,-0.178387,-0.914392
-0.455179,-0.249633,0.413357,0.579670,-0.100884,-0.808582
-0.083696,-0.289983,0.755296,-0.495631,0.868353,0.017692
-0.285374,-0.533465,0.554845,0.196840,0.753883,0.626829
-0.530890,0.467006,0.449485,0.988579,0.150146,-0.012954
-0.189160,-0.390986,0.313537,-0.061916,0.692504,0.718752
0.099778,-0.304974,0.722316,0.675075,-0.724694,-0.138172
-0.216440,-0.495237,0.746085,0.027101,0.967867,0.249998
0.210369,0.012087,0.684854,0.973954,-0.067810,-0.216369
0.010222,0.288111,0.784935,-0.089220,-0.643998,0.759807
-0.031434,-0.343952,0.707263,-0.074727,0.379321,-0.922243
0.182323,0.001657,0.988535,0.883850,-0.400231,0.242125
0.567948,-0.095035,0.604913,-0.707402,-0.260454,0.657073
0.714537,-0.018271,0.593833,-0.632232,0.758002,0.160362
-0.191871,0.654582,0.688910,-0.371442,0.714175,-0.593283
-0.119341,0.504170,0.747996,-0.852670,0.483586,-0.197731
0.201178,-0.305473,0.764493,-0.689648,0.264741,0.674016
0.236411,0.203037,0.681060,0.984213,0.071033,0.162105
-0.217265,0.104657,0.681637,0.072850,-0.892776,0.444571
-0.401917,0.691059,0.077192,0.990236,-0.089273,0.107069
0.231757,0.052564,0.701351,0.940529,0.090289,-0.327497
0.111268,0.160311,0.876012,0.055559,0.949735,0.308086
-0.005274,-0.542210,0.485160,0.518075,-0.670505,-0.531057
0.060715,0.168184,-0.283045,-0.527624,-0.848966,0.029493
0.126057,-0.279179,0.790063,0.631714,0.615159,0.471717
0.155809,-0.070925,0.712817,0.710665,0.024957,0.703088
-0.189631,0.353697,0.595840,0.114759,0.736439,0.666700
0.252791,-0.060620,0.234709,-0.629634,0.372831,0.681585
0.117512,-0.136323,0.500914,0.881787,-0.163774,0.442300
0.492235,-0.270933,0.599607,-0.142833,-0.335980,-0.930976
0.097304,-0.175740,0.540012,-0.770054,0.620617,0.147819
-0.087878,-0.313845,0.721106,0.046253,0.977812,0.204316
-0.539138,0.177303,0.404380,-0.680376,-0.144566,0.718463
0.253086,-0.520220,0.708129,-0.124128,-0.905137,0.406595
0.104255,0.409789,0.862210,0.093813,-0.924831,0.368628
0.227457,-0.110216,0.759544,0.832629,0.478703,0.278519
-0.555989,-0.101657,0.211999,0.044812,-0.930481,0.363589
-0.306055,-0.604795,0.586010,-0.066209,0.813087,0.578364
-0.226455,0.208721,0.596129,0.076405,0.995870,-0.049034
0.158166,-0.283300,0.729905,0.560764,0.694800,0.450330
-0.492356,-0.711235,0.464731,-0.770560,0.156930,0.617747
0.207953,-0.062617,0.882556,0.960358,-0.191740,-0.202355
0.557638,0.075488,0.355810,0.678814,0.248549,0.690966
-0.090531,0.559889,0.654266,-0.485972,0.181266,-0.854970
0.214257,-0.254943,0.857343,0.841312,0.403121,0.360122
-0.065429,0.864270,0.146121,0.151227,-0.029488,0.988059
-0.539078,0.592931,0.594534,0.921798,-0.026120,-0.386789
0.379169,-0.383617,0.637041,-0.262149,0.500494,0.825096
-0.538666,0.349576,0.585323,0.587893,0.808424,-0.028839
0.564884,0.153628,0.726124,0.953537,-0.121779,-0.275566
0.041801,-0.543270,0.782159,-0.269564,0.875228,0.401636
0.585209,0.342706,0.503444,0.738861,0.452971,-0.498900
-0.077509,-0.198412,0.577955,-0.614964,0.717625,-0.326854
-0.491119,0.736282,0.706878,0.068128,0.970602,0.230845
0.161820,0.037196,-0.235672,-0.566550,-0.818275,-0.097199
0.118161,-0.669820,0.728324,0.866726,-0.370405,-0.334046
-0.023774,0.006403,0.829628,0.693278,0.702046,0.162777
-0.364974,0.755272,0.481805,0.542927,0.385295,0.746176
-0.100781,0.363381,0.770253,0.953139,-0.254643,-0.163350
0.851110,-0.197040,0.642155,-0.458464,0.536864,0.708228
-0.299161,-0.955902,0.335560,0.795192,-0.599906,-0.088219
-0.425365,0.385554,0.412876,-0.065267,-0.797084,0.600331
0.706348,0.173616,0.760245,0.666240,0.525325,-0.529300
0.028604,0.061245,0.180187,-0.481281,0.544914,0.686613
-0.774166,-0.183109,0.116977,0.094003,-0.152671,0.983796
0.009927,0.411539,0.720873,-0.653952,0.045744,-0.755152
0.121225,-0.125454,0.232565,-0.781875,0.527862,0.331713
0.032257,-0.624410,0.540204,0.642595,0.758693,0.107036
-0.653028,-0.180799,0.228935,0.366801,0.063783,-0.928110
0.731151,-0.479057,0.556715,-0.111879,-0.762064,0.637763
0.101074,0.002343,0.827511,-0.127239,0.857819,0.497953
-0.345353,0.482748,0.467274,0.906316,0.297739,-0.299906
0.492886,-0.535836,0.671148,-0.613343,0.754377,-0.233933
0.050698,0.055374,0.860574,0.385394,0.226772,0.894453
-0.696687,-0.110151,0.126655,0.328022,-0.003897,0.944662
-0.013110,-0.249507,0.700086,-0.126117,0.671399,0.730286
-0.455474,0.607861,0.635927,0.944874,0.143892,-0.294122
-0.835618,-0.223773,0.113897,-0.319854,-0.042175,0.946528
-0.153927,0.969207,0.155263,-0.291385,-0.192531,0.937031
0.126173,-0.258313,0.811578,-0.293443,0.648171,0.702685
0.114153,0.118961,-0.983269,0.366637,-0.035848,-0.929673
-0.134484,0.782005,0.714590,-0.908310,0.347572,-0.232738
0.161230,0.069179,-0.443739,0.991935,-0.125930,0.014358
-0.326028,-0.055560,-0.070442,0.282375,-0.091513,0.954929
-0.710475,0.030890,0.199942,0.172975,0.759668,-0.626885
-0.072794,0.614605,0.659325,-0.127955,-0.798427,0.588338
0.154042,-0.036944,0.623087,0.056517,-0.384894,0.921229
0.660979,0.071615,0.763421,0.997080,-0.073173,0.021830
0.196111,-0.513976,0.821517,-0.430550,0.706380,0.561831
0.854174,-0.044379,0.190333,0.806404,-0.056642,-0.588647
0.591161,-0.066990,0.178290,-0.171266,-0.248321,-0.953417
0.040034,-0.644147,0.526319,-0.314214,-0.873200,-0.372546
-0.105377,0.035698,0.815977,-0.501370,-0.695894,-0.514159
-0.442393,-0.047375,-0.056832,-0.361566,0.356930,-0.861319
-0.270408,-0.000654,0.194429,0.332163,0.620819,-0.710106
0.388066,-0.342888,0.622689,-0.457833,-0.792041,-0.403806
0.165060,-0.098409,0.755214,0.843013,-0.222712,-0.489621
-0.304699,0.489305,0.617011,0.679445,0.709786,0.185899
-0.071027,0.447765,0.746278,-0.583975,0.113657,-0.803776
0.758607,0.170307,0.530402,0.642939,0.451199,-0.618910
0.638119,0.414475,0.567410,-0.248414,-0.968654,-0.000853
0.203476,0.088980,0.908291,-0.116143,0.593676,0.796278
-0.200295,0.411974,0.740999,0.767144,-0.562509,-0.308339
0.052761,0.378809,0.866059,0.342200,-0.835335,0.430250
-0.230698,0.178363,0.742016,0.074595,-0.720879,0.689035
-0.084991,0.141885,0.592293,0.329078,0.694695,0.639614
0.049697,-0.718166,0.571081,0.109767,0.758320,0.642575
-0.080278,-0.760392,0.524298,0.620159,0.285277,0.730766
0.810456,0.081233,0.430596,0.737692,0.135880,-0.661322
0.559817,0.008713,0.805130,0.777068,0.534981,-0.331603
0.038502,-0.140509,0.875393,0.718740,-0.472009,0.510510
0.277360,-0.089789,0.866279,0.552597,0.497034,0.669024
-0.355841,0.826294,0.452702,0.411385,0.727478,0.549124
0.058241,0.509168,0.396791,0.005177,-0.393573,0.919279
0.307761,-0.468066,0.672042,0.593525,0.704433,0.389233
0.306996,-0.175176,0.854319,0.795530,-0.270789,-0.542037
-0.619385,-0.302976,0.545153,0.876538,0.466341,0.119197
0.332682,-0.211093,0.733314,-0.024056,-0.018479,0.999540
0.036146,0.174490,0.511293,0.263404,0.964632,0.010182
0.317953,0.004592,0.751241,0.416591,0.800379,-0.431099
-0.914509,-0.081355,0.119327,-0.013170,-0.056238,0.998331
0.205714,-0.000654,-0.972973,0.718940,0.246130,-0.650035
0.116629,-0.716980,0.738455,-0.898927,0.438066,-0.005275
0.186213,-0.549953,0.723718,-0.021166,0.879553,0.475329
0.353364,-0.461257,0.740586,-0.197351,0.351941,0.914981
0.136483,-0.730285,0.046397,0.362021,-0.860850,0.357601
-0.441096,0.181989,0.685830,-0.661399,-0.156960,-0.733427
-0.600708,-0.379118,0.564565,-0.599630,-0.283762,-0.748280
-0.356489,-0.162309,0.519088,-0.625147,0.117751,-0.771574
0.446457,0.195668,0.838427,-0.111663,0.478961,0.870705
0.106258,-0.442332,0.712129,0.487091,0.756064,-0.437160
0.347355,0.393922,0.772467,0.461978,-0.684110,0.564420
0.112328,-0.136510,0.591771,-0.283628,0.623959,0.728169
0.177080,-0.191165,-0.980355,-0.271527,-0.104963,0.956690
-0.541554,-0.055747,0.224963,0.401967,-0.689291,0.602744
-0.521639,0.632470,0.437470,0.722042,0.168531,0.671009
-0.532362,-0.761204,0.476471,-0.674556,0.722149,0.153218
0.068432,-0.362629,0.728214,0.828436,0.535653,0.163615
0.648019,0.089853,0.711222,0.880742,0.451725,-0.142263
0.524758,0.123647,0.500144,0.609592,0.567770,-0.553204
-0.496363,0.669199,0.448097,0.264478,-0.642423,0.719267
-0.276477,-0.018770,0.537414,-0.600723,0.606317,-0.521068
-0.074621,-0.323277,0.765194,-0.306896,0.465336,0.830227
-0.036443,-0.016334,0.351494,-0.437268,-0.723739,-0.533853
-0.205421,0.200414,0.711373,-0.334319,0.942460,0.000302
0.725260,-0.163807,0.629645,0.721936,0.001921,-0.691958
-0.487289,0.520724,0.435958,-0.398314,0.504063,-0.766333
0.374754,-0.611543,0.565857,0.094359,-0.445257,0.890417
-0.256328,-0.549767,0.644987,0.933353,-0.339459,-0.116702
0.342525,0.534029,-0.972491,-0.406534,0.000112,0.913636
0.171659,0.265752,0.683219,0.899433,-0.057776,0.433223
0.058888,-0.309347,0.687081,0.099803,-0.096342,0.990332
-0.461012,0.189171,0.661360,0.960650,-0.249177,-0.122730
-0.250612,-0.149003,0.496144,0.273970,-0.224167,0.935248
0.289321,-0.426777,0.734482,0.140096,0.333583,0.932253
0.149741,-0.072987,-0.080257,0.963677,-0.227483,-0.139919
-0.101547,-0.594677,0.642993,0.935093,0.074438,0.346497
0.805094,-0.008462,0.286688,-0.311962,-0.911386,0.268431
-0.566770,0.475375,0.355797,-0.611904,0.100896,-0.784470
0.488290,0.112278,0.901830,0.548011,-0.829631,-0.106749
0.587450,-0.598238,0.522470,0.295488,0.944054,-0.146456
0.316187,-0.205595,0.632174,-0.596883,-0.007872,0.802289
0.866016,-0.294417,0.667285,0.678020,-0.288146,-0.676211
-0.814466,-0.390861,0.432150,-0.000473,-0.263025,0.964789
0.279482,-0.193601,0.664261,-0.162000,-0.566425,-0.808034
0.174604,0.067555,0.100452,0.981714,0.151784,0.114889
-0.005157,0.141325,0.019879,0.357640,0.855851,-0.373648
0.252496,0.459259,0.778034,-0.266206,0.565724,-0.780443
0.037560,-0.170242,0.189563,0.135859,0.601745,0.787049
0.151922,0.064120,-0.414608,0.998896,0.028045,-0.037685
-0.492239,0.220902,0.226392,0.582688,0.423668,0.693528
-0.379056,0.116590,0.654101,0.984183,-0.141593,-0.106467
-0.376228,-0.522534,0.445237,-0.011108,0.596561,0.802491
-0.629048,-0.430212,0.475701,-0.020564,-0.848439,0.528894
-0.542967,-0.164120,0.396104,0.356639,0.169038,0.918823
0.586389,0.136327,0.728159,0.848870,0.366415,-0.380999
0.422359,0.061683,0.926548,0.251734,-0.905140,-0.342566
0.374397,0.523411,0.614165,-0.404695,-0.889857,0.210656
-0.424775,0.712047,0.707263,-0.386548,0.910399,0.147491
0.321549,0.238455,0.551944,0.942188,0.160757,-0.294006
0.103254,-0.271558,0.545428,0.943530,-0.330695,0.019822
0.005507,0.837285,-0.070057,0.775452,-0.553502,-0.303824
-0.076684,0.325588,0.459438,0.717271,0.437092,0.542654
0.068375,0.197101,0.840324,0.110350,-0.252803,-0.961204
-0.626103,0.453953,0.543627,0.758849,-0.220372,-0.612850
-0.544204,-0.082358,0.204658,0.239739,0.968302,-0.070110
0.229222,0.034638,0.954262,0.368119,0.854563,-0.366346
-0.693033,0.362755,0.365351,-0.558135,0.788797,-0.257460
-0.760673,-0.179362,0.123520,-0.087482,0.136920,-0.986712
-0.161351,0.887880,0.368747,-0.221809,0.965182,0.138654
-0.224335,-0.552142,0.582491,-0.194849,0.941920,0.273535
0.248490,0.070242,0.952544,0.070470,-0.997452,-0.011097
-0.151334,-0.830164,0.225169,0.814602,0.069545,-0.575837
0.051169,0.074303,0.907067,-0.284524,-0.658031,-0.697166
-0.346060,0.416160,0.586107,-0.375427,0.608012,-0.699554
-0.312064,0.263190,0.794463,0.785516,-0.329267,0.523973
-0.004096,0.408352,0.738662,-0.450296,0.405650,-0.795413
0.448697,0.273495,0.792991,-0.467211,-0.723797,0.507772
-0.544383,0.519412,0.448069,-0.169948,-0.854506,0.490853
-0.817648,-0.020894,0.409425,-0.171091,0.726601,0.665416
-0.466962,-0.122332,0.105649,0.566714,-0.084574,0.819563
-0.274238,-0.819481,0.380734,-0.297085,-0.453769,-0.840139
0.170068,-0.638463,0.773291,0.239055,0.843786,0.480498
0.667636,-0.455946,0.335822,0.099397,0.406489,0.908233
-0.969834,-0.093349,0.087104,0.820304,0.537070,-0.196614
-0.108560,0.327837,0.775244,-0.843625,0.271357,0.463316
-0.060186,-0.203346,0.516201,-0.683913,-0.049980,0.727850
0.255618,-0.122831,0.858195,0.379914,0.069724,0.922390
-0.027428,0.424467,0.736448,0.492964,-0.463518,0.736300
0.167888,-0.067676,0.539902,0.937472,-0.305031,0.167638
0.446457,0.371063,0.814754,0.490631,0.084942,-0.867217
-0.214437,0.067867,0.675273,-0.053938,-0.915547,0.398577
-0.300812,0.766328,0.372830,-0.123086,-0.662327,0.739035
0.189393,0.041508,-0.834866,0.213171,0.974903,0.064212
-0.743350,0.080174,0.385766,0.290340,-0.733174,-0.614946
0.115980,0.258878,0.596472,0.761186,-0.068457,0.644911
0.099131,-0.417094,0.750594,0.823378,0.564317,0.059968
0.024008,-0.543522,0.723251,-0.399722,0.258479,0.879438
0.290910,0.409416,0.347631,-0.703763,0.259018,0.661534
-0.357373,0.368874,0.611636,-0.711137,-0.014020,0.702914
0.219383,-0.762828,-0.002351,-0.620945,0.764382,-0.173630
0.500251,0.124897,0.902613,0.531450,-0.839122,-0.115915
-0.538255,0.604986,0.581790,0.984771,-0.169878,0.036976
0.291737,-0.158748,0.595111,0.504031,-0.544517,0.670413
-0.180086,-0.006338,0.880040,0.113308,0.338078,0.934272
-0.335396,0.138325,0.701929,0.873681,0.209239,0.439205
0.083752,-0.716107,0.568043,0.185399,0.748409,0.636798
-0.166358,0.003406,0.653827,-0.321129,-0.773147,0.546919
0.631344,0.031077,0.755337,0.550054,-0.455923,-0.699696
0.136721,-0.438459,0.561513,0.368130,-0.821144,0.436122
0.307643,-0.181924,0.600377,-0.159950,-0.928387,0.335430
0.814462,-0.083669,0.187281,-0.758327,0.059088,0.649191
-0.548624,-0.793995,0.488211,-0.574458,0.815530,-0.070061
0.514096,-0.013147,0.759613,0.254459,0.946042,-0.200635
0.141788,0.596240,0.699867,0.270479,0.342012,0.899927
-0.184388,0.270746,0.753825,-0.793752,0.327492,-0.512549
-0.180322,-0.660762,0.587248,0.798418,-0.494900,-0.342932
0.017116,-0.040132,0.612777,-0.116576,0.142918,0.982845
-0.723083,-0.104280,0.396214,0.160151,0.702171,0.693763
-0.524172,-0.272492,0.439188,-0.192094,0.531196,0.825185
0.684372,0.128332,0.513617,-0.533525,-0.466356,0.705594
-0.539078,-0.753332,0.472498,-0.694672,0.711915,0.102994
0.015230,0.268748,0.729520,0.213662,-0.069721,0.974416
-0.437797,-0.198851,0.100837,0.651438,-0.123903,0.748516
0.042922,0.084668,0.584732,0.595805,0.438774,0.672676
-0.343527,-0.358256,0.656191,-0.408706,0.757901,-0.508474
0.191456,0.621414,0.527048,0.683779,0.604853,-0.408165
-0.326206,-0.142758,-0.077123,-0.429858,0.809438,-0.400041
-0.179380,-0.384303,0.740188,0.935582,-0.352375,-0.022775
-0.495184,-0.208908,0.526072,0.452683,-0.697420,0.555593
-0.139432,-0.091538,0.486658,-0.644145,-0.263280,-0.718165
-0.765445,-0.304349,0.374548,-0.326559,-0.358406,0.874588
-0.619798,-0.201474,0.112962,0.021217,0.883746,0.467485
-0.167124,-0.596553,0.476787,0.885231,0.351275,0.304913
-0.391488,-0.209282,-0.130092,0.085161,-0.976199,0.199458
-0.741112,-0.334894,0.389863,0.301912,0.949818,0.081825
0.454235,-0.187044,0.640148,0.208736,0.723802,0.657678
-0.474386,0.124520,0.381078,0.834603,0.306066,-0.457997
-0.512683,-0.301226,0.088272,0.782405,0.269692,-0.561346
0.161525,0.169621,0.079130,0.838726,0.281261,-0.466295
-0.037385,0.331398,0.410676,-0.346097,-0.855201,-0.385807
0.848931,-0.175362,0.655559,-0.563721,-0.127545,0.816058
0.979553,-0.291546,0.694395,0.882235,-0.213496,-0.419621
0.110619,-0.664449,0.730647,0.997970,-0.051578,-0.037366
0.761261,0.081859,0.423502,0.753277,0.153323,-0.639582
0.754777,0.127642,0.343383,0.069156,0.953623,-0.292953
-0.467906,0.315843,0.568455,0.531257,0.839160,0.116522
0.177433,0.061245,0.893499,0.520549,0.843008,-0.135524
-0.508029,-0.118771,0.520037,0.037682,-0.365034,0.930231
-0.380586,0.734411,0.072353,-0.186802,-0.600241,0.777699
-0.094360,-0.324150,0.706988,-0.217329,-0.961448,0.168478
0.589100,-0.416846,0.600995,-0.086223,-0.454572,-0.886527
-0.658271,-0.449328,0.585007,-0.613177,-0.692025,-0.380941
0.100425,0.343765,0.865234,0.954257,0.204692,0.217933
-0.707646,-0.281051,0.589915,-0.774615,0.260289,-0.576387
-0.266050,-0.637838,0.633700,0.899019,-0.431309,0.075746
-0.210193,-0.593865,0.655765,0.893699,0.345597,-0.286122
-0.564650,-0.039007,0.112660,-0.269903,0.455031,0.848587
0.462247,0.371749,0.681775,-0.361316,-0.806992,0.467134
0.242006,-0.301165,0.856711,0.265028,0.795423,0.545034
-0.107380,0.111466,0.891794,0.110692,-0.946638,0.302694
0.075856,-0.054123,0.883422,0.889741,0.344358,-0.299631
-0.332215,0.212907,0.087310,0.646382,-0.364076,-0.670551
-0.275299,-0.995002,0.405576,-0.660356,-0.739162,0.132553
0.185269,-0.057432,0.937820,0.461378,-0.731329,0.502283
-0.005923,0.373811,0.728874,-0.216123,0.152680,-0.964355
-0.084108,0.254383,0.166838,0.768669,0.366225,0.524430
-0.212434,-0.714856,0.557375,0.555810,0.468407,0.686782
0.343291,-0.157189,0.875696,-0.439873,0.666081,0.602368
-0.949685,0.011901,0.348015,0.514587,0.566582,-0.643572
0.067079,-0.166308,0.865605,0.270874,0.932811,0.237680
0.164413,0.237456,0.528340,-0.057898,-0.454739,0.888741
0.182559,-0.001405,0.512723,0.568032,0.820321,-0.066428
0.547914,0.092789,0.794641,-0.136390,0.975269,-0.173920
0.077802,0.589244,0.625548,0.646861,0.195915,0.737013
-0.535721,0.524597,0.461060,0.790924,0.315927,-0.524050
0.563704,-0.341642,0.567507,0.426790,0.297823,0.853904
0.408219,0.132640,0.802326,-0.333741,-0.909780,0.246815
0.166651,-0.590868,0.502399,0.310700,0.769258,0.558308
-0.067256,0.064306,0.814781,0.871730,0.480173,0.097576
-0.782944,-0.230769,0.383250,0.709948,0.389015,-0.587061
0.907497,-0.506793,0.508338,0.634072,-0.743219,0.213488
-0.677773,-0.213841,0.217841,-0.283871,0.201943,0.937356
-0.684962,-0.213403,0.419942,0.416544,0.574187,0.704841
0.676123,-0.448890,0.590877,0.707239,0.486379,0.513077
0.075680,0.721166,0.169272,0.477028,0.676813,-0.560685
0.243423,-0.054562,0.860697,0.079295,0.949188,0.304558
0.278831,0.227021,0.909886,-0.577646,0.610494,-0.541870
-0.587982,0.414036,0.557031,0.512546,0.688794,-0.512698
0.183149,0.034138,0.996343,-0.586546,0.793239,-0.163507
-0.296568,-0.054123,0.200698,0.145096,-0.766707,0.625386
0.163057,0.553327,0.703592,0.070399,0.206932,0.975819
-0.613611,-0.344387,0.542060,0.161089,0.621620,0.766576
0.721844,-0.432835,0.336482,0.381749,0.534713,0.753890
0.177138,-0.239076,0.855322,-0.035793,-0.064239,0.997292
-0.780351,-0.146132,0.381559,0.810759,-0.210641,-0.546169
-0.719429,-0.311844,0.367606,-0.310233,-0.380779,0.871070
0.442921,-0.315904,0.416821,-0.407500,-0.727265,-0.552295
-0.451054,-0.150002,-0.078250,-0.185679,-0.906653,0.378818
0.207599,0.625661,0.534966,-0.499578,-0.229258,0.835382
0.263630,0.004592,0.724777,0.044186,-0.870853,0.489553
0.591693,0.260315,0.505987,0.844040,0.268630,-0.464149
-0.461012,-0.062305,0.401548,-0.235995,-0.777627,-0.582754
0.155928,0.417784,0.391732,-0.208525,0.201199,-0.957098
0.005567,-0.255816,0.507650,-0.288044,-0.909360,0.300159
-0.539021,-0.718478,0.508791,-0.710012,0.683249,0.170451
-0.770571,-0.126331,0.400489,-0.183857,-0.578927,0.794380
0.684487,-0.200475,0.600239,0.802577,0.047121,-0.594685
-0.237119,0.322340,0.553732,0.524191,-0.395999,0.753929
0.282779,-0.384051,0.439793,0.201345,0.349021,0.915229
0.718366,-0.560384,0.347012,-0.355447,-0.453288,-0.817427
0.419709,0.064806,0.366822,0.037116,0.346249,0.937408
0.080512,-0.350761,0.825628,0.043798,-0.984824,0.167937
-0.078922,0.564448,0.737741,-0.675031,-0.655788,0.338045
-0.529946,0.610297,-0.022463,0.513890,-0.857570,0.022149
-0.403389,0.662703,0.631240,0.148108,0.071206,0.986405
-0.472913,0.626347,0.623541,0.929512,0.118797,-0.349134
0.192811,-0.364688,0.716446,0.772108,-0.387733,-0.503500
-0.171956,-0.467189,0.751791,0.356672,0.665868,0.655290
-0.594462,-0.188420,0.120042,0.171273,0.543666,0.821641
-0.177258,0.667948,0.696760,-0.068567,-0.757218,0.649554
-0.189925,0.379370,0.171719,-0.285268,0.377575,-0.880942
0.185504,0.012087,0.492556,-0.956020,0.052501,-0.288564
-0.460717,0.749901,0.611113,-0.718204,0.111456,0.686848
0.263396,0.603736,0.681115,0.772365,0.603534,0.197989
0.145087,0.087417,0.815565,-0.148440,0.948117,0.281141
-0.547268,0.563510,0.457170,-0.420074,-0.262859,0.868587
-0.570954,-0.413659,0.548164,0.814178,0.080149,0.575057
-0.610842,-0.098660,0.409439,0.043770,0.698569,0.714203
-0.761910,-0.324276,0.441539,-0.414858,0.742188,0.526355
-0.217795,0.685813,-0.327711,0.015731,-0.149496,0.988637
-0.288026,0.114028,0.783437,0.787293,0.613333,0.063186
0.285843,0.213594,0.199337,0.745197,-0.064959,-0.663673
0.235587,0.355008,0.714136,0.991881,-0.126487,-0.013135
0.363854,-0.233266,0.586134,-0.533730,0.744052,-0.401895
0.009043,0.312221,-0.994762,0.359897,-0.052081,-0.931537
0.540549,-0.213903,0.644946,-0.066377,0.709562,0.701509
0.573838,-0.325462,0.589365,0.783327,-0.580930,-0.221177
0.569951,-0.071363,0.193591,0.077193,0.274410,0.958509
-0.492591,-0.122770,0.106652,0.235816,-0.238784,0.942005
-0.320490,0.932417,0.096685,-0.241757,-0.777617,0.580401
0.203121,-0.157189,0.187501,0.822989,0.255010,0.507601
-0.318075,-0.767887,0.343121,-0.437479,0.306685,0.845314
0.037560,0.344391,0.828308,0.938260,0.254952,-0.233812
0.415994,-0.201535,0.898407,-0.446835,-0.831795,-0.329325
0.331917,0.153067,0.870733,0.893371,-0.110674,0.435477
-0.114980,0.006967,0.817352,-0.762794,-0.291260,-0.577333
-0.394315,0.603614,0.497986,0.839403,0.542568,0.031963
-0.301224,0.141447,0.730537,-0.513787,0.837486,0.186117
0.074560,-0.740465,0.573404,0.254526,0.706772,0.660068
0.367446,-0.120707,0.532217,0.847014,0.476595,-0.235423
0.550507,-0.196415,0.569335,-0.688279,0.443499,0.574091
0.211959,-0.365626,0.786585,-0.042549,0.366621,0.929397
-0.478156,0.271935,0.678420,0.919830,0.055516,0.388369
0.193694,-0.334581,0.861495,-0.630355,0.417999,0.654163
0.511090,0.282240,0.821779,0.499372,-0.001104,-0.866387
-0.384947,-0.366499,0.419997,-0.273161,0.270147,0.923257
-0.033084,-0.082793,0.838262,0.697324,0.448260,0.559288
0.532361,-0.066304,0.187597,-0.171668,0.288263,0.942038
-0.552218,-0.441581,0.569637,0.192744,0.630275,0.752066
-0.490000,-0.405538,0.430734,0.434476,0.841791,0.320342
0.150271,0.049754,-0.344909,0.995538,-0.089703,-0.029282
0.570774,-0.070677,0.601188,0.186892,0.374992,0.907994
-0.686494,0.245512,0.376225,-0.638555,0.300379,0.708534
-0.195287,0.411665,0.515624,0.317101,0.775206,0.546354
-0.298514,0.317906,0.795384,0.808523,-0.264409,0.525717
-0.231876,0.464570,0.478396,0.178054,0.789494,-0.587364
0.334747,0.368565,0.581268,0.920865,-0.388228,0.035879
0.600115,0.386804,0.547573,-0.555074,-0.690868,0.463244
-0.112742,0.113841,0.601380,-0.455601,-0.454506,-0.765410
-0.193815,0.571379,0.783547,-0.138087,-0.977771,-0.157785
-0.207072,-0.522096,-0.109402,0.200570,0.906197,0.372262
0.195226,0.016148,-0.872837,-0.248244,-0.968314,0.027260
-0.071381,-0.495863,0.098679,-0.140367,0.376891,0.915560
0.504728,-0.492115,0.679878,0.962337,-0.267368,0.049207
0.633465,0.241451,0.744848,0.736691,0.116283,-0.666157
0.074265,-0.081169,0.869372,-0.401070,0.766077,0.502265
-0.406040,0.722104,0.628518,-0.572359,0.513072,0.639657
-0.252793,-0.767449,0.665814,-0.516179,-0.837708,-0.178340
-0.069554,-0.512790,0.622840,0.886986,-0.291960,0.357792
0.091471,-0.380616,0.762582,0.968811,0.247684,0.007577
0.189393,-0.091352,0.770734,0.943691,-0.120085,0.308266
0.292266,-0.529465,0.643516,-0.477201,0.736692,0.479128
-0.443925,0.398295,-0.140210,0.900731,0.267802,-0.342004
0.178377,0.036384,-0.972134,0.826302,0.083191,-0.557050
-0.731920,-0.131763,0.119795,0.102794,-0.333926,0.936977
-0.213788,-0.756458,0.650926,0.951612,-0.305920,0.029116
0.326911,-0.193228,0.866155,0.833968,-0.014100,-0.551633
-0.354428,0.519286,0.619802,-0.284050,-0.647400,0.707240
0.719841,0.317467,0.543449,-0.571026,-0.562712,0.597733
-0.122345,-0.507605,0.731403,-0.403953,-0.854038,-0.327783
-0.055709,0.527906,0.757111,-0.399071,0.665964,-0.630266
-0.553691,-0.650895,0.450956,0.462140,-0.261247,-0.847453
-0.231640,0.125084,0.728241,-0.198513,-0.957834,0.207719
-0.156931,-0.331897,0.386041,-0.054833,-0.399285,0.915186
0.162350,-0.028263,-0.082539,0.944119,-0.292395,-0.152130
-0.298278,-0.314657,0.504901,0.227027,0.867629,0.442357
0.468375,-0.343765,-0.960462,-0.178801,-0.012092,0.983811
0.179554,-0.018580,0.981757,0.967366,-0.240815,0.078811
0.019825,0.197913,0.771518,-0.137178,-0.455010,0.879857
0.731978,0.141699,0.357996,0.491082,0.869306,-0.056086
0.436441,0.299229,0.820156,0.549318,0.101218,-0.829460
0.259034,0.411787,0.616846,0.027882,0.962493,-0.269871
-0.656209,-0.246697,0.126297,0.478757,-0.132351,-0.867914
-0.348653,-0.678440,0.552618,-0.766134,0.294979,-0.570987
-0.152513,0.330273,0.752588,-0.468761,0.178148,-0.865174
0.232405,0.050376,0.488679,0.907432,-0.305312,0.288707
0.398614,0.293422,-0.961466,0.184629,-0.103975,-0.977293
-0.720785,0.017585,0.401328,-0.403078,0.370044,0.837016
-0.364148,-0.817358,0.361625,0.962877,0.260725,-0.069925
-0.591162,-0.243948,0.553828,-0.150391,-0.988297,-0.025523
0.225511,-0.304600,0.783904,0.900812,0.414864,-0.128167
0.277536,0.226087,0.593709,-0.264033,0.646734,0.715556
0.247724,-0.270807,-0.978128,-0.341255,-0.065414,0.937692
0.116158,0.151630,0.882130,0.151020,0.927327,0.342429
-0.111329,-0.433834,0.478657,0.708117,0.154294,0.689031
-0.158582,-0.389549,0.729039,0.988840,-0.148838,0.006528
-0.530947,0.185858,0.649881,0.232253,0.877741,0.419081
-0.440330,-0.263186,0.466078,-0.488568,-0.798412,0.351908
-0.806984,-0.141882,0.239370,0.234957,0.041224,0.971131
-0.340170,-0.384928,0.399362,-0.055570,-0.893979,0.444651
0.565826,-0.006338,0.357336,0.290455,-0.211852,0.933142
0.224508,-0.374997,0.734510,-0.321289,0.440279,0.838408
0.511266,0.193106,0.176338,0.200539,0.083673,0.976106
0.202945,0.662828,0.684332,0.813351,0.340261,0.471894
-0.550744,0.253319,0.361117,0.056858,-0.007081,0.998357
0.048519,-0.485554,0.764905,0.230650,-0.657930,0.716888
-0.452056,-0.431085,0.440577,0.014057,0.453607,0.891091
0.112210,0.611730,0.413893,-0.050525,-0.595881,0.801482
0.199941,-0.298230,0.704816,-0.176319,0.474954,0.862166
-0.501488,-0.000528,0.230778,-0.433610,0.551828,-0.712368
-0.194050,-0.805676,0.369255,0.754044,0.206410,0.623549
-0.188099,0.266937,0.759228,-0.744971,0.202067,-0.635757
-0.026780,0.560014,0.403857,-0.342544,0.380901,-0.858824
0.280071,-0.069552,0.851143,-0.658685,0.065597,-0.749554
-0.247548,-0.015522,0.504049,-0.738156,0.405575,0.539106
0.010929,-0.351821,0.730028,0.420737,0.905168,0.060419
-0.313832,0.113403,0.594135,-0.479161,-0.573243,-0.664678
-0.226103,0.429717,0.184009,0.473736,-0.275285,0.836536
-0.139078,-0.661574,0.368320,-0.166299,-0.500895,0.849381
0.398732,0.007779,0.884535,-0.436738,0.839293,0.323801
-0.327265,-0.565195,0.328535,-0.355675,-0.835112,-0.419623
-0.013288,0.054813,0.736847,0.425173,-0.083929,0.901213
0.570951,0.427654,0.140086,0.317847,0.947757,-0.027017
-0.074326,-0.066365,0.429854,-0.649898,0.289775,0.702612
-0.287614,-0.775070,0.309660,-0.531478,0.294864,-0.794095
-0.165887,-0.469812,0.361392,0.280028,-0.815529,0.506455
0.684372,-0.532214,0.586492,0.930748,-0.206456,0.301801
-0.333393,0.703804,0.015961,0.359679,-0.915471,-0.180396
-0.563706,0.519660,0.564482,0.940140,0.145602,-0.308117
0.349300,-0.115900,0.856312,0.823075,-0.444678,-0.353283
-0.232996,-0.011962,0.518483,0.853633,-0.508404,0.113301
-0.620976,-0.277490,0.417564,0.360714,0.236820,0.902110
-0.795965,-0.484116,0.430514,-0.418926,-0.137494,0.897550
0.820295,-0.485554,-0.063321,-0.117083,0.993121,-0.001483
-0.463781,-0.127204,0.388914,-0.450301,-0.159893,-0.878443
0.278949,0.079362,0.852422,-0.020072,0.969947,0.242487
-0.289499,-0.504795,0.670378,-0.542972,-0.741559,0.394045
0.038149,-0.374185,0.470491,0.916191,-0.199105,0.347780
-0.447460,0.246324,0.671836,0.779630,0.138437,0.610748
0.298746,0.057562,0.886886,-0.506330,0.844658,0.173732
-0.967124,-0.099720,0.081563,-0.798292,-0.507562,0.324208
-0.130064,-0.176613,0.208053,0.351494,0.374910,0.857843
0.408690,-0.397296,0.330652,0.462236,-0.085603,-0.882616
-0.147563,0.767014,0.711428,-0.961071,0.026518,-0.275026
0.743111,-0.237764,0.617643,0.775003,0.299104,-0.556693
0.103254,-0.759142,0.576800,-0.362053,-0.749858,-0.553742
-0.077273,0.008778,0.709944,0.248401,0.913333,0.322676
-0.154987,-0.152751,0.486672,-0.660343,0.032060,-0.750280
-0.586802,-0.515661,0.572579,0.526108,0.324181,0.786204
0.127824,-0.211653,0.602439,-0.127451,0.739801,0.660645
-0.203477,-0.552763,0.645839,-0.752165,0.439187,-0.491287
0.097480,-0.262374,0.706864,-0.516837,-0.210245,-0.829865
-0.337694,0.327837,0.444619,0.658742,0.249586,-0.709764
0.606775,-0.363251,0.675987,-0.276947,0.408343,0.869803
-0.554516,0.686000,0.444041,0.766629,-0.536252,0.353148
-0.628341,-0.645337,0.443629,-0.317396,-0.034162,0.947678
-0.203418,0.521475,0.795865,-0.793337,-0.605648,-0.061703
0.207717,-0.144756,0.927139,0.865970,0.499948,0.012149
0.088524,-0.444703,0.725904,0.063540,-0.352507,0.933650
-0.300458,-0.027200,0.644024,0.271409,0.939503,-0.208975
0.674886,0.223026,0.524518,-0.528339,-0.308007,0.791195
-0.703876,-0.364940,0.594328,-0.715247,-0.025621,-0.698402
0.407392,-0.231767,0.655806,-0.298620,0.786658,0.540367
-0.504787,-0.172553,0.542184,-0.395075,-0.836183,0.380412
-0.345708,0.587685,0.623527,0.644958,-0.215132,0.733313
-0.364208,-0.482058,0.677651,0.941760,0.321439,-0.098822
-0.342232,0.688250,0.464937,0.184295,-0.058621,0.981121
-0.419002,-0.315279,0.471921,0.936289,-0.112111,0.332857
0.304874,0.112591,0.839898,0.843870,-0.306463,0.440414
-0.660039,-0.259751,0.593242,0.785877,0.029764,0.617666
-0.273120,-0.016022,0.491470,0.297739,-0.847801,-0.438846
0.064426,-0.535775,0.784482,-0.099749,0.759024,0.643376
0.033730,-0.316903,0.746402,0.759132,0.650912,0.005718
-0.396141,-0.434524,0.546776,-0.028785,0.827491,0.560741
0.160405,-0.066430,-0.977413,-0.558726,-0.032929,0.828698
-0.371868,-0.526091,0.680730,0.996766,0.073197,0.033168
-0.393549,-0.169930,-0.082182,-0.187666,-0.954656,0.231115
0.633642,0.027764,0.756327,0.550054,-0.455923,-0.699696
-0.240242,-0.974579,0.407982,0.337983,-0.793054,-0.506786
0.103549,0.025953,0.857343,0.003847,-0.459218,0.888315
0.194165,0.097414,-0.580622,0.958904,-0.282988,-0.020530
0.778641,-0.096159,0.648176,0.890842,0.198181,-0.408808
0.226867,0.393987,0.359797,0.643274,-0.647245,0.408990
-0.889175,-0.125019,0.406126,-0.137715,0.808025,0.572827
0.039622,-0.646271,0.679287,0.977581,0.114004,0.177024
-0.256504,-0.285363,0.498948,0.145122,0.717164,0.681627
0.224508,-0.347200,0.435188,0.452069,0.626608,0.634820
-0.495833,-0.442080,0.433607,0.564973,0.764708,0.309883
-0.225453,0.735345,-0.313826,0.434065,-0.075819,0.897685
-0.397851,0.639652,0.088423,0.361828,0.386772,0.848226
-0.616321,0.378432,0.374301,-0.524038,0.485589,-0.699705
0.467195,0.144573,0.241047,0.935843,0.252234,-0.246122
0.642420,0.105221,0.802532,-0.326988,-0.935343,0.134955
-0.287496,0.380681,0.451547,0.697053,0.231733,-0.678540
0.414936,0.148443,0.808402,-0.405278,-0.899330,0.164183
-0.220034,0.801368,-0.306663,0.434065,-0.075819,0.897685
0.166768,0.055126,0.615925,0.426828,-0.890300,0.158692
0.298570,0.049442,0.870348,-0.208875,-0.832290,0.513483
-0.550863,0.438146,0.598122,0.765672,0.410291,-0.495387
-0.249258,-0.718478,0.660150,0.654558,0.696790,0.293323
0.325318,0.108279,0.809997,-0.500374,0.786682,0.361603
-0.160585,0.733160,0.705641,0.920351,-0.372063,0.120515
-0.251378,0.119400,0.375703,0.284678,0.070797,0.956005
0.116334,0.170307,0.605546,-0.315197,0.146329,-0.937677
0.046987,-0.741841,0.757413,-0.687623,-0.521693,-0.504986
0.498539,-0.283174,0.316919,0.377967,0.570673,0.729022
0.590747,-0.353384,0.612887,0.062745,0.414290,0.907980
0.206185,0.165435,0.916540,-0.611750,0.664836,-0.428667
-0.055238,-0.006902,0.754334,0.837743,0.267003,0.476336
0.810398,-0.389175,0.612158,0.288577,-0.064675,0.955270
-0.139197,0.681254,0.674351,-0.573783,0.397831,-0.715893
0.836499,-0.014645,0.310801,0.273757,-0.018749,0.961616
0.207246,0.293983,0.655724,0.523159,0.508529,0.683888
0.155516,0.274745,0.788785,-0.708892,-0.109457,0.696772
-0.059715,0.009525,0.846029,-0.427054,0.016881,-0.904068
-0.092062,0.599675,0.460593,0.613318,0.629445,0.477116
0.064074,0.344139,0.855845,0.582590,0.634881,-0.507460
-0.601003,-0.302038,0.570998,-0.695107,0.282362,-0.661134
-0.118929,0.532778,0.783437,-0.732234,0.181655,-0.656381
0.317838,-0.283487,0.703015,0.207989,0.937477,0.279066
0.058653,-0.561070,0.509396,0.196662,0.686320,0.700207
-0.347004,0.339705,0.587358,-0.078456,-0.995531,0.052564
0.051583,-0.069240,0.864808,0.908782,-0.020489,-0.416768
-0.270408,-0.656702,0.541799,-0.009125,0.922992,0.384711
-0.898778,-0.005278,0.374081,-0.576225,0.758543,0.304266
0.440092,-0.407414,0.593214,-0.828491,0.194823,0.525020
-0.382767,-0.237265,0.419117,-0.124901,0.230400,0.965047
0.099483,0.179739,0.865413,0.483952,0.116053,0.867365
0.034614,0.610731,0.406098,0.017623,-0.495379,0.868498
-0.319724,-0.090788,0.520353,-0.488384,0.230949,-0.841513
-0.453647,0.773823,0.619197,-0.539658,0.370216,0.756114
0.001972,-0.394673,0.576992,0.976063,-0.071317,0.205461
0.229812,0.500861,0.524395,-0.209264,0.065801,0.975643
0.318837,0.392424,0.752409,-0.612006,0.784020,-0.103738
-0.122228,0.289484,0.741466,-0.685935,0.363866,-0.630154
0.477272,-0.350384,0.601476,0.077765,0.992216,0.097263
0.801264,0.067928,0.194154,-0.498052,-0.039759,0.866235
-0.363618,0.789752,0.075294,0.080474,-0.536864,0.839822
-0.279129,0.044695,0.623060,-0.173859,0.888552,0.424556
0.653910,-0.433087,0.017377,-0.435668,-0.034201,-0.899457
0.332977,0.169995,-0.961727,-0.218156,0.188898,0.957458
0.180968,0.517788,0.592252,0.100990,-0.645487,0.757065
-0.398263,0.561387,0.106350,-0.304824,0.740906,0.598448
-0.503964,-0.057810,0.529825,-0.136416,-0.427446,0.893689
-0.167771,0.789252,0.695509,-0.450067,0.879394,-0.155263
-0.473620,-0.438146,0.419282,-0.714073,-0.661588,-0.228913
-0.053233,0.350388,0.600280,-0.191090,-0.504998,0.841702
-0.611137,-0.262873,0.509658,0.271205,-0.759655,0.591077
0.601766,-0.594803,0.543572,0.199304,0.895907,-0.397025
0.088288,-0.453575,0.452729,0.390835,0.450478,0.802694
-0.061718,-0.866328,0.210569,-0.745477,0.177229,0.642537
-0.314893,-0.459568,0.685858,-0.475112,-0.664759,-0.576510
0.612018,-0.332019,0.565101,0.396201,0.465567,-0.791374
0.616557,0.428466,0.735981,0.715661,0.199892,-0.669233
-0.040566,-0.450575,0.593008,0.855845,-0.516647,-0.024618
0.052466,-0.411787,0.743130,0.808904,0.479534,0.340179
0.194048,-0.327959,0.830866,-0.257789,0.839258,0.478738
0.242539,-0.029327,0.913969,0.551783,-0.760295,0.342763
-0.740405,-0.404539,0.579164,-0.502297,-0.770125,-0.393198
-0.437562,-0.344200,0.521728,0.494036,0.432128,0.754449
0.489998,-0.382614,0.705860,0.860112,-0.331497,-0.387707
-0.094713,0.392675,0.749178,0.981318,-0.116014,0.153476
-0.109973,-0.308161,0.730235,0.016431,0.968622,0.247996
0.218676,0.025705,0.944859,0.018128,-0.690931,0.722693
-0.108382,0.513103,0.728337,-0.674639,0.451974,0.583593
-0.470320,0.725352,-0.195172,0.438792,-0.881049,-0.176677
-0.374342,0.573568,0.619045,0.732771,-0.339279,0.589862
0.304169,-0.293479,0.592362,0.715456,-0.175166,0.676342
-0.333688,-0.937976,0.393231,-0.174765,-0.597234,0.782796
0.751598,0.122396,0.516614,0.610687,0.498919,-0.614932
0.531713,0.277307,0.839774,0.819402,0.537062,-0.200361
0.437560,-0.358256,0.608268,-0.468322,-0.880790,-0.069879
-0.073503,-0.593114,0.537042,0.013456,-0.959378,0.281802
-0.185625,-0.563320,0.602672,0.604051,-0.794313,0.064728
-0.785301,-0.446514,0.602934,-0.583783,-0.447481,-0.677464
0.059359,-0.114211,0.950963,-0.166635,0.707979,0.686293
0.497421,-0.517910,0.701887,0.734066,-0.667753,0.123505
0.142965,0.027017,0.442185,-0.450210,0.890820,0.061248
0.030254,-0.286922,0.562241,0.862012,-0.129101,0.490172
-0.501135,0.253007,0.627102,0.634001,0.304940,0.710672
0.340047,0.295046,0.888316,-0.460310,0.751338,-0.472871
-0.053647,-0.313594,0.396901,-0.373454,-0.182172,0.909585
0.543674,-0.257940,0.561843,-0.750269,-0.163789,0.640523
-0.275123,-0.561947,0.668082,0.728380,0.597363,0.335589
0.265928,0.141134,-0.966951,-0.310749,0.376580,0.872710
0.052644,-0.506415,0.759145,-0.373368,0.745521,-0.552082
0.173898,0.364879,0.200025,0.730421,0.327672,-0.599264
0.413638,-0.467814,0.421454,0.569220,0.274092,0.775153
-0.769275,0.165622,0.238407,-0.427784,0.488832,-0.760292
-0.778407,-0.042568,0.377627,0.947491,0.312969,-0.065653
-0.637944,-0.340517,0.564441,0.584395,-0.554022,0.592910
0.511622,-0.346949,0.409824,-0.452583,-0.479866,-0.751597
-0.144204,0.719168,0.700898,0.899693,-0.400902,0.172711
0.563291,0.037947,0.562475,0.868487,0.064524,-0.491494
0.701576,0.311409,0.312891,-0.417471,-0.343993,0.841063
0.322786,0.082232,0.316671,0.161093,-0.986687,-0.022334
0.432788,-0.223460,0.308162,-0.018620,0.363041,0.931587
-0.539256,-0.465878,0.566393,0.797660,0.500168,0.337002
0.234936,-0.211779,0.900427,-0.073043,-0.837670,-0.541271
0.133303,0.347326,0.809818,0.942131,0.316457,0.110656
-0.235294,-0.378866,0.417770,0.448363,-0.051776,0.892351
-0.023422,-0.432709,0.784963,0.014804,-0.761186,0.648365
0.345352,0.052190,0.889319,0.159033,0.935424,0.315739
-0.094477,0.081672,0.775120,0.011914,0.515827,0.856610
-0.123701,-0.260063,0.395719,0.343711,-0.247459,0.905884
-0.651968,-0.395607,0.586244,-0.608498,-0.287023,-0.739830
0.189276,-0.032324,0.872232,-0.632845,0.774227,0.008937
-0.483754,0.776572,0.013734,0.835757,-0.539532,-0.102055
0.111032,-0.035385,-0.133226,0.992902,-0.057435,0.104152
0.154631,0.233018,0.787768,0.040201,-0.452383,0.890917
0.233699,-0.175362,0.728434,-0.304361,0.419219,0.855348
-0.068729,-0.581997,0.532244,-0.536739,0.694950,0.478492
0.155928,0.052938,-0.063073,0.945577,-0.319516,-0.061594
-0.159288,0.137387,0.797253,0.756870,0.490186,-0.432279
0.463660,0.115778,0.805543,-0.409138,-0.810952,0.418286
-0.425955,0.037448,0.659532,0.523319,0.851321,-0.037281
-0.385360,-0.013460,0.498055,0.473415,-0.854716,-0.212930
-0.451996,-0.540022,0.357872,0.701146,0.398643,0.591166
-0.382708,-0.507353,-0.022986,0.988049,0.118838,-0.098169
0.427131,0.155252,0.797418,0.874303,0.012622,0.485217
0.081689,-0.241573,0.740847,0.744214,-0.360391,0.562374
-0.184152,0.258317,0.759750,-0.750992,0.177341,-0.636052
0.871615,-0.304974,0.564647,0.940976,-0.162263,-0.297044
0.588744,-0.076982,0.197674,-0.088254,0.194203,0.976983
0.209131,-0.510102,0.737699,-0.294960,0.520709,0.801162
