0.570680,-0.160193,0.055946,-0.370135,-0.424804,0.826161
0.387577,0.827598,-0.913773,0.322501,0.208430,-0.923336
0.055993,-0.137138,0.689296,0.667750,-0.718831,0.193369
0.477018,-0.516524,0.424310,-0.202586,0.324549,0.923919
0.159836,-0.105678,0.900657,0.592749,-0.610078,-0.525788
0.604842,0.733220,0.431814,0.151344,-0.683711,0.713887
-0.557185,-0.349290,0.505909,-0.711960,-0.099830,-0.695088
0.153724,0.065303,0.829464,0.234989,0.589095,0.773141
-0.278537,0.112436,0.687077,-0.761630,0.028866,-0.647369
-0.068287,0.529642,0.488441,0.255169,0.356077,-0.898943
0.308018,0.220272,0.705074,0.981789,-0.163073,-0.097455
-0.430038,-0.657468,0.612819,0.889023,-0.386392,-0.245641
-0.109086,0.200568,0.733639,0.829256,0.503351,0.242841
-0.157351,0.327314,0.398418,0.547176,0.572071,-0.611010
0.420308,0.548439,0.695186,0.255697,0.692684,-0.674394
-0.490822,0.025327,0.633060,-0.369705,0.269392,-0.889239
0.480710,-0.132992,-0.938455,0.173058,0.181479,-0.968048
0.440440,0.795173,0.435989,-0.556915,-0.220695,0.800712
-0.337204,-0.073992,0.530249,0.887785,0.120360,0.444242
-0.133444,0.201306,0.732605,0.863592,0.491403,0.112830
-0.008860,-0.261839,0.731546,0.950567,-0.134012,0.280113
0.194449,-0.373367,0.718593,-0.544569,0.617738,0.567313
0.213753,-0.033503,0.789762,0.715141,-0.605100,0.349895
0.234415,0.333390,0.603789,-0.616098,0.779135,0.115634
0.134194,0.280409,0.480206,0.466707,0.404658,-0.786407
0.836353,-0.117150,0.435005,-0.540645,-0.477314,0.692729
0.043473,0.327144,0.583938,0.649712,0.340382,-0.679716
-0.227028,-0.392902,0.703913,-0.350178,0.426143,-0.834133
0.356959,0.228450,-0.928353,0.248022,0.112378,-0.962214
-0.068061,-0.282396,0.733564,-0.673369,0.688162,0.270199
0.585911,0.059512,0.419152,0.743179,-0.589662,-0.316204
-0.391351,0.033334,0.620512,-0.332666,-0.932057,-0.143535
-0.782588,-0.233163,0.343910,0.388008,-0.236875,0.890697
-0.283890,-0.062862,0.354731,0.474452,-0.809664,0.345456
0.440067,-0.242532,0.334048,-0.497192,0.216802,-0.840117
0.639832,0.431743,-0.914820,0.162329,0.035880,-0.986084
0.161116,0.391993,0.189101,-0.261431,0.040182,0.964385
-0.264963,-0.009369,0.818163,-0.465660,-0.823800,-0.323286
-0.394293,0.144918,0.674112,-0.649795,-0.058805,-0.757832
-0.201841,0.593299,-0.931417,-0.418027,-0.101051,0.902797
0.373852,0.124872,0.874059,0.317654,-0.942469,0.104154
0.224233,-0.307041,0.714760,0.821109,-0.402373,-0.404815
-0.022586,0.230891,0.725000,0.627552,0.320263,0.709654
-0.263753,0.172175,0.518583,-0.148680,-0.559756,0.815210
-0.160439,0.799717,0.344629,-0.157262,0.165542,0.973583
-0.014066,-0.050142,0.767906,-0.054281,-0.760199,0.647418
-0.317449,0.155196,0.718266,0.041879,-0.706582,0.706391
0.350851,0.460363,0.388632,0.798064,-0.011423,-0.602464
0.753852,0.432879,0.544286,-0.588045,0.714151,-0.379726
-0.199052,-0.042647,0.816398,0.457384,0.382861,0.802632
0.281773,-0.392845,0.222371,0.484965,-0.000204,-0.874534
-0.714793,0.288302,-0.969303,0.178731,0.053347,-0.982451
0.188415,0.007382,0.788677,-0.277792,0.349330,-0.894874
-0.282229,0.018569,0.665498,-0.027043,0.320164,0.946976
-0.331096,-0.733560,0.513400,0.071365,-0.860676,-0.504126
-0.485013,-0.060760,0.418597,0.290161,0.233314,0.928101
-0.427851,-0.674106,0.633313,-0.070999,0.220125,0.972885
-0.608313,-0.291482,0.627990,-0.323979,-0.531565,-0.782609
-0.071453,0.237024,0.403362,-0.072121,-0.232437,0.969934
0.361258,-0.139579,0.736729,0.695203,0.609721,-0.380702
-0.507484,0.004089,0.416542,0.184226,-0.002181,0.982882
0.346405,0.068825,0.673759,-0.491418,0.346518,-0.799021
0.089096,0.017888,0.485175,0.236446,-0.738764,0.631127
-0.335243,-0.377399,0.573848,0.408164,0.877606,0.251415
0.200332,0.042532,0.257507,0.932668,-0.357604,-0.047429
0.056895,0.666156,0.621357,0.726229,-0.510770,0.460115
0.181704,0.077910,0.175871,0.841429,0.432940,0.323356
-0.809284,-0.083362,0.455588,0.851278,0.081972,0.518273
0.178836,0.054060,-0.167295,-0.478647,-0.857469,-0.188797
-0.211116,0.242874,0.777024,0.823403,0.324646,0.465417
0.377925,-0.332254,0.603587,0.806924,0.401328,0.433369
0.096562,-0.057070,0.899169,-0.397208,0.917218,-0.030610
0.277778,-0.118115,0.749253,0.510971,0.853192,-0.104747
0.400548,0.420500,0.622176,0.851724,-0.357812,-0.382801
0.084498,-0.690062,0.594557,0.034838,0.865900,0.499002
0.355905,0.690800,0.512467,-0.435131,0.456278,-0.776190
0.771048,0.409313,0.540805,-0.637177,0.317338,-0.702355
-0.068061,-0.287394,0.641157,-0.197753,0.406611,-0.891942
0.149503,0.501931,0.341817,-0.576883,0.423256,0.698614
-0.231704,-0.566950,0.437490,0.482423,-0.445162,-0.754386
-0.107728,-0.148438,0.741181,-0.779109,-0.019498,-0.626586
-0.202292,-0.579557,0.694543,0.156724,0.684748,0.711729
-0.786357,0.219761,0.585312,0.890459,-0.133680,0.434985
0.174689,-0.510903,0.359524,-0.379043,0.517619,0.767071
-0.027792,-0.314026,0.718001,-0.285688,0.811846,-0.509204
-0.692396,-0.184554,0.300059,0.968237,-0.215808,0.126268
0.261189,-0.658887,0.504723,0.626318,-0.004845,-0.779552
0.584401,-0.011811,0.659961,-0.174460,-0.797834,0.577083
0.533200,-0.564452,0.653731,-0.211141,0.835700,0.506977
-0.008032,0.757070,0.202015,-0.098199,-0.016965,0.995022
-0.965161,0.064907,-0.987363,-0.002988,-0.177304,0.984152
-0.837186,-0.068484,0.349018,0.215649,0.352794,0.910512
0.065419,0.145543,0.858963,0.859474,0.056701,-0.508025
-0.239395,-0.122431,0.682259,0.149897,0.684509,0.713427
-0.516837,-0.327371,0.298155,0.208178,0.524586,0.825513
-0.665401,-0.296479,0.626994,0.670656,-0.187313,0.717729
0.027488,-0.086712,0.863402,-0.891994,0.369789,0.260004
0.246258,0.379898,-0.933977,0.362880,0.221912,-0.905027
-0.024625,0.348154,0.581566,0.622359,0.595850,-0.507575
-0.020855,0.125611,0.505581,0.537968,0.519805,-0.663621
0.546170,-0.742419,0.240418,0.591925,0.039623,-0.805019
0.379734,-0.078023,0.574100,0.265275,0.864108,0.427724
-0.647602,0.236854,0.550012,0.380975,-0.808608,-0.448343
0.286449,0.161102,0.642721,-0.626510,-0.512493,0.587228
-0.054865,0.217206,0.563418,0.880816,-0.220773,-0.418835
0.217223,0.038160,0.880756,0.209503,-0.499099,0.840838
0.123336,0.146792,0.467342,-0.771219,-0.414672,0.482979
-0.238341,-0.639012,0.461944,-0.690134,0.546709,0.474157
-0.002375,-0.687393,0.576131,0.290311,0.694469,0.658356
-0.624072,0.127995,0.601594,-0.332135,0.297630,0.895044
-0.315787,-0.770471,0.538220,-0.422786,0.430302,-0.797554
0.373023,0.215218,0.728456,0.916908,-0.316675,-0.242892
0.230723,0.445656,0.376310,0.510303,-0.221578,-0.830960
-0.260812,0.117888,0.444830,-0.456257,-0.730207,0.508554
-0.063008,0.350994,0.411018,-0.111308,0.643614,-0.757213
-0.152449,-0.011357,0.850210,0.480796,-0.757578,-0.441488
-0.385469,0.038444,0.623248,-0.250140,0.924227,-0.288503
0.725950,0.523622,0.582109,-0.696115,-0.239688,0.676737
0.139170,-0.331970,0.481480,-0.387119,0.383156,0.838648
-0.145811,0.264963,0.737297,0.757747,0.454616,0.468129
-0.134576,0.629188,0.587507,0.482719,0.776350,-0.405294
-0.654616,0.098353,0.571830,0.188124,-0.902267,0.387973
-0.493234,0.228109,0.710888,-0.136041,-0.506828,0.851245
0.252969,0.066212,0.062163,-0.763069,-0.638028,-0.103178
0.406053,0.257127,0.781980,-0.666299,0.740440,-0.088278
0.452886,0.659796,-0.918856,-0.402424,-0.167616,0.899977
-0.912450,-0.209767,0.480559,-0.308207,-0.716780,0.625487
0.346930,-0.644804,0.530968,-0.119361,-0.633812,-0.764222
0.273253,0.475242,0.491594,0.504086,-0.387009,0.772089
-0.411111,0.168995,0.694694,-0.868982,0.111317,0.482160
-0.074321,0.082339,0.825844,-0.218028,-0.532841,0.817646
0.269410,0.247757,0.673620,0.662672,-0.104224,0.741622
-0.200635,-0.537478,0.698289,0.104510,0.252604,0.961909
-0.566156,-0.515559,0.497887,0.437555,0.121600,-0.890932
0.111871,-0.042874,0.974814,0.249106,-0.305940,0.918883
-0.015723,0.390914,0.559181,-0.692518,-0.561800,-0.452548
-0.133292,-0.642476,0.598164,0.227378,0.263419,0.937502
0.522567,-0.684100,0.374368,0.604740,0.368042,0.706282
-0.540440,-0.350710,0.618986,0.169351,0.265278,0.949183
0.171297,0.438501,0.495769,-0.601777,0.757113,-0.254253
0.647524,0.692334,-0.910116,-0.066668,-0.052197,0.996409
0.787186,0.368086,0.538687,0.999194,-0.024389,0.031897
0.485386,0.364338,0.801125,0.199542,0.879293,-0.432465
-0.466234,-0.359909,0.611658,0.743487,-0.119031,0.658071
0.090228,0.012891,0.886229,0.819321,0.570675,-0.055163
0.156591,-0.402045,0.723285,0.376564,-0.864155,-0.333819
-0.429886,0.511414,-0.945845,0.251266,-0.290963,0.923150
-0.098375,0.304543,0.270207,-0.412340,0.379501,-0.828224
0.253268,0.076150,0.825201,-0.034974,0.344052,0.938299
0.338332,0.308007,0.624068,-0.585254,-0.604509,-0.540414
-0.009615,0.639466,0.628873,-0.085907,-0.440742,0.893514
-0.667886,0.075979,0.657641,-0.725355,-0.279921,-0.628891
-0.721205,-0.349290,0.454011,-0.468982,0.673765,0.571049
-0.414954,-0.238955,0.607269,0.152431,0.775819,0.612266
0.349194,0.330551,0.673935,0.860219,0.154715,0.485888
0.393537,-0.095628,0.331740,0.111750,0.619872,0.776705
0.029596,0.302840,0.573546,0.716934,0.455589,-0.527678
-0.601602,-0.081885,0.316883,-0.561166,0.069811,-0.824754
-0.049208,0.266496,0.552181,-0.767160,0.520549,0.374825
0.110439,-0.474163,0.098712,0.947117,-0.311899,-0.075418
-0.280498,0.338501,-0.953778,0.340440,0.037270,-0.939527
-0.492254,0.249063,0.583812,0.596515,-0.652737,-0.467016
0.349646,-0.079557,0.183589,0.199090,0.795958,0.571676
-0.917049,-0.309483,0.252034,0.508463,0.811547,-0.287849
0.478749,0.829699,-0.905550,0.325216,0.053418,-0.944130
-0.126807,-0.120557,0.751422,0.888016,-0.442543,0.124836
-0.419332,0.222203,0.733097,0.693397,0.639266,0.332474
0.084949,0.141227,0.854334,0.434493,-0.121106,0.892496
-0.414954,-0.080352,-0.970312,0.238334,0.311913,-0.919732
0.240150,-0.085236,0.866479,-0.396012,-0.422441,0.815302
-0.463822,0.358546,0.564692,0.863150,-0.178099,0.472497
-0.182233,0.042362,0.541373,0.277204,0.960013,-0.039147
-0.120772,0.156957,0.510701,0.152074,-0.384565,0.910485
-0.564651,-0.195798,0.498417,0.804198,-0.165160,-0.570954
-0.524303,0.171664,0.587822,0.842155,-0.539235,-0.000354
-0.267150,-0.124248,0.400966,-0.268374,-0.030502,-0.962832
-0.086463,-0.044350,0.611406,-0.261825,-0.964016,-0.046054
-0.570455,0.197274,0.697280,0.452835,-0.642774,0.617885
-0.270841,0.204373,0.788097,0.735632,-0.352193,0.578623
0.544964,-0.533049,0.241717,0.757961,0.289365,-0.584604
0.095282,0.047984,0.888272,0.914500,0.387899,-0.114997
0.671656,0.217888,0.627057,-0.760589,0.632042,0.148415
0.384636,-0.544350,0.611646,0.360833,-0.065562,-0.930323
0.343989,-0.746848,0.500107,0.086732,0.326522,0.941202
-0.642700,-0.173084,0.439382,-0.412081,-0.503112,-0.759650
0.531994,0.131516,0.488378,0.269403,-0.066584,0.960723
-0.097998,-0.070755,0.768372,0.961013,-0.031959,0.274649
0.071302,-0.059512,0.735582,0.431422,0.205371,-0.878463
0.617813,0.694718,0.427653,-0.269843,0.730290,-0.627584
0.387352,0.466667,0.388203,-0.619416,0.018831,-0.784837
-0.199126,0.157411,0.449723,0.388064,0.595829,-0.703132
-0.499268,-0.336116,0.497799,-0.333858,0.495071,0.802149
0.044527,0.438955,0.405948,0.677929,-0.147945,0.720086
0.200179,0.080295,0.907354,-0.709693,0.661226,-0.243137
-0.535464,-0.110903,0.586422,0.375682,0.691983,-0.616459
-0.531013,-0.312720,0.490459,-0.358126,0.640815,0.679044
-0.069193,0.241567,0.885662,0.647576,0.682145,0.339595
-0.503415,-0.101079,0.614887,0.912466,0.388809,-0.127410
-0.289091,-0.613458,0.497017,0.858031,0.196271,0.474615
-0.456508,-0.689324,0.525066,0.546252,0.833988,-0.077933
0.855887,-0.152300,0.629605,0.462452,0.871309,0.164191
-0.532974,0.144691,0.692021,0.620622,-0.080645,0.779952
-0.060145,-0.461613,0.683482,0.404200,0.338072,0.849900
0.515626,-0.560023,0.430742,-0.025072,0.408205,0.912546
0.201160,-0.053265,0.908539,0.763366,0.314541,-0.564213
-0.495268,-0.220273,0.721015,-0.797366,-0.402233,-0.449906
-0.226125,-0.146224,0.752078,0.844655,0.274186,0.459760
-0.087365,-0.770869,0.149462,0.835003,-0.354952,0.420451
-0.208630,-0.179898,0.660579,0.755759,-0.177408,0.630360
-0.728445,-0.498183,0.408230,0.936369,0.284306,0.205871
0.530332,-0.627030,0.671299,-0.381982,0.761645,0.523437
-0.178013,-0.084498,-0.082910,-0.577975,0.734001,0.356633
0.554769,-0.709653,0.506438,0.981379,-0.189331,-0.032371
-0.426342,-0.165190,0.523628,0.881693,-0.271825,0.385653
0.387577,0.457865,0.682019,-0.585444,0.332602,-0.739345
0.365935,0.681885,-0.924455,0.386965,0.102715,-0.916356
0.846686,0.624816,-0.906446,-0.101954,-0.130801,0.986152
0.555445,-0.684668,0.346117,0.544769,0.628609,-0.555047
0.677083,0.270698,0.523174,-0.257878,-0.414164,0.872908
-0.272278,0.232709,0.695287,0.691914,0.531186,0.488976
0.179591,0.252072,0.684037,0.586894,0.345274,-0.732353
0.036537,0.596195,0.512151,-0.678228,-0.461939,0.571505
-0.215719,0.195457,0.721646,-0.220942,-0.554703,0.802178
-0.424003,0.146848,0.734598,0.138817,0.863847,-0.484249
-0.462690,-0.758831,0.443859,0.381119,0.767136,-0.515995
0.723161,0.339068,0.533188,-0.092229,-0.369108,0.924799
0.590210,-0.506360,0.148466,-0.652326,0.654745,0.381811
-0.791112,0.137308,0.553594,0.386260,0.914896,0.117335
-0.607180,-0.217490,0.480294,0.876578,-0.032484,-0.480162
-0.403342,-0.220897,0.485566,0.021397,0.391063,0.920115
-0.141812,0.147473,0.828505,0.305350,0.755992,-0.578997
-0.544587,0.357808,0.737499,-0.108909,-0.944852,-0.308858
-0.017914,-0.004827,0.778373,-0.121475,-0.739865,0.661697
-0.778440,0.057751,0.335347,0.558762,0.286327,-0.778333
-0.337131,0.020102,0.597659,0.420000,0.902167,0.098460
0.857769,0.187848,0.659873,0.364879,0.593689,-0.717215
-0.212851,-0.461897,0.769911,-0.413060,0.776832,-0.475303
-0.709136,0.042192,0.431739,0.248630,-0.539000,0.804774
0.547528,0.197501,0.645912,-0.436636,0.899402,0.020640
0.561631,0.826292,0.444779,0.319803,0.560074,-0.764227
0.364425,-0.021295,0.598113,0.449453,-0.563001,0.693558
0.121449,0.035264,0.928870,-0.260611,0.641882,0.721158
-0.408243,0.139523,0.732681,0.134072,0.845820,-0.516346
0.666225,0.400625,0.548965,-0.279286,0.551182,-0.786255
0.564117,-0.362522,0.442774,-0.469730,-0.066497,0.880302
-0.231253,0.079557,0.716311,-0.325447,-0.890825,0.317041
0.294067,0.285463,0.281621,-0.389763,-0.100121,0.915457
0.751063,0.143441,0.502466,-0.015165,-0.621514,0.783256
0.243841,0.629131,0.357796,0.714176,0.213205,-0.666705
-0.367974,-0.728564,0.635949,0.590240,0.505631,0.629249
-0.513518,-0.244861,0.717938,0.804094,0.180760,0.566356
0.083895,0.212322,0.857928,-0.647713,0.308827,0.696487
-0.033596,0.405338,0.562687,0.684384,0.693580,-0.224870
0.246483,0.398353,0.661992,-0.402013,0.907326,-0.123068
0.200483,0.029756,0.869531,0.416216,0.880896,-0.225358
0.092415,-0.160818,0.180298,-0.628993,0.239808,0.739500
0.367518,-0.078478,0.834294,-0.519082,-0.464146,0.717721
-0.046796,0.122658,0.837321,0.241094,0.929192,-0.280135
0.111042,0.078308,0.870944,0.930678,-0.118826,0.346003
0.329209,0.708745,-0.913218,0.408985,-0.198248,-0.890746
0.307116,0.402783,0.478781,0.054206,0.376979,-0.924634
-0.359831,0.297728,0.758926,-0.188839,0.950454,-0.246937
-0.526337,-0.670926,0.378996,-0.009560,0.999832,0.015623
0.004939,0.710960,0.649632,0.848372,-0.378885,0.369745
0.915613,0.134639,0.544992,0.847164,0.407308,-0.341195
0.291429,-0.934924,0.315925,0.108275,0.123122,-0.986467
-0.152297,0.104032,0.406830,-0.490643,0.196774,-0.848852
0.469626,-0.060023,0.572499,-0.331802,0.181397,0.925744
0.599259,0.853152,0.448046,0.319803,0.560074,-0.764227
0.455449,-0.455139,0.040572,0.501304,0.171822,0.848040
0.415028,0.475753,0.381241,0.137262,0.814459,0.563752
0.524376,-0.621181,0.673986,-0.381982,0.761645,0.523437
0.098375,0.109540,0.868472,0.921570,0.030517,-0.387012
-0.531695,-0.065304,0.627398,0.280931,0.413187,-0.866230
0.235395,0.383816,0.680014,0.603309,0.082087,0.793272
-0.250331,-0.420216,0.696737,0.958947,-0.279681,0.046889
0.682588,-0.143668,0.608972,-0.609551,-0.133107,0.781492
0.437273,-0.057865,0.368680,-0.069518,-0.013217,0.997493
0.447758,0.546905,0.688628,-0.094830,-0.775393,0.624319
0.257042,-0.135832,0.605024,-0.197314,0.431622,0.880210
-0.375062,-0.348608,0.571868,0.787582,0.615982,-0.016756
0.423400,-0.609086,0.608871,0.494680,0.431398,0.754445
-0.496327,-0.586712,-0.114288,0.832281,-0.549529,-0.072976
0.737186,0.470983,0.571111,0.208885,0.819394,-0.533817
-0.088571,0.079443,0.734522,0.832151,-0.510781,0.215935
0.420082,0.494606,0.402126,0.131517,-0.328004,0.935477
-0.939671,-0.102669,0.474253,0.910962,-0.318662,0.261920
0.155684,0.184327,0.272061,0.419990,0.065085,-0.905192
0.102670,-0.505622,0.564616,0.912791,-0.101866,-0.395519
0.192336,0.461386,0.352776,-0.660572,0.505977,0.554646
0.469474,-0.528450,0.650023,-0.350634,0.483168,0.802249
0.247989,-0.910959,-0.955607,0.493469,0.262375,-0.829245
0.461935,-0.199035,0.750035,0.030105,0.354665,0.934509
-0.626259,0.311982,0.737839,0.076824,-0.873458,0.480800
0.198748,0.163544,0.882572,-0.513624,0.124675,0.848909
0.113983,-0.445940,0.560202,0.889332,-0.247708,-0.384355
0.755666,0.441454,-0.913887,-0.111300,-0.092581,0.989465
-0.028394,-0.044918,0.600724,-0.296318,0.830819,-0.471100
0.798122,-0.171323,0.632052,0.822238,-0.307681,-0.478808
0.066851,0.199375,0.826399,0.859736,-0.500551,-0.101500
0.245126,0.555764,0.512214,-0.416312,0.500664,-0.758959
0.460273,0.497275,0.292139,-0.504279,-0.303780,-0.808344
0.377852,-0.182907,0.742253,-0.623429,-0.723656,0.296071
-0.214282,-0.039125,0.591883,0.047516,-0.622939,0.780826
0.381695,0.426406,-0.925376,0.141645,0.044294,-0.988926
-0.221449,0.140715,0.763315,-0.588325,-0.808533,-0.012180
-0.644812,0.207383,0.564314,0.007882,0.637885,0.770091
0.381999,0.349915,0.521572,0.819293,0.180302,-0.544289
0.122130,0.009540,0.833184,0.765142,0.008338,-0.643808
-0.505979,0.288529,0.744662,-0.560506,-0.827642,-0.029017
-0.073115,-0.144691,0.793079,0.453880,0.639066,0.620958
-0.275292,0.179727,0.721620,0.437997,-0.225611,0.870206
-0.037517,-0.204088,0.493524,0.103888,-0.028988,0.994166
-0.334493,-0.676604,0.622933,-0.556875,0.285078,-0.780141
0.287655,-0.051675,0.775775,0.878411,0.392672,0.272402
-0.776180,0.230324,0.631698,-0.367396,0.715213,0.594550
-0.694283,-0.375014,0.537148,-0.845877,0.395680,-0.357672
-0.258175,-0.445599,0.692626,0.278598,-0.619142,-0.734197
0.417817,0.324418,0.527840,-0.467204,-0.022118,0.883873
-0.549567,0.395627,-0.962884,-0.175901,-0.465437,0.867425
0.300626,0.649915,-0.925275,-0.144029,-0.133141,0.980576
-0.813509,0.087564,0.355841,0.972273,-0.162978,-0.167698
-0.183517,-0.003123,0.792524,-0.111852,-0.777848,0.618418
0.765092,-0.247587,0.615934,-0.272145,0.230440,0.934256
-0.276346,-0.312493,0.698528,-0.232949,-0.902642,-0.361900
-0.568945,0.077796,0.543088,-0.223819,-0.943185,0.245575
0.211640,0.161158,0.842265,-0.396183,-0.406597,0.823236
0.959426,0.393356,0.394559,0.571604,0.228668,-0.788023
-0.609141,0.096366,0.501986,0.546950,0.807399,-0.221250
0.271444,-0.084157,0.740601,0.499845,0.863673,0.064997
-0.339768,0.641681,0.438019,0.441953,0.358217,-0.822410
0.513969,-0.761726,0.227037,0.652770,-0.017964,-0.757343
-0.526567,-0.256275,0.425748,0.578818,-0.160421,0.799522
0.163302,0.074958,-0.817886,-0.814281,0.580464,-0.002717
-0.079145,-0.503918,0.349611,-0.573994,0.314349,-0.756119
0.491950,0.535264,0.550176,0.858254,0.395463,-0.327123
-0.291204,0.220613,0.795715,0.765741,-0.032143,0.642346
0.185248,0.070755,0.016761,0.741459,0.669061,-0.050949
0.187964,-0.103067,0.910393,-0.474730,0.839080,0.265662
0.697975,0.772970,-0.906068,-0.068901,-0.351242,0.933746
-0.229591,0.043385,0.823624,0.807859,0.282674,0.517165
0.159606,0.043270,0.904680,0.776978,0.262551,-0.572165
0.186905,-0.642419,0.390801,0.155495,-0.106746,-0.982052
-0.013914,-0.056786,0.915766,0.825154,0.543450,-0.154217
0.260660,0.239410,0.807872,0.641584,0.314763,-0.699496
0.448361,-0.483248,0.501217,0.492259,0.465547,0.735491
-0.220165,-0.144293,0.664073,0.888257,-0.077232,0.452808
-0.030733,-0.200795,0.591240,0.170304,0.020272,0.985183
-0.666680,0.201704,0.597798,-0.338529,0.740891,0.580067
-0.208405,-0.546735,0.712691,0.745895,-0.663644,-0.056726
-0.586969,-0.361101,0.502112,-0.131040,0.958730,0.252320
0.683568,-0.349688,0.709450,-0.667046,0.537336,0.516061
0.430489,-0.621636,-0.954017,-0.372778,0.324010,0.869514
0.096488,0.098694,0.862582,0.919005,0.359964,-0.160795
-0.390900,-0.250653,0.580785,-0.147273,-0.586022,0.796799
0.282753,-0.020670,0.695438,-0.365074,0.580197,-0.728074
0.517361,-0.122714,0.513375,-0.083538,0.501480,0.861127
0.892460,-0.240886,0.301964,0.684101,0.147277,0.714363
0.252891,0.554060,0.697872,-0.353654,0.444082,-0.823238
0.103125,0.049120,-0.557945,0.224590,0.974453,0.000124
0.314204,-0.094719,0.879734,-0.717485,-0.608830,0.338440
0.213224,0.466156,-0.927369,0.410447,0.095953,-0.906822
-0.340978,-0.368257,0.718795,0.228573,0.714734,0.660992
-0.365033,0.172572,0.703674,0.870098,0.408855,-0.275258
0.484783,-0.698750,-0.921731,0.943102,-0.332347,0.010201
0.571205,-0.520500,0.605188,-0.185363,-0.963871,-0.191294
0.573543,-0.478194,0.551034,0.989863,-0.139730,0.025424
-0.113762,0.134582,-0.954623,-0.162018,-0.118814,0.979609
-0.599415,-0.054458,-0.979884,-0.171887,-0.154543,0.972919
0.056669,-0.439920,0.543353,-0.297280,0.280108,0.912778
-0.377704,-0.715048,0.626301,0.838335,0.407045,0.362642
-0.577543,-0.268086,0.582828,-0.709240,0.269278,0.651513
-0.058635,-0.414140,0.488492,-0.146034,0.364988,-0.919488
0.136983,-0.039977,0.791124,-0.666117,0.745023,0.035056
-0.256518,-0.308462,0.742695,-0.283427,-0.489674,0.824554
0.491195,0.282851,-0.918250,-0.173495,-0.158673,0.971968
0.883260,0.522487,0.601392,-0.142373,-0.840109,0.523399
-0.063159,-0.721579,-0.978421,-0.237231,-0.119652,0.964056
0.311410,-0.059001,0.891223,0.514914,0.833753,-0.199297
-0.209532,-0.151278,0.759493,0.865874,0.288556,0.408653
-0.626107,-0.056786,0.585955,0.458263,-0.060415,0.886761
-0.471214,0.514311,0.522367,0.916621,0.101686,0.386608
0.547979,-0.339920,0.694606,0.871029,-0.100040,-0.480937
-0.135929,-0.553890,0.533541,0.630305,-0.210442,-0.747281
0.386597,0.073595,0.725126,0.840365,-0.479149,0.253384
0.596921,-0.477683,0.552446,0.724213,0.306468,-0.617732
0.060895,0.082283,0.746125,0.093087,0.913642,-0.395719
0.327552,0.151334,0.864827,-0.757151,-0.334517,0.561089
0.042194,0.306814,0.407474,-0.267766,0.323629,-0.907505
0.589303,-0.508916,0.149601,-0.652326,0.654745,0.381811
-0.127635,0.348666,0.552686,0.471881,0.752068,-0.460133
0.603029,-0.783021,0.464328,0.716295,-0.381848,-0.584050
0.395949,-0.536343,0.511521,0.875055,-0.483149,-0.029082
-0.164816,0.204884,0.265188,0.377988,-0.396761,0.836484
0.773161,0.525327,0.591946,0.500060,0.607641,-0.617018
0.223783,0.642817,0.520954,0.192943,-0.456188,0.868715
0.175748,0.165872,0.884892,-0.100287,0.183622,0.977868
-0.564043,-0.043498,0.499867,0.138063,0.860423,-0.490522
0.416915,0.558887,0.689813,0.239921,0.691485,-0.681386
0.317371,0.078989,-0.932817,-0.215943,-0.120465,0.968946
-0.082767,-0.343044,0.685424,0.148745,0.868768,0.472353
-0.842543,-0.245712,0.344516,-0.120402,0.002775,0.992721
-0.411866,0.184725,0.706057,-0.525219,0.165769,0.834665
-0.173635,0.041340,0.467342,0.963050,0.268579,0.019987
0.289165,-0.940829,0.317136,0.108275,0.123122,-0.986467
0.186229,-0.036172,0.853880,-0.813540,0.559741,0.157617
0.285395,0.440204,0.654564,0.892084,-0.287796,-0.348368
-0.659518,0.384043,0.519996,-0.543785,0.627040,0.557781
-0.477699,0.176206,0.680619,0.116353,-0.491926,0.862827
-0.409905,0.042078,0.812955,0.750106,-0.621185,0.226869
-0.748048,0.017263,0.410740,-0.015372,-0.772735,0.634542
-0.073792,-0.155423,0.597647,-0.523795,0.330363,-0.785175
0.470533,-0.504032,0.493284,-0.674657,-0.233278,-0.700299
0.051993,-0.067178,0.829728,0.957903,0.269478,0.099012
-0.766754,0.101930,0.547250,0.258082,-0.962659,0.081743
-0.375140,-0.152129,0.511924,0.814665,-0.566225,-0.125338
-0.203576,0.189551,0.522077,0.357061,0.026564,0.933703
0.787715,-0.136172,0.624005,-0.501232,0.198807,0.842165
0.434332,-0.339239,0.427993,0.776324,0.208445,-0.594871
0.752347,0.298637,0.618557,0.574232,-0.624280,-0.529653
0.307415,-0.755139,0.516540,-0.561040,-0.793531,0.235676
0.065797,0.646621,0.185746,-0.080598,-0.203133,0.975828
-0.413974,-0.087337,0.575753,0.415802,-0.837600,-0.354309
0.293013,-0.078819,0.830788,0.627699,0.226885,-0.744659
-0.002301,-0.313117,0.562775,0.766439,0.204382,0.608933
-0.145356,-0.074333,0.732126,0.892231,0.447976,0.056940
-0.100414,0.554514,0.483170,-0.381478,0.698885,0.605008
-0.111424,-0.032879,0.771525,0.986868,0.157956,0.033798
-0.591043,-0.200454,0.596789,0.883020,0.306535,0.355404
-0.767205,0.156899,0.595414,-0.567647,-0.021063,0.823002
-0.949549,-0.254685,0.365703,0.811496,0.362839,0.458063
-0.598357,-0.282055,0.583471,0.140586,0.794843,0.590305
0.303719,0.103918,0.903974,0.616496,-0.756813,0.217177
-0.404547,0.008859,0.630614,0.600021,-0.287130,0.746680
0.135704,0.807950,-0.922337,0.409014,0.187258,-0.893108
-0.991632,-0.160704,0.338122,0.994780,-0.028721,-0.097920
0.513592,0.522771,0.286376,0.315985,0.467726,0.825461
-0.364881,-0.536343,0.478100,-0.682596,-0.364038,-0.633671
0.179439,0.117433,0.743123,0.494839,-0.841145,0.218196
0.062326,-0.812152,0.321587,0.819992,0.214354,-0.530722
-0.521739,0.134128,0.577947,0.941363,0.265304,0.208445
-0.340224,0.333675,0.736918,0.029501,-0.998118,0.053751
-0.020929,-0.245201,-0.963792,-0.322315,-0.126802,0.938101
-0.124547,-0.269108,0.761524,0.559403,0.378480,0.737442
-0.230194,0.523680,0.571048,0.367244,0.569537,-0.735364
-0.656048,0.426348,0.449837,-0.795124,-0.172901,0.581277
0.192263,0.612947,0.397220,-0.612686,-0.440241,0.656357
-0.751744,-0.026349,-0.967487,-0.104440,-0.120648,0.987186
-0.044532,-0.586258,0.701782,-0.086452,0.783897,0.614842
0.262091,0.346508,0.826929,-0.036207,0.536225,-0.843298
-0.497077,-0.057240,0.418446,0.290161,0.233314,0.928101
0.086459,-0.570528,0.093794,0.840051,-0.255775,-0.478427
0.630180,0.117319,0.621231,0.374533,0.569849,-0.731435
0.885524,0.252981,0.657464,0.331954,0.647427,-0.686036
-0.553411,0.275355,0.365918,-0.083172,-0.324879,0.942091
-0.843220,-0.319421,0.432949,-0.497699,-0.865830,-0.051328
-0.073189,-0.125383,-0.963577,-0.319982,-0.144601,0.936324
-0.666906,-0.391312,-0.988914,0.144716,0.018164,-0.989307
-0.445121,0.200795,0.544450,0.314811,0.360459,0.878045
0.190376,0.749291,0.537110,-0.133097,-0.746893,0.651487
0.352660,-0.287507,0.251050,0.770638,0.636069,-0.039172
0.196935,0.080636,0.754461,-0.170724,0.516794,-0.838914
0.027865,0.146054,0.847650,-0.303847,0.627680,-0.716725
-0.080277,-0.097785,0.833953,0.974927,0.149123,-0.165163
0.214508,-0.024077,0.860741,0.995177,0.035210,0.091563
0.722406,0.241624,0.620260,0.535257,-0.408550,-0.739315
-0.235552,-0.624872,0.586372,0.317867,-0.947266,0.040595
-0.186532,0.648268,0.595730,0.940308,0.321617,-0.111278
-0.423930,0.259114,0.735834,-0.231692,0.705380,0.669894
0.486822,0.303805,-0.921303,-0.189885,-0.154131,0.969632
-0.303272,-0.792732,0.127064,-0.806100,0.025397,-0.591234
0.263900,0.358206,0.282932,0.382794,0.080530,-0.920317
0.331096,-0.564509,0.204058,0.560525,0.716205,-0.415766
-0.421440,-0.674900,0.630261,-0.353920,0.500951,0.789803
0.047699,-0.618739,0.443947,0.837649,0.064994,0.542328
0.729043,-0.151278,0.619831,-0.510026,0.013707,0.860050
0.310508,0.042647,0.466018,0.095284,-0.810429,0.578036
0.569322,0.140545,0.616300,-0.170123,-0.738538,0.652395
-0.597906,0.455650,0.461414,-0.676206,0.403166,0.616606
0.506126,0.056502,0.321184,-0.137276,0.218314,0.966175
0.389087,-0.303861,-0.947573,-0.227486,-0.088102,0.969788
0.065571,-0.017434,0.859480,0.890799,-0.101248,-0.442974
0.585382,0.819648,0.451602,-0.184648,-0.571927,0.799253
-0.669396,0.040772,0.530514,0.665136,-0.278556,0.692821
-0.357341,-0.460307,0.757110,0.190472,0.894991,-0.403375
0.501827,-0.601817,0.433807,-0.010321,0.563148,0.826291
0.082008,-0.201079,0.779597,-0.491631,-0.855567,0.162189
0.392783,-0.401760,0.515569,-0.294847,-0.411723,0.862293
-0.566984,0.056899,0.643642,-0.610001,-0.032168,-0.791747
0.574224,0.766667,0.439457,-0.087934,-0.547450,0.832206
0.035934,-0.041908,0.989822,-0.327820,0.943324,0.051707
-0.160140,0.118342,0.771008,0.428624,0.235231,0.872323
-0.545116,0.405736,0.579990,0.723820,-0.336688,0.602267
-0.032390,-0.158092,0.841470,0.709347,-0.638368,-0.298853
-0.160968,-0.494946,0.721078,0.900993,-0.280275,0.331146
0.385768,0.508120,0.370483,0.502128,-0.561881,-0.657387
-0.600396,-0.620954,-0.990680,-0.093963,-0.165725,0.981685
-0.312469,-0.198693,0.496286,-0.024745,0.635393,-0.771792
0.329738,-0.257467,0.230266,-0.556405,-0.342720,0.756939
-0.406734,-0.350142,0.727321,0.580096,0.501793,0.641633
0.013307,-0.098978,-0.958406,0.264004,0.184299,-0.946750
-0.203351,-0.429359,0.485906,-0.433744,0.651502,-0.622424
-0.454396,0.183702,0.692664,-0.755801,0.643590,0.120648
-0.641043,-0.258887,0.304423,0.857377,-0.275602,0.434681
0.623465,0.224588,0.614004,-0.680384,0.544021,0.491038
0.429660,-0.042078,-0.936588,0.136815,0.148047,-0.979471
0.380567,-0.249347,-0.287460,0.892024,0.432433,0.131511
0.180498,0.076263,-0.734926,0.803149,-0.595328,0.023169
0.692695,0.079614,0.497976,0.253397,0.588634,-0.767658
-0.432528,0.060533,0.636516,0.682866,-0.367691,0.631266
0.348739,0.367234,0.809814,0.473757,-0.814855,0.334014
0.670749,0.139183,0.631219,-0.260365,-0.744962,0.614200
-0.345199,-0.748041,-0.986783,-0.162474,-0.088816,0.982707
0.008483,0.061215,-0.953828,-0.420604,-0.037810,0.906456
0.679646,0.199773,0.526340,0.322592,0.470211,-0.821484
0.172429,0.367803,0.268858,0.302648,0.194689,-0.933006
-0.311116,-0.658660,0.532923,-0.744055,0.154326,-0.650050
-0.299728,0.237024,0.715642,-0.698578,0.497551,0.514229
0.259150,-0.293242,0.711392,0.883207,-0.388681,-0.262435
0.330641,-0.441000,0.409757,0.423797,0.084519,-0.901805
0.330641,-0.060931,0.901212,0.363379,0.925370,-0.107920
-0.016703,-0.331175,0.673998,0.876140,-0.450320,0.172019
-0.429283,-0.773822,0.637084,-0.046719,0.811226,0.582863
0.268351,-0.394946,0.607194,-0.611848,0.495225,0.616761
0.440969,-0.729983,0.442156,0.330174,-0.292047,-0.897604
-0.494062,0.351732,0.510802,0.002748,-0.688623,0.725114
0.445420,-0.185633,-0.948040,0.197961,0.123448,-0.972405
-0.374837,0.357638,0.544791,-0.588684,-0.019216,-0.808135
-0.078694,0.236570,-0.303124,-0.691525,-0.713996,-0.109559
0.050262,0.086939,0.832314,0.627513,-0.336677,-0.702051
0.150331,-0.068768,0.585829,-0.513797,-0.546224,0.661552
0.608911,0.328336,0.541713,-0.103326,-0.654477,0.748988
0.447077,0.585576,0.702551,0.016198,-0.802271,0.596740
0.591867,-0.525497,0.144127,0.255596,-0.904565,-0.341223
0.096262,-0.029188,0.334666,0.840963,-0.539491,0.041604
0.467592,-0.450937,0.501305,0.489263,-0.023071,-0.871831
-0.389239,0.288643,0.279325,0.090763,-0.431020,0.897766
-0.107802,-0.097445,0.880630,0.377654,-0.690237,-0.617212
-0.344748,0.222089,0.709917,-0.420435,0.907007,-0.023915
-0.398288,-0.011982,0.207590,-0.260970,-0.944394,-0.200039
0.356582,0.351959,0.702879,-0.282427,0.600805,0.747842
-0.490366,-0.290232,0.416416,-0.299432,0.056921,-0.952418
-0.532822,-0.036400,0.422356,-0.023050,0.246678,0.968823
-0.843220,0.025042,-0.979102,-0.177641,-0.098389,0.979165
-0.366390,0.293185,0.544715,-0.288500,0.205057,-0.935264
0.175219,-0.438047,0.750741,-0.010553,0.893515,0.448910
0.388557,-0.765418,0.527853,0.370867,0.858763,-0.353530
-0.843372,-0.019251,-0.979859,-0.314057,-0.229561,0.921233
-0.211645,-0.171834,0.667743,0.957722,-0.002241,0.287687
-0.391729,-0.572629,0.432193,0.751918,0.463527,0.468789
0.265939,-0.064225,0.729402,0.487264,0.868210,0.093730
-0.144605,-0.495627,0.694808,0.455995,0.421864,0.783645
-0.049659,-0.067802,0.489766,-0.132556,0.189867,-0.972820
-0.235777,0.225951,0.784061,0.828882,-0.134446,0.543028
-0.505298,0.149063,0.608468,-0.503250,-0.700158,-0.506476
0.131253,0.046905,0.330176,0.977624,-0.194250,-0.080739
-0.036914,0.112549,0.842201,0.292914,0.885020,-0.361858
0.186905,-0.717434,0.383663,-0.249321,-0.741719,0.622649
-0.502057,-0.104884,0.422015,0.066665,0.322828,0.944107
0.327925,0.296422,0.684517,0.845934,0.241568,-0.475437
0.028013,-0.660875,0.487697,-0.238704,-0.470660,0.849411
-0.590817,-0.496196,0.440214,-0.020505,0.637733,0.769985
-0.860867,0.173084,0.661437,0.221844,0.690203,0.688771
0.446626,0.607893,0.415785,0.104915,-0.602670,0.791064
0.726632,0.168711,0.637689,0.446305,0.720470,-0.530787
-0.862147,-0.015162,-0.982243,-0.223490,-0.153614,0.962525
-0.527925,-0.157240,0.429721,0.083591,0.290479,0.953223
-0.234116,-0.178535,0.589638,0.797737,0.563858,0.213729
0.483352,0.758262,0.342990,0.702309,-0.630774,0.329980
-0.959583,-0.129870,0.480950,0.918198,-0.225981,0.325339
-0.384111,-0.432141,0.602742,0.681007,0.443780,0.582484
0.266013,0.321409,0.827496,0.159004,0.157839,-0.974579
-0.003959,-0.077285,0.856491,-0.304551,0.944939,-0.119745
-0.389317,-0.216979,0.554729,-0.712185,-0.685608,-0.150778
-0.073189,0.545713,0.572927,0.868738,-0.481071,0.117747
0.098522,-0.002385,0.009761,-0.744039,0.643330,0.180365
0.419253,0.506928,0.614925,0.935350,0.334546,-0.114885
-0.479660,0.482794,0.364531,-0.261582,0.245385,0.933467
0.517063,0.019421,0.404308,-0.587015,0.478837,0.652786
0.516911,-0.549972,0.424071,-0.001471,0.383675,0.923467
-0.732367,-0.395060,0.327515,0.637291,0.196681,0.745102
0.269861,0.198864,0.838922,-0.453828,0.679984,0.575901
-0.574754,-0.118455,0.587368,-0.286128,-0.571729,0.768932
0.255832,-0.487677,0.354290,-0.205692,0.475354,0.855412
-0.088875,-0.165077,0.733778,0.764856,-0.081155,0.639069
-0.464802,0.263771,0.666620,0.856659,-0.181495,0.482903
0.116851,-0.105224,0.181345,0.521090,-0.768019,-0.372306
0.192714,0.321465,0.609098,-0.650298,0.429764,0.626431
-0.156743,0.803123,0.342372,-0.157262,0.165542,0.973583
0.276042,-0.443214,-0.948884,-0.083379,-0.003152,0.996513
-0.103429,-0.002840,0.963956,0.025483,0.942487,0.333271
-0.466989,0.140715,0.706814,0.074235,-0.961030,0.266292
0.357337,0.337478,0.504143,0.928013,0.239776,-0.285129
-0.517288,0.340261,0.575526,0.770285,-0.068081,0.634055
-0.965612,-0.123566,0.344390,0.957701,-0.280058,-0.066158
0.404170,-0.529359,0.608795,-0.447660,-0.127673,0.885042
-0.352817,0.228336,0.721141,-0.561566,0.777246,0.283781
-0.137664,-0.070698,0.861674,0.807071,0.410702,-0.424217
-0.080203,-0.722658,0.266663,0.693466,0.602117,-0.395678
-0.560273,0.341567,-0.970337,-0.136448,-0.211175,0.967878
-0.082012,-0.170642,0.869329,-0.568916,0.529908,-0.628914
-0.416993,-0.003180,0.555725,0.886092,0.444300,-0.132057
0.713661,0.476661,0.579233,-0.452371,-0.683136,0.573311
0.563666,-0.105565,0.653605,-0.361333,0.386436,-0.848590
-0.215567,-0.603521,0.600825,0.127937,0.040539,0.990953
0.325062,-0.068995,0.904062,-0.142837,-0.988982,0.038884
-0.802274,0.125042,0.597949,-0.569466,-0.810724,0.135777
0.591719,-0.266440,0.778436,-0.429273,0.819837,0.378936
0.126802,0.035320,0.724988,0.969807,0.175074,0.169777
-0.593455,-0.345486,0.480508,0.173718,-0.750109,-0.638090
0.502430,-0.680012,0.533137,-0.572221,0.313338,0.757880
0.193920,0.393640,0.688830,0.742088,-0.160205,0.650876
0.374155,0.339864,0.354542,-0.528050,0.254701,-0.810118
-0.170699,0.231402,0.265100,-0.327291,0.383140,-0.863762
-0.155311,-0.408574,0.343961,0.759282,0.359733,0.542294
-0.021983,0.275184,0.252816,-0.524394,0.382309,-0.760822
0.282381,-0.900114,0.328600,0.108275,0.123122,-0.986467
0.048375,0.710222,0.195772,-0.027693,-0.348412,0.936932
0.211792,0.136400,0.603965,-0.545080,0.157119,0.823530
0.401003,0.513572,0.397523,-0.013754,-0.245500,0.969299
-0.527695,-0.255366,0.481328,-0.422242,0.470044,0.775093
-0.380493,0.046054,0.608152,0.653288,0.757088,0.005672
-0.358621,0.243611,0.533932,0.813370,0.116551,0.569951
0.079292,-0.410676,0.562535,0.856683,0.340593,-0.387414
-0.090532,-0.216014,0.718783,0.189413,-0.914781,0.356789
-0.028017,0.188927,0.402164,-0.326035,0.231458,-0.916585
-0.164361,0.031744,0.639669,-0.499534,-0.847195,-0.180904
0.133817,0.582680,0.514333,-0.142232,-0.408238,0.901727
-0.406812,-0.705508,0.545295,0.940913,0.099955,0.323562
-0.408092,-0.264793,0.494281,-0.117610,0.847674,0.517316
-0.180047,-0.076604,0.677076,-0.227032,0.362106,0.904066
0.574602,0.179160,-0.925729,-0.090989,-0.205034,0.974516
-0.129821,-0.084554,0.879759,0.602562,-0.716141,-0.352223
0.658685,0.656104,-0.909246,-0.157098,-0.034331,0.986986
0.095811,-0.538955,0.425509,0.875558,-0.430965,0.218329
0.319028,0.205168,0.771424,0.838655,-0.192420,0.509541
0.335469,-0.844918,0.408142,-0.458122,-0.405808,0.790850
-0.291959,0.259114,0.755811,-0.567955,-0.757527,-0.321837
0.456504,0.516411,0.682221,-0.438628,0.431315,-0.788399
-0.514048,-0.690914,0.295368,0.486771,0.842836,0.229525
-0.583200,0.177285,-0.967525,-0.001333,0.016327,0.999866
0.140376,0.119421,0.462247,0.794259,0.002268,-0.607576
0.221297,0.145543,0.707798,-0.654797,0.527713,-0.541073
-0.778970,0.012209,-0.978648,0.184780,0.046587,-0.981675
-0.531013,0.087280,0.415407,0.190415,-0.134940,0.972385
-0.479812,-0.209597,0.534096,0.974486,-0.214441,-0.066281
0.373023,0.042249,0.462928,0.094370,-0.810858,0.577584
0.488479,-0.175695,-0.942389,-0.217521,-0.145012,0.965223
-0.102674,-0.224361,0.847309,0.372622,0.531591,0.760634
-0.667734,-0.367405,0.530640,-0.845877,0.395680,-0.357672
-0.792769,-0.018057,0.665347,-0.556566,0.479245,-0.678644
-0.154410,-0.049915,0.730852,0.618005,0.519159,0.590376
0.511180,0.226463,-0.926587,-0.230296,-0.158002,0.960208
-0.543837,0.288188,0.736805,0.591204,0.784249,-0.188234
0.301685,-0.147246,0.506993,-0.534135,0.008821,0.845353
0.101919,-0.041851,0.982949,0.499761,0.827276,-0.256621
0.063610,-0.113856,0.837447,0.902668,-0.427777,-0.046884
0.401528,-0.516979,0.502276,0.598910,-0.374815,-0.707686
-0.352062,0.060477,0.842529,-0.534268,-0.415207,-0.736316
0.124390,-0.040148,-0.903255,0.818631,-0.570274,0.068052
0.263979,-0.270983,0.813232,-0.129566,0.797489,0.589257
-0.862750,0.246848,0.502983,0.931547,0.363408,-0.012462
-0.470910,0.284611,0.482766,0.530998,0.823872,-0.198182
0.160062,0.727881,0.534146,0.257480,0.556242,-0.790126
0.581690,0.144009,0.613121,0.366324,0.503791,-0.782305
0.597602,0.208404,0.503058,-0.568955,-0.728948,0.380690
0.554842,0.478819,0.552660,-0.645710,-0.431173,0.630197
-0.041743,-0.314707,0.492351,0.187875,0.008869,0.982153
-0.302366,-0.341681,0.554489,0.473919,-0.853569,-0.216379
-0.544136,-0.253266,0.423276,0.578818,-0.160421,0.799522
-0.410204,0.395854,-0.963010,0.170746,0.443068,-0.880078
-0.177258,-0.334867,0.701769,0.396465,-0.256703,-0.881430
-0.969838,-0.209881,-0.996015,-0.347924,-0.270676,0.897599
0.040532,0.883419,-0.925767,0.329887,0.320139,-0.888080
-0.237665,0.109881,0.574529,0.141803,0.447409,0.883016
0.385543,-0.286769,-0.300009,0.888835,0.439090,0.131040
0.404244,-0.226973,0.899156,0.828425,0.470114,-0.304475
-0.813431,0.178819,0.489034,0.978897,0.100934,-0.177686
0.281096,-0.724872,0.314273,0.118314,0.322388,0.939185
0.548808,-0.320784,0.695400,0.785312,0.010508,-0.619010
0.216620,0.255934,0.597382,0.881905,-0.441608,0.165002
0.739828,0.212322,-0.919524,-0.057281,-0.228252,0.971916
-0.607484,0.222828,0.696662,-0.726488,0.481935,-0.489851
-0.066630,-0.108631,0.548335,-0.688006,-0.191978,-0.699852
0.408695,0.077456,0.670795,0.859242,-0.080729,0.505159
0.529577,-0.058205,0.578161,0.601923,-0.269710,-0.751628
-0.093326,0.756672,0.462865,-0.724885,0.203096,-0.658251
-0.213679,0.462862,0.292189,-0.380694,0.377484,-0.844143
0.304700,-0.875583,0.388115,-0.051092,-0.782899,0.620048
0.157949,-0.036059,0.995460,0.902752,0.024225,0.429479
-0.689381,-0.418626,0.484847,0.874095,-0.352990,-0.333702
0.316690,0.035378,0.723815,0.825824,-0.400327,0.397181
-0.675881,0.256729,0.511105,-0.806534,0.588418,-0.057162
0.371366,0.623453,0.713347,0.946491,-0.123583,-0.298130
-0.478832,-0.293527,0.041480,0.208577,-0.722738,0.658897
-0.880171,-0.323680,0.463218,0.650306,0.424649,0.629901
0.475058,-0.540602,0.238009,-0.365910,-0.115165,0.923497
0.076581,-0.856445,0.306794,0.733723,0.522632,-0.434173
0.016478,0.451278,0.415154,0.410136,-0.366461,0.835161
0.347082,-0.545713,0.199543,0.580173,0.701089,-0.414576
0.247689,0.628166,-0.925969,-0.056492,-0.004693,0.998392
0.337351,0.243157,0.705843,0.970225,-0.197926,-0.139599
-0.085556,-0.054629,0.838506,0.789701,0.076365,0.608720
-0.152826,-0.193470,0.806081,0.467091,-0.865644,-0.180239
-0.841936,0.204486,0.647287,-0.753353,0.099492,-0.650047
0.173184,0.391595,0.264708,0.281318,0.268269,-0.921353
0.548131,-0.623169,0.232965,-0.671641,0.027880,0.740352
0.493984,-0.112436,0.723184,-0.019170,0.744826,0.666984
0.020850,-0.191595,0.727447,-0.709158,0.704751,0.020508
-0.029375,-0.301022,0.654362,-0.771358,0.629314,-0.094710
-0.842014,-0.206360,0.278090,-0.433077,-0.853382,0.290143
-0.377930,-0.730323,-0.036789,-0.702837,0.658820,-0.268285
-0.654842,0.103009,0.599765,-0.015063,0.801196,0.598213
0.247386,-0.177172,0.793444,0.492959,-0.258171,-0.830866
-0.052600,0.210051,0.460859,0.186768,-0.601289,0.776897
-0.292032,0.262692,0.743035,0.265067,-0.915804,0.301731
0.311562,0.138104,0.790544,0.882943,-0.401875,-0.242708
0.292635,-0.094378,0.806712,0.853375,0.508031,-0.116853
0.902794,-0.157809,0.442244,0.753839,0.349572,-0.556352
0.435165,0.288415,0.784830,-0.224486,0.695527,-0.682530
0.466234,0.476491,0.295557,-0.349995,-0.092148,-0.932208
-0.118586,-0.265986,0.632947,0.223495,-0.540865,-0.810873
0.108704,0.023396,0.894818,0.808914,0.540788,-0.230666
0.122429,-0.160136,0.766745,0.083736,0.619954,0.780157
-0.410278,0.540545,-0.948910,0.112481,-0.002582,0.993650
0.249047,0.308462,0.281205,0.318020,0.098952,-0.942906
0.407033,-0.529983,0.142816,0.255596,-0.904565,-0.341223
-0.453567,-0.738955,0.633502,0.490414,-0.331975,-0.805783
-0.032767,-0.623964,0.345840,-0.385661,0.769791,-0.508614
0.220616,-0.147246,0.870149,-0.309725,-0.245512,0.918583
-0.044003,-0.000852,0.693559,0.185883,0.926632,0.326804
0.232606,-0.705225,0.314601,0.023823,-0.304830,-0.952109
0.453038,-0.106020,0.512429,-0.102480,0.478093,0.872310
0.919309,0.227995,0.669647,0.655051,0.608628,-0.447750
-0.284719,-0.125383,0.753869,-0.525263,-0.600930,-0.602480
-0.419783,-0.358546,0.575727,0.746465,0.591809,0.304225
-0.450474,-0.201306,0.535433,0.990039,0.048070,0.132331
0.681534,-0.291653,0.570191,0.828768,0.535902,-0.161098
0.633043,-0.279614,0.785814,-0.282754,0.889515,0.358906
-0.799181,0.350482,0.593409,0.887625,-0.422473,0.183410
-0.355832,-0.022487,0.845543,0.553067,0.329925,0.765027
-0.059537,-0.671493,0.471945,-0.057311,-0.212584,0.975461
0.578146,-0.299716,0.683356,0.049921,0.586200,0.808627
0.163077,0.301193,0.597104,0.836246,-0.216593,-0.503766
0.125974,-0.044122,0.425042,0.877913,0.468180,-0.100376
-0.338940,0.200284,0.519151,0.634081,-0.554338,0.539120
0.204778,0.062067,-0.593737,0.703741,-0.710190,0.019457
0.510121,-0.574390,0.430906,-0.034309,0.409155,0.911820
-0.472572,0.389154,0.557793,0.430239,0.853893,0.292850
-0.368881,0.541794,0.441740,-0.142104,0.487568,0.861443
-0.552131,-0.317717,0.736363,0.238714,0.807588,0.539274
0.048905,-0.484782,0.439798,-0.737153,0.193795,-0.647340
0.300704,0.352868,0.829741,-0.014676,-0.622698,0.782325
0.427621,0.281886,0.765232,0.614114,0.403539,-0.678248
0.218204,0.574219,0.344062,-0.416690,0.145785,0.897283
-0.579881,0.313742,0.731912,-0.241528,-0.901393,0.359381
0.488175,0.582453,0.690747,-0.088526,-0.885204,0.456702
0.062478,0.201477,0.856554,0.736933,-0.587718,-0.333941
0.325513,0.442703,0.689523,-0.495623,0.460807,-0.736216
-0.139929,-0.348439,0.073627,0.225455,0.773661,0.592131
0.513214,-0.034469,0.421283,0.700229,-0.704752,0.114035
-0.443160,-0.659341,0.274735,-0.452662,-0.802992,-0.387686
-0.969460,-0.224645,0.365186,0.982680,0.134969,-0.126978
0.035478,0.029245,0.920243,0.523447,-0.741341,0.420021
0.526489,0.632084,0.312747,0.024282,-0.467351,0.883738
0.394969,-0.018909,-0.936462,-0.127044,-0.207400,0.969972
0.319332,-0.035321,0.837800,0.563178,0.730843,-0.385615
0.705137,0.441397,0.559975,-0.049624,-0.753675,0.655371
-0.152370,-0.026632,0.610965,0.368945,0.922948,-0.109754
-0.542401,-0.646962,0.597583,0.945351,-0.016283,-0.325646
-0.921950,0.050937,0.326014,-0.258393,-0.634104,0.728797
-0.555298,0.328904,0.734623,-0.823939,0.065298,-0.562904
-0.103052,-0.099091,0.846099,0.804020,-0.091250,0.587558
-0.058483,-0.054629,0.620411,0.169528,0.968328,-0.183305
-0.075601,0.180352,0.722036,-0.385258,0.914426,-0.124102
0.299498,0.079103,0.855633,-0.629897,0.581825,-0.514499
-0.266395,0.059285,-0.967613,0.233278,0.138091,-0.962555
0.407562,-0.227769,0.862229,0.539927,0.821393,0.183825
-0.480940,-0.273140,0.327755,0.212406,0.975592,0.055716
0.543529,0.128564,-0.930862,-0.083286,-0.230140,0.969587
0.459974,-0.251618,0.529165,-0.611225,-0.357710,0.706008
-0.158253,-0.099716,0.736073,0.534449,0.625402,0.568539
-0.222126,-0.353947,0.564667,-0.261014,0.804774,0.533114
0.716073,-0.406984,0.536278,0.268934,-0.903314,0.334214
-0.150865,-0.389892,0.395102,0.796596,0.406499,-0.447429
-0.759965,-0.361215,-0.988372,-0.223668,-0.099028,0.969622
0.113307,0.080068,0.825566,0.438571,0.880794,0.178484
0.202444,0.330778,0.794706,-0.674287,-0.581211,0.455556
0.782210,0.565475,0.597268,0.633173,0.364115,-0.683017
-0.175449,-0.737990,0.488870,0.851458,-0.054397,0.521595
0.016625,-0.121295,0.940863,-0.310013,0.681424,0.662988
-0.596925,-0.005792,0.653239,0.948775,0.169984,0.266331
0.187283,-0.200795,0.781753,0.783546,0.213407,-0.583535
-0.098453,0.469903,0.568930,-0.058329,-0.148160,0.987242
0.892010,0.117547,0.519782,0.711186,0.619441,-0.332427
0.446778,-0.789949,0.495580,-0.083388,-0.996385,-0.016258
0.178689,-0.047871,0.399377,-0.641481,-0.764495,-0.063638
-0.809887,0.035491,0.428069,0.643700,0.008096,-0.765236
-0.549415,0.255764,0.687846,-0.601163,0.700927,-0.383802
0.357415,-0.608859,0.408029,0.890422,-0.162810,-0.425020
-0.222581,0.652129,-0.947598,0.534155,-0.156393,-0.830794
-0.485087,0.436684,-0.954509,0.010711,-0.488977,0.872231
-0.019645,-0.549574,0.578830,-0.584480,-0.044417,-0.810191
0.412464,-0.477853,0.507082,0.569096,0.466097,0.677409
-0.820897,0.194094,0.537337,0.967345,0.184373,-0.173925
0.173635,-0.625043,0.569901,-0.439779,0.596380,0.671510
-0.839147,0.237989,-0.975697,-0.154667,-0.051212,0.986639
-0.043022,0.563657,0.616451,-0.119007,-0.630078,0.767359
0.163003,0.293016,0.578111,-0.687579,0.436000,0.580636
0.559744,-0.329926,0.682120,0.899278,-0.105402,-0.424487
-0.309380,-0.333447,0.632796,0.024778,0.897402,0.440517
-0.168282,-0.029074,0.179062,-0.161227,-0.698141,0.697571
0.640284,0.824702,0.455663,-0.184648,-0.571927,0.799253
0.339013,-0.179671,0.885082,0.870320,0.306492,-0.385493
-0.780176,0.110903,0.582815,0.512217,0.846599,-0.144583
-0.113458,-0.745429,0.166879,0.870744,-0.173780,0.460006
0.147317,0.093413,0.613184,0.606195,0.133447,-0.784040
-0.109988,-0.226690,-0.970312,-0.256939,-0.088413,0.962375
0.026807,-0.025269,0.827458,0.550519,0.280572,0.786262
-0.653935,0.163714,0.620890,0.148422,0.167406,0.974652
-0.619999,0.191993,0.705376,-0.518474,0.738356,-0.431294
-0.621886,-0.337820,0.615492,-0.518976,0.638023,-0.568850
0.341954,-0.856275,0.406843,0.833179,0.329368,-0.444218
-0.815244,-0.398240,0.477810,0.510925,-0.116558,-0.851687
-0.083748,0.189438,0.108953,-0.207813,-0.653957,0.727430
-0.901588,-0.115162,-0.983680,-0.169048,-0.204995,0.964054
-0.261341,-0.603350,0.495403,0.846117,0.301178,0.439747
0.181326,-0.190744,0.573974,-0.543504,-0.399241,0.738383
-0.847970,-0.031516,-0.982583,-0.182378,-0.155778,0.970810
0.270616,-0.266780,0.813548,-0.173679,0.741026,0.648626
-0.766450,0.292391,-0.975975,-0.239835,-0.104339,0.965190
0.649484,0.827768,-0.882963,-0.153618,-0.426844,0.891182
0.220390,-0.013004,0.703472,-0.579912,0.571827,-0.580273
0.576411,0.336968,0.359410,-0.802138,0.547811,-0.237651
-0.245204,-0.677059,0.517171,0.749972,-0.309454,0.584620
-0.352969,0.614310,-0.950322,-0.068964,0.067099,0.995360
0.098826,0.062521,0.575563,0.972887,-0.226120,-0.048584
-0.177483,-0.000114,0.809764,-0.557905,-0.423084,-0.713963
0.163302,-0.078592,0.970766,0.943824,-0.316901,0.093646
0.079748,0.268314,0.574655,0.928001,0.323779,-0.184340
0.273856,0.060988,0.850223,0.849355,-0.491782,0.191694
-0.299802,-0.689722,-0.190804,0.866472,-0.497777,-0.038005
0.177331,-0.350880,0.583105,0.798050,-0.280500,-0.533325
0.190979,0.191312,0.609867,0.992159,-0.006799,-0.124799
0.334337,-0.468427,0.228033,-0.600329,-0.315785,0.734769
-0.118512,-0.067859,0.854410,0.886647,0.297484,-0.354062
0.181552,-0.089665,0.100049,0.947345,0.305938,-0.094548
0.287052,0.604316,-0.920647,0.050132,-0.049246,0.997528
0.710568,0.163317,0.514497,0.134571,0.762580,-0.632742
0.366763,0.654060,0.719047,-0.635522,0.555465,-0.536255
