0.437478,-0.551740,0.529908,-0.149711,0.946577,-0.285621
0.753889,-0.295867,0.298029,-0.205176,0.977971,-0.038426
0.700215,-0.492930,0.496554,0.566846,-0.263716,-0.780473
-0.419004,0.044110,0.850377,-0.242837,-0.949316,-0.199573
-0.229989,0.649062,-0.972126,0.270152,0.079409,-0.959537
-0.037371,-0.360883,0.777334,0.409256,-0.325890,0.852235
0.113213,0.145056,0.409934,0.870403,-0.387768,-0.303372
-0.261492,0.827351,0.365251,-0.305267,0.188869,-0.933349
0.011501,-0.177116,0.710953,0.539467,0.476010,-0.694543
0.258901,-0.476413,-0.878423,0.918163,0.385303,-0.092292
0.324309,0.182358,0.691989,-0.089592,-0.952110,0.292335
-0.387317,-0.193958,0.410118,0.828132,0.250460,0.501465
-0.078666,-0.080522,0.848012,0.839824,0.200278,0.504563
-0.485057,0.137321,0.467536,-0.738608,0.383551,-0.554389
0.239778,0.355169,0.747304,-0.423304,0.809893,-0.406062
-0.034230,0.477544,-0.965226,-0.258487,0.079940,0.962702
-0.537809,-0.145213,0.684183,0.762524,-0.465002,-0.449812
-0.534113,0.449024,0.650947,0.130728,-0.986811,0.095468
-0.741698,0.167051,0.722400,-0.239110,0.463754,-0.853088
-0.019725,0.021953,-0.173784,0.966528,-0.239063,-0.093129
0.867335,-0.348477,0.465472,0.812868,0.336805,0.475193
0.181576,-0.570111,0.754821,0.979204,0.011587,0.202548
0.181486,0.378531,0.921069,0.176276,-0.368032,0.912951
-0.505568,0.525964,0.768371,0.939762,-0.278438,0.198291
-0.694306,-0.337683,0.563315,0.206032,0.977568,0.043715
-0.021758,0.147795,0.764533,-0.437500,-0.057269,0.897393
-0.524414,-0.496072,0.478010,0.859603,-0.472931,0.193438
-0.057047,0.316658,-0.962072,0.331447,-0.169733,-0.928081
-0.249575,0.464656,0.965489,-0.000694,-0.703726,0.710471
0.015750,-0.029526,-0.402233,-0.406662,-0.912844,0.036620
-0.713336,0.544895,0.481112,-0.403471,0.273232,-0.873244
-0.242921,-0.346707,0.850601,0.442333,0.825721,0.350037
-0.014552,0.214502,0.537228,0.271439,-0.962405,0.009859
-0.049658,-0.360082,0.841086,-0.599472,0.799348,-0.040942
-0.308791,-0.410916,0.407345,0.331960,0.478072,-0.813172
0.103236,0.326487,0.236524,0.344801,0.470397,0.812305
-0.384177,0.112588,0.188858,0.946789,-0.302828,0.109020
0.012979,0.025017,-0.031206,-0.458158,-0.878026,-0.138425
0.055567,-0.023079,0.759014,0.975220,0.201324,0.091735
0.012054,-0.228840,0.681094,0.719769,0.457542,0.522099
0.330497,-0.538852,-0.376409,-0.378468,0.664969,0.643877
-0.546679,0.601129,0.646583,-0.084204,-0.965385,0.246864
0.493740,-0.174461,0.825158,-0.524730,-0.706216,-0.475307
-0.042914,0.469244,-0.007406,0.894429,0.400465,0.199060
0.034042,-0.388198,0.340833,-0.265620,-0.381732,0.885283
0.284768,0.310614,-0.947681,-0.267485,0.160951,0.950024
0.137972,-0.024933,0.809256,-0.510063,0.430859,0.744444
0.318859,-0.527813,0.437533,-0.195699,-0.031396,0.980161
-0.604694,0.519921,0.461083,0.264819,0.901639,-0.341933
-0.079035,-0.548923,0.449833,-0.194771,0.685034,0.701992
-0.873991,0.089707,0.732559,-0.257209,-0.957058,0.133725
0.473416,-0.069970,0.724595,0.908158,-0.317326,-0.273042
0.050577,0.063528,0.877148,0.346305,-0.728427,0.591157
0.892001,0.126125,0.564840,0.443268,-0.865700,-0.232544
-0.549912,0.351786,0.577009,-0.054468,-0.048550,0.997335
0.028130,0.349367,0.927495,0.516774,-0.837690,0.176694
0.269710,-0.382799,0.423510,0.065624,0.545465,0.835561
0.153679,-0.160521,-0.347706,0.989043,0.145519,0.024875
-0.225924,0.799559,-0.021757,0.730969,0.573132,0.370410
0.487180,-0.281288,0.420264,-0.760694,-0.330889,-0.558441
0.623538,0.493417,0.556928,0.341693,-0.209538,0.916155
-0.582061,-0.219493,0.393336,0.146041,-0.755398,0.638785
0.024710,0.071420,0.902341,0.907321,0.024452,-0.419726
0.002076,0.303204,0.899739,-0.033809,-0.995830,0.084737
0.460757,-0.560282,-0.895652,0.872310,-0.405261,0.273566
-0.062959,0.299093,0.901632,0.288910,-0.950001,-0.118442
0.256036,-0.482535,-0.703107,0.981791,-0.070775,0.176287
-0.282279,0.342276,0.679530,-0.192738,-0.101158,0.976022
-0.529771,0.311180,-0.979617,-0.306385,0.105041,0.946094
-0.269250,0.184773,0.567021,-0.732109,0.647142,-0.212660
-0.004760,0.112105,-0.046398,0.944086,-0.287809,0.160836
-0.038942,0.050557,0.854701,0.224357,-0.380018,0.897358
0.380478,-0.214905,0.551369,-0.656311,0.607420,-0.447544
-0.354613,0.748641,0.373360,-0.597417,0.499257,-0.627563
0.241348,-0.529505,0.590125,0.704020,0.080999,0.705546
0.054366,0.311583,0.769633,0.679404,-0.091197,-0.728075
-0.187863,0.666066,-0.005802,0.756824,0.567415,0.324433
0.299736,-0.446767,-0.920832,-0.375202,0.892634,-0.249857
0.002446,-0.008981,-0.167069,0.962321,0.129458,0.239120
-0.559058,-0.482860,0.633231,0.482998,0.845475,-0.227782
0.761927,-0.371037,0.268985,-0.587661,0.790136,-0.174184
0.601734,0.463928,-0.938613,0.201810,-0.251795,-0.946505
0.382880,0.298292,0.803552,-0.783102,0.402314,0.474230
0.441634,-0.082858,0.807350,0.924779,-0.277493,-0.260348
0.360339,-0.439273,-0.850627,0.474318,0.874908,0.097772
0.749824,0.046770,0.702542,0.420555,-0.106228,-0.901027
0.112568,-0.154236,-0.316796,0.994202,0.086960,-0.063253
0.071919,0.620301,-0.962190,0.170160,-0.013810,-0.985320
-0.450783,0.701755,0.359718,0.245202,-0.959672,-0.137499
0.075615,-0.378044,0.766847,0.038070,0.034628,0.998675
0.030808,-0.207249,0.823423,0.913332,0.056541,0.403271
0.326711,-0.486321,-0.619629,0.993491,-0.091413,-0.067973
-0.016215,0.025095,0.801226,-0.731541,0.639436,-0.236578
-0.074786,-0.082941,0.680897,0.509962,0.042708,0.859136
-0.024992,-0.369262,0.828233,0.943345,-0.320140,0.087237
0.004016,-0.302476,0.813435,-0.657440,0.753276,-0.018661
-0.421775,0.074887,0.622757,0.840712,-0.495795,0.217695
-0.022773,0.295150,0.337666,0.908771,0.282753,0.306896
-0.190448,0.409465,-0.969064,0.282878,-0.047677,-0.957970
0.463622,-0.746625,-0.322658,0.033967,0.718095,0.695116
-0.175114,0.267111,0.914879,0.773925,-0.168344,0.610492
-0.111369,0.313274,0.919268,0.454808,0.574618,-0.680414
0.100650,0.645763,0.336010,-0.375646,0.358783,-0.854497
-0.417619,0.625538,0.733176,0.899648,0.384383,0.207084
0.060833,0.167616,0.924433,-0.628316,0.577529,0.521229
0.039954,-0.196697,0.691135,-0.561402,0.711545,-0.422530
0.026835,0.393115,0.916140,-0.670287,0.286926,0.684389
0.032285,0.266546,0.846908,-0.391260,-0.705444,0.590985
-0.435911,0.441855,0.959259,0.350975,-0.831078,-0.431422
-0.676291,0.217482,0.754664,-0.369246,-0.882647,-0.290847
0.471567,0.056678,0.535493,-0.037578,-0.379604,0.924386
0.385375,-0.409303,-0.386094,-0.442329,0.461884,0.768771
0.141852,0.171240,0.871208,0.049212,-0.668919,0.741704
0.189431,-0.707390,0.608892,0.468411,0.883134,-0.025804
0.044575,-0.202253,0.846724,0.844402,-0.529105,-0.083862
0.492539,-0.348801,0.745412,-0.068466,0.705343,0.705552
0.444498,-0.259052,0.739590,-0.588088,0.462015,0.663849
-0.046700,0.156415,0.903918,0.412048,0.760540,-0.501793
0.509444,-0.173251,0.821228,-0.705617,-0.628247,-0.327735
0.714627,0.239717,-0.926601,0.275293,-0.111081,-0.954921
-0.450044,-0.073756,0.696720,-0.617310,-0.046894,-0.785321
0.420018,0.016638,0.535217,-0.015655,0.513375,0.858021
0.551663,0.565199,0.561213,0.000143,-0.960908,0.276869
-0.348053,0.432350,0.753507,0.672547,0.737081,-0.066280
0.452443,0.372325,0.479456,0.500538,-0.236900,0.832671
-0.345098,-0.220786,0.849970,0.050508,0.998597,-0.015906
-0.140747,-0.408339,0.797152,0.984182,0.003437,0.177130
-0.030072,0.247133,0.766255,-0.910008,0.412286,-0.043665
0.508612,-0.424772,0.454617,0.608033,0.637158,-0.473630
-0.495314,0.505661,0.959194,-0.343027,-0.156826,0.926142
0.642569,-0.431617,0.534810,0.343885,0.571861,0.744794
-0.346023,0.394964,0.432039,0.432122,-0.301431,-0.849947
0.718137,0.470134,-0.934579,0.164931,-0.269106,-0.948883
-0.284494,0.216031,0.948299,0.737263,0.619381,0.269836
-0.036723,-0.232548,0.834554,-0.248331,0.966911,0.058444
-0.687562,0.022115,0.709232,0.799194,0.439687,-0.409835
0.344078,-0.253333,0.709678,-0.603535,0.381737,0.700016
-0.499839,0.259780,0.248168,0.898129,-0.424864,0.113377
-0.138807,0.440001,0.676416,0.311880,0.698309,-0.644280
-0.376322,-0.098327,0.161733,-0.562884,-0.135027,-0.815432
-0.068319,0.690072,-0.966422,0.299624,-0.056787,-0.952366
0.810427,0.257764,0.550896,0.053480,0.197507,0.978841
-0.668252,0.190093,0.725462,-0.178170,-0.373525,0.910348
-0.518962,0.670172,0.730246,-0.274196,-0.930874,0.241433
-0.211697,-0.041288,0.291813,-0.029971,0.958249,0.284359
-0.802116,-0.200645,0.616817,-0.611135,-0.491862,-0.620150
-0.447183,0.505337,0.242649,0.873451,0.165707,0.457847
0.514804,-0.303282,0.396923,-0.733029,-0.619759,-0.280298
0.214190,-0.379175,-0.588574,0.918018,0.387378,-0.084742
-0.235349,0.333494,0.804420,0.182811,0.842081,0.507425
0.429996,-0.197016,0.713687,-0.540674,0.818676,0.193498
-0.556008,-0.010835,0.729457,-0.340781,0.757059,0.557432
-0.384639,-0.226264,0.501902,-0.020927,0.071799,0.997200
0.457803,-0.141914,0.782683,-0.659375,0.698791,0.277335
-0.156084,0.387633,0.941649,0.250358,-0.571667,0.781357
-0.125503,0.256962,0.908492,0.434949,-0.760419,0.482268
0.909833,0.690795,0.459900,-0.746787,0.660376,-0.078827
-0.126151,-0.036213,0.614688,0.775787,0.079788,-0.625929
-0.182320,-0.070289,0.876583,-0.130515,-0.192376,-0.972603
0.083005,0.168260,0.913420,0.749091,0.177538,0.638235
0.522100,-0.441289,0.451568,0.819209,0.370281,-0.437937
0.308419,-0.430973,-0.582555,0.866277,0.458016,-0.199464
0.306203,0.187757,0.817917,0.781816,-0.495467,0.378519
0.102867,-0.229081,0.742547,0.570504,-0.015298,0.821153
-0.370596,-0.593232,0.406938,0.825329,0.134777,-0.548332
0.598872,0.058611,0.513651,-0.208645,0.932879,0.293604
0.674441,0.667512,0.514545,-0.323962,0.567303,-0.757110
0.249110,-0.139175,0.819757,0.393315,0.855434,-0.336952
-0.292070,0.467715,0.976936,0.974029,0.207797,0.089936
-0.053813,-0.331075,0.620234,0.033484,-0.371637,0.927774
-0.414292,0.456194,-0.977961,-0.292386,0.061781,0.954303
0.324123,-0.127895,0.823844,-0.076380,0.799489,-0.595805
-0.581136,0.463122,-0.983060,-0.227705,0.082020,0.970270
-0.680542,0.057804,0.723412,-0.333951,-0.695123,0.636617
0.326525,0.151822,0.602295,0.725556,-0.131421,0.675498
0.592405,-0.473674,0.280090,0.314379,-0.107471,-0.943195
0.272758,0.258491,0.716118,-0.229096,-0.857163,0.461289
0.055381,0.193151,0.548622,-0.543449,-0.814920,0.201414
-0.047069,0.340585,0.942582,0.533604,-0.486331,0.691917
-0.076077,-0.260503,0.831729,0.171364,-0.743502,-0.646404
0.567829,-0.813091,-0.320870,0.039780,0.729545,0.682775
0.517019,0.410355,0.548123,-0.060676,0.628736,0.775248
-0.406624,0.298533,0.598851,-0.008247,0.175142,0.984509
-0.297706,0.469888,-0.974767,-0.284818,0.022869,0.958309
-0.131970,0.089226,0.912986,0.619559,0.476869,0.623493
-0.301585,0.434764,0.959680,0.066930,0.947508,0.312648
0.485610,0.137405,0.546993,-0.441835,0.507035,-0.740066
0.305924,-0.223766,0.540921,-0.694204,0.517488,0.500287
-0.194421,0.769589,0.359179,0.185569,0.375902,-0.907889
0.136771,-0.128135,0.686969,0.290613,-0.187337,-0.938322
-0.674351,-0.233674,0.505438,0.788904,-0.124964,0.601676
0.360616,-0.782880,0.574683,0.991193,0.095577,-0.091661
0.031733,-0.568095,0.646702,0.055129,0.046504,0.997396
-0.418358,0.584534,-0.978828,-0.211225,0.092656,0.973036
0.584736,-0.420101,0.299777,0.744915,0.419106,-0.519087
0.574575,0.089791,0.723478,0.002415,-0.938803,0.344446
-0.236547,0.244310,0.932305,0.541478,-0.169367,0.823479
-0.595731,-0.131278,0.847171,-0.297082,-0.804891,-0.513705
0.102404,-0.203787,-0.572147,0.872352,0.488431,0.020922
-0.024992,0.119840,0.608143,0.805074,0.550006,0.222147
0.358583,0.318270,0.702516,0.115771,0.700751,0.703950
-0.797405,-0.381993,0.516227,-0.104993,0.890137,0.443433
-0.213361,0.020345,0.849615,-0.321332,0.593976,0.737522
0.543073,0.195571,0.548399,0.037039,0.687178,0.725544
0.186935,0.504535,-0.959089,0.275473,-0.116789,-0.954188
-0.228695,0.573175,0.555482,0.258397,0.422314,0.868840
0.735414,-0.415184,0.674563,-0.438292,-0.737387,0.513965
0.175481,0.300465,-0.951256,-0.258409,0.233503,0.937391
-0.745115,0.026467,0.692462,0.287248,0.903329,-0.318567
-0.350734,0.364433,0.658385,0.947493,-0.042661,-0.316919
-0.456328,0.435330,0.966580,0.883601,-0.342079,-0.319736
-0.563121,0.172366,-0.979590,-0.329179,0.068455,0.941783
0.043650,0.357908,0.932897,-0.431787,0.836174,-0.338192
-0.024067,0.124350,0.016106,0.876734,-0.374674,0.301591
-0.002635,0.019942,0.902525,0.182016,0.198635,0.963024
0.158021,-0.490998,0.627462,0.889932,0.000897,0.456092
0.337427,0.340585,0.418700,0.051827,-0.328256,0.943166
0.584550,0.489306,-0.938758,-0.201241,0.137721,0.969812
-0.156912,-0.180824,0.874572,0.251588,0.604418,0.755898
-0.121623,-0.123543,0.823831,-0.675386,0.020942,-0.737167
0.040230,0.089629,-0.139667,0.899723,-0.423290,0.106413
0.395352,-0.706825,-0.516056,0.895851,0.360278,0.260098
-0.030628,-0.708034,0.328953,0.804903,0.519200,0.287338
-0.277289,-0.288378,0.806483,-0.283242,0.797480,0.532729
0.018152,-0.715848,0.338218,0.825448,0.469998,0.312632
-0.219918,-0.306906,0.572265,-0.129205,-0.304464,0.943720
0.081341,-0.416315,0.762233,-0.003155,-0.252364,0.967627
-0.485706,-0.151901,0.424969,0.689352,0.653163,-0.313324
0.724142,0.402217,0.457443,0.765481,-0.642634,0.032566
0.090025,0.048058,0.879356,-0.690537,0.578488,-0.434178
0.565613,-0.388842,0.446890,-0.128423,-0.847113,0.515662
0.129658,-0.208862,0.718983,-0.474856,0.867589,0.147653
-0.370134,-0.309326,0.846343,-0.390206,-0.617919,0.682580
-0.156636,0.545702,0.958090,-0.239101,0.090714,0.966748
-0.194421,-0.002535,0.581057,-0.562788,0.209452,0.799625
-0.795096,0.330839,0.719982,-0.160628,-0.124413,0.979142
-0.356184,0.001089,0.426730,-0.009182,-0.697941,0.716096
-0.295304,0.897604,0.204497,-0.589197,-0.769330,0.246938
-0.015567,-0.037742,0.446942,0.599624,-0.015208,-0.800137
0.444129,-0.277983,0.741798,-0.015113,0.307336,0.951481
0.418538,0.380704,0.690044,0.714037,0.675833,0.182758
-0.255487,0.788520,-0.036726,0.834328,0.550107,0.035756
0.775045,-0.465217,0.344605,-0.294536,-0.919180,-0.261452
-0.507231,0.451926,0.767385,0.976923,0.087916,-0.194660
-0.046238,0.133053,0.886321,-0.025372,0.678801,0.733884
0.132060,0.292327,0.692186,0.979515,-0.010216,-0.201113
-0.893946,0.108644,0.787742,-0.174930,-0.676757,-0.715122
-0.118852,-0.426385,0.800622,-0.624899,0.470555,0.622960
0.034967,0.459818,0.665902,0.831623,-0.145806,0.535859
-0.942168,-0.116133,0.692134,0.996739,0.034507,-0.072936
-0.482565,0.582921,0.985241,0.345793,0.184320,0.920029
0.409948,-0.196052,0.533417,0.311759,-0.670527,0.673201
0.429810,-0.547472,0.519079,-0.144996,-0.976786,0.157690
0.616978,0.458451,0.497119,-0.601016,0.767745,-0.222143
0.342787,-0.795851,0.576247,0.892967,-0.449743,-0.018440
0.455584,-0.188799,0.546822,-0.112067,0.162878,0.980261
0.011961,-0.023404,0.883312,0.831861,-0.074129,0.550010
-0.454296,0.069891,0.771196,-0.097301,-0.710750,0.696683
0.011685,0.128057,0.891775,-0.025350,-0.089750,0.995642
0.737537,-0.387795,0.348863,0.419555,0.751638,0.508934
0.345279,-0.796736,0.597682,-0.258899,0.943682,-0.205999
-0.139732,0.402380,-0.091922,0.984912,0.146238,-0.092541
-0.291515,0.045880,0.709692,0.344301,0.210961,0.914851
0.060185,-0.632545,0.455997,0.088515,0.775285,0.625378
0.352395,-0.771762,0.583357,0.946769,-0.318972,0.043414
0.129472,0.117746,0.928192,-0.161827,0.094695,-0.982265
0.028682,-0.452004,0.771564,-0.083176,0.438258,0.894993
-0.435262,0.524676,0.749473,-0.252726,0.713956,-0.652991
-0.329023,0.776517,0.319083,0.785198,0.107032,-0.609925
0.435722,-0.433958,0.716670,0.232812,0.972103,-0.028519
0.236916,-0.510814,-0.917573,0.893046,-0.203452,-0.401343
0.113952,-0.139332,-0.513651,0.550095,0.833350,-0.054071
0.992608,0.294422,0.850062,-0.214866,-0.275241,0.937057
-0.102407,0.572609,0.960758,0.759479,0.561608,-0.328312
0.538175,-0.468197,0.532418,0.394365,0.057135,0.917176
0.368374,-0.512988,0.652497,0.047291,-0.834969,0.548261
-0.099545,0.550295,-0.015225,0.848966,0.476389,0.228715
-0.019263,0.584209,-0.738354,0.915016,0.395345,0.080299
-0.662157,-0.471176,0.170880,-0.249411,-0.896669,0.365758
0.178990,0.228118,0.869999,0.929272,-0.044312,-0.366728
0.145086,-0.187993,0.248799,0.018946,0.217448,0.975888
-0.105364,0.359113,0.928691,-0.012659,-0.828449,0.559921
-0.161810,0.259942,0.792014,0.478473,0.869370,0.123533
0.174463,-0.147873,0.725252,0.852632,-0.497471,-0.159814
-0.768859,-0.368136,0.544417,-0.665722,0.745050,-0.041414
-0.101485,-0.000120,0.809926,-0.420259,0.879196,0.224491
-0.705022,-0.207814,0.391798,0.012260,-0.977838,0.209002
-0.127998,0.398751,0.941452,0.264462,-0.735726,0.623512
-0.183521,0.019135,0.919019,0.210076,0.644887,0.734839
0.129751,0.137887,0.876057,0.780990,-0.055174,0.622102
0.037459,0.360966,0.833713,0.814884,-0.068584,-0.575552
-0.239690,0.277585,0.149563,0.108111,0.988478,0.105942
-0.261954,0.288865,0.595816,0.089369,0.988684,0.120490
0.056675,0.012851,-0.272810,-0.547199,0.831599,-0.094960
-0.485336,0.126606,0.725883,-0.204672,0.458701,0.864698
0.597762,-0.414058,0.656072,0.363735,0.931310,0.018947
0.260381,-0.594358,0.441475,-0.018693,-0.288318,0.957352
-0.078572,-0.178891,0.695682,0.629939,0.569296,0.528279
-0.625202,0.577684,0.480481,0.443632,0.759160,0.476305
-0.097882,0.615714,0.947524,0.568817,0.639272,-0.517473
0.270359,-0.431298,-0.688415,0.998627,-0.042421,0.030741
-0.264263,0.750815,0.362176,-0.595865,0.400458,-0.696117
0.243381,0.341794,0.744584,0.316199,-0.807867,0.497363
-0.466027,0.396253,-0.978184,-0.171150,0.165937,0.971171
0.218714,-0.384250,0.179356,-0.059561,0.902491,-0.426571
-0.187584,0.063125,0.490285,-0.527109,0.849470,-0.023583
0.074321,0.005760,-0.577640,0.954094,0.294726,0.053301
-0.141948,-0.236492,0.837314,0.360266,0.320541,0.876049
0.153307,-0.290149,0.754690,0.828500,0.430726,0.357859
-0.295304,-0.219095,0.602058,-0.356233,-0.805468,-0.473624
0.150998,-0.282497,0.745911,-0.612676,-0.520442,-0.594785
-0.246065,0.107110,0.448401,-0.144393,-0.550811,0.822045
-0.255949,0.150455,0.939008,0.394690,0.906532,0.149730
-0.036723,0.184453,0.687639,0.942985,-0.332318,-0.018554
0.826596,-0.367733,0.297740,-0.173178,0.981726,0.078886
0.592219,-0.300057,0.716052,-0.743083,-0.649601,-0.160769
0.651622,-0.588880,0.514230,0.504098,-0.487925,0.712611
0.913250,0.078752,0.828365,-0.153373,-0.500170,0.852236
0.208368,0.156980,0.642641,0.782669,-0.590654,-0.196357
0.367822,0.633760,-0.948444,-0.295165,-0.030343,0.954964
0.411332,0.052327,0.685471,-0.022397,-0.846715,0.531576
-0.242738,-0.558590,0.384320,-0.506754,0.858811,-0.075121
-0.023421,0.234967,0.470427,0.885284,0.292264,0.361737
0.297610,0.397625,0.566443,-0.137666,0.910429,0.390086
-0.281999,-0.296433,0.838011,0.850219,-0.477794,-0.221000
0.457896,0.187836,0.576102,0.862530,-0.495466,0.102744
0.415584,-0.156252,0.541841,-0.418100,0.839825,0.346246
0.301027,0.339621,0.747173,0.521232,0.598138,-0.608727
-0.425840,-0.630691,0.419791,0.774944,0.344335,-0.529995
-0.180750,0.083989,0.799570,0.904440,0.398043,0.153459
-0.002265,-0.541350,0.337127,0.655927,-0.574844,0.489198
-0.584925,0.449186,0.743362,0.124140,0.847242,0.516497
-0.305005,0.388360,-0.974793,0.285141,-0.034041,-0.957881
-0.731814,-0.211601,0.605252,0.752068,0.163758,0.638418
-0.417895,0.561894,0.761327,-0.109178,0.991590,-0.069488
0.033486,-0.606361,0.603819,0.583670,0.706768,0.399761
-0.119590,0.081171,0.866424,0.723980,-0.337956,0.601364
-0.078852,0.472067,0.944488,-0.113105,-0.401887,0.908677
0.500115,-0.313353,0.557598,0.903195,-0.135008,0.407444
0.269341,-0.375143,-0.816523,0.484513,0.874411,0.025552
0.416599,0.236094,0.598444,-0.325618,0.933164,-0.152245
-0.536608,0.576636,0.976962,0.100702,0.846468,0.522830
0.316826,0.175267,0.799465,0.724490,-0.527263,-0.443968
0.443297,-0.009866,0.456825,-0.495988,-0.296036,0.816308
-0.596194,-0.206929,0.694039,0.818440,-0.116391,-0.562680
-0.343159,0.605643,0.965620,-0.522265,-0.557376,-0.645424
0.512032,0.294584,0.585223,0.906876,-0.205325,0.367990
0.135294,0.052327,0.877779,-0.673130,0.661227,-0.331172
-0.792694,-0.484955,0.547492,0.507299,0.861764,-0.003186
-0.283387,0.163265,0.945868,0.170922,0.976658,0.130094
0.023695,0.089953,0.704185,-0.067237,-0.704814,0.706199
-0.103701,-0.386502,0.786428,-0.351423,0.043243,-0.935218
-0.025085,-0.626423,0.619905,-0.574459,-0.559996,-0.596994
-0.108781,0.339459,0.547111,0.873035,0.458506,0.166077
0.276178,0.291521,-0.945395,0.254898,-0.150247,-0.955224
0.645247,0.232789,-0.928901,0.285501,-0.101827,-0.952953
0.530600,-0.402615,0.528213,0.324781,-0.911978,-0.250626
-0.703821,-0.116777,0.601677,0.756437,0.010396,0.653984
-0.036723,0.055872,0.875190,0.278402,0.959471,0.043681
0.061665,-0.336312,0.636819,0.867384,0.471827,0.158193
-0.684235,0.513878,0.647306,-0.312011,0.447369,0.838158
-0.058065,-0.418006,0.616646,-0.034424,0.378451,0.924981
0.099080,0.413817,-0.956579,0.315103,-0.339213,-0.886366
0.390455,0.593556,0.584632,0.792491,0.411763,0.449899
-0.635921,0.575186,0.967592,-0.740263,-0.119003,-0.661702
-0.120609,0.642134,-0.098796,0.837776,-0.005177,0.545989
0.341676,-0.494135,0.575879,-0.782379,0.622711,0.010662
-0.748904,0.155854,0.776572,0.418176,0.360738,0.833664
-0.244215,-0.242373,0.797073,-0.653599,0.657573,0.374709
0.091595,-0.636897,0.617237,0.928434,-0.295373,0.225309
0.198760,-0.269285,-0.505766,0.965523,0.260175,0.008659
0.501037,-0.084470,0.786126,0.704286,0.639885,-0.307456
-0.406993,0.610074,0.343724,0.006261,0.093223,0.995626
0.033949,0.041209,0.057148,0.617858,0.784759,-0.049035
-0.871220,0.488662,0.220136,-0.661014,-0.049524,-0.748738
0.034504,0.114363,0.799833,0.925050,-0.350330,0.146804
-0.218165,-0.190653,0.886400,-0.088678,0.688293,0.719992
0.583166,0.292568,-0.933291,-0.236121,0.104097,0.966132
0.953070,0.288865,0.852888,-0.214866,-0.275241,0.937057
-0.150262,0.339459,0.558965,0.921369,0.387282,0.033029
-0.272022,0.200729,0.950573,-0.684807,-0.652644,-0.324183
0.161993,0.170837,0.936379,-0.633822,-0.677822,0.372594
-0.636936,0.620547,0.649343,-0.566571,0.657965,0.496064
0.054459,-0.080119,0.906652,0.618608,-0.762244,-0.190547
0.765899,0.339055,0.555417,-0.564536,-0.522056,0.639341
-0.106749,-0.170591,0.709586,-0.361000,-0.225268,0.904949
0.265275,-0.292809,-0.734740,-0.129237,-0.950196,0.283594
0.192478,-0.095992,-0.425179,0.924374,0.380248,-0.030731
-0.654212,0.591703,-0.990656,-0.198525,0.150580,0.968459
-0.051505,0.188805,0.871602,-0.823813,0.391044,0.410385
-0.190541,0.184773,0.670305,0.217237,-0.453307,0.864477
0.064620,-0.098249,-0.468916,-0.680182,-0.731901,0.040906
-0.881197,0.129832,0.786297,-0.137565,0.775372,0.616340
0.118849,-0.322538,0.662617,-0.045047,-0.955657,0.291017
0.354334,0.199278,-0.941754,-0.257673,0.198834,0.945553
-0.700587,-0.165516,0.404940,-0.192621,-0.975728,-0.104176
0.174832,0.234077,-0.950402,-0.274183,0.237778,0.931818
0.146842,0.070211,-0.942885,0.291788,-0.182391,-0.938932
-0.358309,-0.316008,0.859393,0.647730,0.508171,-0.567633
-0.361633,0.161494,0.749289,-0.271223,0.134005,0.953143
-0.236640,-0.233753,0.893050,-0.122765,0.707302,0.696170
0.404405,-0.310373,0.690070,-0.284776,-0.905660,-0.314137
-0.130769,-0.417038,0.577075,0.706240,0.631416,-0.320217
-0.240059,0.015349,0.502612,0.437589,-0.037336,-0.898400
-0.851910,-0.164794,0.662314,-0.085786,0.801619,0.591649
-0.099359,0.456277,0.948746,-0.014947,-0.468500,0.883337
0.336965,0.379500,0.573185,-0.055855,0.873325,0.483926
-0.533098,-0.460786,0.634729,0.482998,0.845475,-0.227782
0.677675,0.461996,0.467234,-0.871256,0.412915,-0.265357
0.088085,0.158750,0.147434,-0.627321,-0.762719,-0.157254
-0.845260,-0.405438,0.547992,0.921647,0.346226,-0.175197
-0.276087,-0.035731,0.937352,0.137228,-0.964738,-0.224609
0.179177,-0.632063,0.434286,0.305958,0.402906,0.862587
-0.005682,-0.636735,0.453579,0.111467,0.891006,0.440095
-0.573930,-0.226180,0.589612,-0.150560,0.525579,0.837316
0.102590,0.308038,0.919334,0.136638,0.230736,-0.963375
-0.433232,0.041774,0.468521,0.356467,0.899736,0.251808
0.154417,-0.694984,0.609483,0.147237,-0.989090,-0.004672
0.159774,0.227552,0.848183,0.057551,-0.883802,0.464308
-0.261306,0.132084,0.910765,-0.393796,0.019342,-0.918994
-0.572822,-0.392707,0.344684,0.851480,-0.065354,-0.520299
-0.485336,0.701509,0.696116,-0.130592,-0.980570,0.146386
0.104992,0.409224,0.646045,0.932735,-0.347898,-0.094722
-0.692549,-0.109848,0.543720,0.833969,-0.547652,-0.067619
0.038660,0.134262,0.512337,0.322782,0.788933,-0.522874
0.425838,-0.488982,-0.865044,0.850559,0.524592,0.036774
0.317010,0.085921,0.812147,0.677751,-0.439967,-0.589137
-0.412167,0.008499,0.681515,-0.874353,0.373248,-0.310149
-0.006421,0.046928,-0.169710,0.842052,-0.537938,0.039631
-0.299183,0.705783,0.350821,0.514678,-0.845086,0.144693
-0.499469,0.863527,0.303181,0.775085,0.281155,0.565858
0.676750,-0.399557,0.350006,0.350955,0.700449,0.621451
0.369116,0.217644,-0.941360,0.282556,-0.151372,-0.947232
0.308233,-0.278470,0.713844,-0.701440,0.324771,0.634433
-0.258997,0.747515,0.361466,-0.595865,0.400458,-0.696117
0.554990,-0.056192,0.470361,0.109063,0.209848,0.971632
0.365882,0.077139,0.826275,-0.461346,0.583883,0.668013
0.312854,-0.406643,-0.863493,-0.294905,-0.954189,-0.050534
-0.724238,0.229087,0.766294,-0.093430,0.665014,0.740964
-0.716384,0.618453,-0.988685,0.395682,-0.187729,-0.898996
-0.493188,0.000927,0.592162,-0.689040,-0.195333,0.697903
-0.188602,0.265823,0.674458,0.054072,-0.128786,0.990197
-0.194790,0.662275,-0.093749,0.879972,-0.078224,0.468540
-0.529126,0.117180,0.772208,0.599125,0.408271,-0.688741
0.425192,-0.539900,-0.362268,-0.269938,0.713056,0.647058
-0.029610,-0.065136,0.930413,0.768349,-0.627535,-0.125855
0.181300,-0.236654,0.730390,0.642571,-0.764834,0.046180
0.341586,-0.538931,-0.369483,-0.343883,0.658451,0.669468
-0.397109,0.726086,-0.983349,-0.345537,0.181252,0.920735
-0.361357,0.014464,0.840942,-0.102901,0.955844,0.275271
0.187212,0.155692,0.936051,0.594048,0.758791,-0.267103
-0.852373,0.012610,0.706051,0.447920,0.697457,-0.559394
-0.482841,0.475046,0.427137,0.018063,-0.891495,0.452671
0.202272,-0.438949,-0.505924,0.785116,0.619131,0.016421
-0.498175,0.658169,0.347049,0.753325,-0.537518,0.378914
-0.871220,0.046042,0.784181,-0.329732,-0.748000,-0.575997
-0.321910,-0.192748,0.593792,-0.636681,-0.721660,0.271742
-0.155991,0.837908,0.363240,-0.239122,-0.237020,0.941617
-0.637398,0.620060,-0.987278,-0.174456,0.225260,0.958553
0.159405,-0.040565,0.609273,0.122590,0.098422,0.987565
0.379000,0.431947,0.539423,-0.056041,-0.635361,0.770179
0.049469,0.166648,0.237326,0.873307,0.150264,0.463418
-0.298907,0.554887,0.959483,0.991196,0.079444,0.105917
0.329851,-0.624810,-0.898517,0.190333,0.896729,-0.399563
-0.017323,-0.394640,0.339808,0.220148,0.455425,-0.862625
0.628433,0.242619,-0.930597,0.295158,-0.100373,-0.950162
-0.064346,0.401170,0.328650,0.987360,0.115052,0.109013
0.600350,-0.153513,0.543510,0.364031,-0.209193,0.907590
0.459835,-0.882296,-0.432801,0.978451,0.141246,-0.150611
-0.189803,0.551180,-0.969090,-0.247946,0.086983,0.964861
-0.004019,-0.310934,0.792316,-0.716658,0.695583,-0.050652
-0.103608,-0.045398,0.744623,0.125899,-0.973424,0.191298
0.332623,0.301832,0.176229,-0.523389,0.837581,-0.156594
-0.648946,0.020827,0.725160,0.596654,0.620868,-0.508456
-0.141116,0.037663,0.611310,0.969527,-0.241103,0.043446
0.041341,-0.443222,0.628855,-0.211745,0.614558,0.759923
0.482192,-0.018648,0.818140,0.957115,-0.089112,0.275662
-0.706223,0.520487,0.759658,0.723093,-0.611843,0.320601
-0.322096,0.503084,0.429608,-0.434302,0.456270,0.776659
0.076261,-0.307388,0.630143,0.931629,0.222309,0.287484
-0.047163,0.166328,0.031745,-0.795731,0.581568,0.169086
0.338997,-0.489867,0.257341,-0.104453,0.641322,0.760129
-0.349533,-0.113876,0.871930,-0.301945,0.498227,-0.812772
-0.496235,0.507112,0.995308,0.489931,0.738518,0.463205
-0.302786,0.735428,-0.014962,0.718266,0.604475,0.344534
-0.039494,-0.482619,0.773864,-0.079068,0.601387,0.795036
0.500761,0.359437,-0.938495,-0.372958,0.197937,0.906490
-0.021758,0.172769,0.033690,0.812981,-0.575584,-0.088116
-0.413277,-0.539009,0.413995,-0.483879,0.196048,-0.852893
0.534386,-0.365156,0.743874,0.469234,0.873888,0.127041
0.512032,0.588885,0.646846,0.796240,-0.555296,0.240100
-0.358772,0.663725,-0.978789,-0.341867,0.120930,0.931935
0.767932,0.487536,0.446797,0.567171,-0.819750,-0.079541
0.440802,0.514281,0.639736,0.869713,-0.352041,0.345929
-0.633888,0.355573,-0.984703,0.305403,-0.057979,-0.950456
-0.657815,-0.501068,0.490850,0.749345,-0.477269,0.459016
0.375767,-0.721409,0.569821,0.975567,-0.210959,0.061361
0.529861,-0.436697,0.635439,-0.388736,-0.446542,0.805906
0.097600,-0.318909,0.699927,0.300570,-0.704740,0.642650
-0.182320,0.466992,-0.122057,0.970134,0.029039,0.240826
0.843501,0.811724,0.778950,-0.407974,0.608322,-0.680809
0.869830,-0.205395,0.498183,-0.645579,0.328592,0.689388
0.124116,0.397865,0.918966,-0.064314,-0.569281,0.819624
0.720353,0.057564,0.734832,0.356643,-0.788923,0.500407
0.285786,-0.659855,0.442684,-0.289601,-0.223544,0.930677
0.006697,0.025017,-0.211476,-0.369295,0.929229,-0.012413
0.006881,-0.369906,0.798532,0.757893,-0.613834,0.220921
0.097510,-0.485515,0.773615,0.536329,0.329538,0.777017
0.101572,-0.500985,0.760617,-0.757595,0.286753,-0.586363
0.022956,-0.003823,-0.297674,-0.175143,0.980662,-0.087337
0.358397,-0.365156,-0.751405,0.869125,0.492903,0.040847
0.432581,-0.538931,-0.363017,-0.269938,0.713056,0.647058
-0.208094,-0.476492,0.414494,0.286662,-0.654967,0.699174
-0.557302,0.675089,-0.987699,-0.204309,0.142942,0.968414
-0.026745,-0.351703,0.855319,-0.715269,0.695224,-0.071090
-0.000509,-0.495831,0.776716,0.006339,0.732591,0.680640
-0.202735,-0.282256,0.809703,-0.559216,0.369031,0.742357
0.188136,-0.636975,0.429516,0.415383,0.260565,0.871529
-0.073585,0.574139,0.345866,0.826655,-0.251558,0.503348
-0.266017,0.030175,0.915930,-0.030551,0.950796,0.308307
-0.394707,0.467956,0.991103,0.271227,0.565102,-0.779164
-0.343528,0.464656,1.000000,0.679868,-0.429787,0.594191
-0.635735,0.301512,0.761774,-0.324102,-0.015912,-0.945888
-0.192943,0.796092,-0.020429,0.730969,0.573132,0.370410
-0.188325,0.292489,0.240625,0.107730,0.876743,0.468739
0.725989,0.237869,-0.925235,0.277636,-0.120246,-0.953131
-0.520256,0.149004,0.771749,-0.447903,-0.862453,0.235704
-0.234886,0.579862,0.951414,-0.748556,0.135644,-0.649049
-0.415680,0.474481,0.962690,-0.572074,0.786093,-0.234072
-0.348239,0.502519,0.987318,-0.040453,-0.993342,0.107869
-0.180564,0.411806,0.942333,-0.240354,-0.051968,-0.969293
-0.044947,0.801816,0.265371,-0.070516,-0.093086,0.993158
0.738831,0.050316,0.562198,0.897420,-0.202918,-0.391743
-0.392029,-0.029845,0.266869,-0.688435,-0.715899,-0.116388
-0.148785,-0.289101,0.416137,0.399524,0.902281,-0.162082
-0.253271,0.591781,0.939928,-0.566552,-0.065860,-0.821390
0.291791,0.404071,0.753928,-0.579117,0.780915,-0.234085
-0.044298,0.089629,0.625622,0.917870,-0.066182,-0.391324
0.224167,0.038229,-0.940374,-0.275235,0.201695,0.939981
0.068962,-0.102192,0.615069,0.268628,-0.096806,0.958367
0.183518,0.087534,0.868671,0.778392,-0.477580,-0.407459
-0.149523,0.476094,0.949548,-0.569489,0.022066,0.821703
0.212895,0.437666,0.916929,0.793610,0.436171,-0.424190
0.159681,-0.145134,-0.537346,0.850118,0.503008,-0.155826
0.373827,-0.352346,-0.778687,0.889491,0.456404,-0.022387
0.560902,0.304010,0.634466,0.904788,0.423542,0.044396
-0.043929,-0.055626,0.916587,0.495704,-0.809034,-0.315820
-0.490047,0.420583,0.984387,-0.118183,-0.365974,0.923090
-0.574669,-0.419211,0.345091,0.845601,0.126085,-0.518711
0.148596,-0.605314,0.606802,0.737851,-0.537054,0.408839
-0.212253,0.314563,0.934973,0.793447,-0.588275,0.156120
0.174742,-0.160201,0.724214,0.776228,-0.584465,-0.236370
-0.053630,0.196938,0.732546,0.025685,-0.203962,0.978642
0.154601,-0.270652,0.583304,-0.726314,-0.011013,-0.687275
-0.349902,0.409067,0.433038,-0.409151,0.447162,0.795387
0.624830,0.245844,0.628106,0.948416,0.306318,-0.081712
-0.257982,0.370555,0.956106,0.700295,-0.580393,0.415610
-0.897270,0.009468,0.592845,-0.707215,-0.018236,-0.706764
-0.436464,-0.103884,0.884310,0.773904,0.416969,0.476666
-0.041806,-0.354761,0.832767,0.725897,-0.559169,0.400504
0.129103,0.394561,0.901855,-0.297270,-0.692283,0.657552
-0.569405,0.524514,0.734662,0.036682,-0.378629,0.924821
-0.255763,-0.169141,0.841717,-0.449087,0.088763,-0.889068
0.716660,0.293212,0.547978,-0.124480,0.004420,0.992212
0.309804,-0.426867,-0.736515,0.909409,-0.408555,0.077829
-0.006514,0.695953,0.267198,0.351218,-0.401512,0.845833
0.248647,0.283948,-0.945513,0.216877,-0.253783,-0.942634
0.221855,0.762822,0.262901,-0.354224,-0.660572,0.661944
-0.123563,0.117583,0.658175,0.407228,0.522147,0.749352
-0.464919,0.303529,-0.976949,-0.207869,0.202157,0.957039
-0.253730,-0.412927,0.420553,0.037214,0.061225,0.997430
0.036074,0.043387,0.863270,-0.689874,0.365219,-0.625051
0.845626,0.749526,0.409540,-0.714503,0.505224,-0.483977
0.353779,0.582114,0.339125,0.471859,0.268039,-0.839943
-0.137606,-0.055223,0.792079,0.824996,-0.429176,-0.367682
0.297517,-0.189365,0.733584,-0.124144,0.972414,-0.197483
0.546397,-0.062638,0.467483,0.109063,0.209848,0.971632
-0.054738,-0.069807,0.900935,0.406510,0.867699,0.286090
0.013162,-0.071337,0.923119,0.540254,-0.734233,-0.411129
-0.390828,0.759036,-0.980865,0.332740,-0.145599,-0.931711
0.140374,0.424694,0.921371,0.168302,-0.652245,0.739088
0.194049,-0.735345,0.580952,0.632879,0.774157,-0.012047
0.323570,0.404391,0.413246,-0.244393,0.371828,0.895554
-0.122086,-0.467631,0.405216,-0.642746,0.728636,-0.236575
0.682016,0.551421,0.437230,0.612078,-0.790642,-0.015657
0.486441,0.374101,0.566811,0.101324,-0.492568,0.864355
0.429996,0.530636,0.548504,-0.247827,-0.624419,0.740731
-0.412076,-0.018408,0.862402,0.531041,0.781796,0.326789
-0.169202,0.775873,0.363779,0.313186,0.540897,-0.780605
0.016951,0.382155,0.943988,0.418387,-0.579892,0.699055
0.214559,0.871016,0.511246,0.922846,0.385044,-0.009831
0.664926,-0.620060,0.514151,0.559022,-0.406992,0.722394
-0.813201,0.149649,0.747199,0.882540,-0.439144,-0.168155
0.328281,0.171884,0.714186,0.186052,0.465923,-0.865044
0.248554,-0.335505,0.250048,0.071910,0.555982,0.828078
0.554434,-0.513229,0.511286,-0.217641,0.672196,0.707662
-0.585385,-0.432266,0.474067,0.901365,-0.282334,0.328374
-0.046424,-0.133535,0.821360,0.311361,-0.285194,-0.906487
-0.164767,-0.100825,0.601164,0.742852,-0.465538,-0.481087
-0.645526,0.681049,0.476722,0.093738,-0.236018,0.967217
0.155988,0.612006,-0.958103,0.257259,-0.070891,-0.963739
0.453737,-0.293453,0.661158,0.938233,0.303966,0.165297
-0.791031,0.168177,0.714252,-0.700881,0.691000,0.176875
0.509168,0.183484,0.135620,0.209473,-0.946161,0.246780
-0.394800,0.496476,0.998291,-0.107967,0.835579,0.538656
0.111829,-0.578244,0.621469,0.942101,-0.169772,0.289176
-0.544922,-0.095264,0.675378,0.409773,-0.907058,0.096596
-0.277381,-0.158829,0.870051,-0.565975,0.768307,0.298959
0.428240,0.166082,0.713187,0.364978,0.554402,-0.747950
-0.735879,-0.315364,0.526964,-0.716486,0.594476,0.365028
-0.229620,0.177200,0.943279,-0.450964,-0.360443,-0.816525
-0.151187,0.642458,-0.969405,0.250311,-0.011872,-0.968093
-0.166890,0.514119,0.550594,0.456622,0.432272,0.777584
-0.632870,0.461996,0.691542,0.792488,-0.334128,0.510217
-0.029979,0.066990,0.818547,-0.456010,-0.108165,-0.883377
-0.223338,0.012286,0.924801,0.198943,0.727347,0.656802
-0.013906,0.100422,0.810701,0.800237,-0.359168,0.480228
0.704833,0.490516,0.440949,0.675184,-0.735703,-0.053553
0.688481,0.046205,0.715816,-0.181265,0.917423,-0.354229
-0.851358,-0.043864,0.676797,-0.618717,0.588638,-0.520283
-0.367176,0.069891,0.744544,0.975012,-0.033566,-0.219603
-0.332442,0.058532,0.817325,0.215800,0.870237,0.442853
0.730331,-0.630131,0.489549,0.894146,-0.379605,0.237492
-0.028502,-0.365475,0.644730,-0.739794,0.429094,0.518250
0.518683,-0.126523,0.801673,0.526798,0.647777,-0.550335
-0.866047,0.004069,0.684998,0.357888,-0.436174,0.825632
-0.114048,0.231098,0.900751,-0.443105,0.275133,-0.853206
-0.054924,0.342360,0.784286,0.850778,-0.521458,-0.065263
0.003557,0.275731,-0.957144,-0.331702,0.137298,0.933340
-0.241999,-0.334217,0.841401,0.837021,-0.540756,0.083533
0.040509,0.028724,0.858999,0.865058,0.471634,-0.170987
0.491891,-0.270489,0.683355,0.973298,-0.063082,0.220709
0.140468,0.304172,0.653233,0.086104,-0.231395,0.969042
-0.557578,0.688700,0.967302,0.229725,0.912046,0.339705
0.063788,0.275810,0.246473,0.880600,-0.473778,0.008838
-0.304726,0.515087,0.952912,0.970100,0.015517,0.242209
0.215205,0.285477,0.726960,-0.280445,0.851677,-0.442716
-0.428705,0.226908,0.465170,-0.438575,0.474401,-0.763280
0.189152,-0.428396,0.347509,0.671405,0.418445,-0.611652
0.534386,-0.771924,-0.325575,0.039435,0.710380,0.702712
-0.439883,0.416074,0.776112,0.537721,0.831915,-0.137015
-0.156822,-0.020664,0.774088,0.163133,-0.380134,0.910432
-0.828076,-0.151178,0.674287,0.083168,-0.315874,0.945149
-0.309068,-0.246646,0.855082,-0.737488,0.044049,0.673922
-0.368008,-0.084230,0.605002,0.930757,0.208565,0.300319
0.582241,-0.098003,0.537820,-0.044904,0.571515,0.819362
0.430086,0.319962,0.664575,0.897826,0.156349,-0.411660
0.009190,-0.635608,0.760381,-0.115357,0.733801,0.669499
-0.848124,0.212491,0.742718,0.939154,-0.313029,-0.141429
-0.253823,0.487615,0.951046,0.477249,0.849230,0.225923
-0.388425,0.042738,0.830625,0.838846,0.413029,0.354605
0.604415,0.017365,0.536006,0.316864,0.011998,0.948395
0.702893,-0.541188,0.492282,-0.095540,-0.649547,0.754295
0.331791,0.158834,0.399841,-0.324407,0.792260,-0.516802
-0.507693,-0.404469,0.588075,0.048870,-0.883408,0.466050
-0.018524,0.277423,0.697535,-0.109376,-0.296976,0.948600
0.512492,-0.247934,0.535533,-0.443219,-0.847277,0.292709
0.222318,-0.156090,-0.499602,0.907976,0.417249,0.038503
0.457710,0.555851,0.639565,0.866454,-0.450571,0.215042
-0.195438,0.308038,0.933199,0.870758,-0.490207,0.038443
0.327543,0.241733,0.395465,0.061611,0.870059,-0.489082
0.099912,0.481734,-0.962124,0.269072,-0.165998,-0.948707
0.488936,-0.420662,0.278421,0.689378,0.122001,-0.714055
-0.565063,0.029044,0.693895,0.350960,0.442964,-0.824991
0.180191,-0.144412,0.710835,0.969461,-0.244107,-0.023626
0.335394,0.399075,0.762575,0.233333,-0.896879,0.375717
0.075153,-0.071661,-0.418122,0.831218,0.554088,0.045425
0.813109,0.147633,0.564432,0.065867,0.558619,0.826805
0.152292,-0.443945,0.757726,0.931401,-0.114018,0.345675
-0.201996,0.366528,0.730443,0.410032,-0.493107,0.767280
0.801837,0.081653,0.708969,-0.787911,0.245426,0.564767
0.360616,0.514281,-0.949548,-0.263360,0.103107,0.959172
0.765530,-0.465536,0.491126,-0.690704,0.627757,-0.358955
0.153586,-0.591619,0.309883,0.489841,-0.720016,-0.491561
0.842762,0.624574,0.502704,0.273469,0.453863,-0.848070
0.332992,-0.355164,0.548162,0.852741,-0.273374,-0.445083
0.003094,0.467715,0.722071,-0.643912,0.763167,0.054357
0.429348,0.266870,0.478549,-0.307404,-0.096556,-0.946668
0.108040,0.124915,0.084274,0.622255,0.755984,-0.203191
0.303615,-0.195566,0.572318,-0.633294,-0.061452,-0.771468
-0.261861,0.471422,0.503676,-0.645151,-0.408785,-0.645503
-0.114510,0.212166,0.825868,-0.141855,0.384053,0.912349
-0.012612,0.207657,0.507291,0.729252,0.623552,-0.281733
0.412257,-0.027672,0.531774,0.068315,0.037795,0.996948
0.011501,-0.461185,0.771617,0.184098,0.536102,0.823834
-0.526168,0.282256,-0.977251,0.271562,-0.086255,-0.958548
0.583535,-0.384166,0.656716,0.324484,0.942282,0.082552
-0.049934,0.173414,0.618157,0.983683,-0.123662,0.130672
0.664647,0.241089,-0.929493,-0.262345,0.095420,0.960245
-0.245233,0.648015,0.943305,0.251580,0.175508,0.951790
0.399601,-0.416876,-0.913249,0.236486,0.939497,0.247828
0.620395,0.198068,0.706800,-0.026102,0.738057,0.674234
0.510552,-0.988395,-0.689137,0.858646,0.425000,0.286535
-0.858747,0.152791,0.727447,0.920826,0.200355,0.334570
0.198297,0.245358,0.856502,0.763477,-0.595727,-0.249424
0.062311,0.103727,0.511010,0.614726,0.642184,-0.457942
-0.154420,0.667758,-0.095970,0.879972,-0.078224,0.468540
-0.470369,-0.041853,0.874362,-0.258294,0.167799,0.951382
-0.141302,-0.183322,0.882273,0.161788,-0.832791,-0.529419
0.079864,-0.145941,0.845055,-0.512765,0.009193,0.858480
-0.742713,0.063125,0.358969,-0.330595,-0.328282,-0.884838
0.086608,0.083910,-0.948693,0.306152,-0.213169,-0.927809
0.222504,-0.350493,-0.578363,0.898656,0.436070,0.047539
-0.873343,0.110094,0.738052,0.956511,-0.256058,0.139721
0.576053,-0.416069,0.529540,0.147958,0.877364,0.456444
-0.013444,-0.459252,0.307242,-0.247753,0.963117,-0.104993
0.230170,0.155048,-0.944711,-0.230544,0.098600,0.968054
-0.073862,-0.303361,0.623572,-0.106272,-0.111493,0.988067
-0.040419,0.282498,0.892288,0.541630,-0.753983,0.371680
-0.351935,0.659054,0.670909,0.326250,0.902840,0.280073
0.131784,-0.564471,0.320686,0.800193,-0.581530,-0.146677
0.762203,-0.390534,0.337272,-0.587490,-0.718104,-0.373071
0.086977,-0.175828,-0.537268,0.850118,0.503008,-0.155826
0.032102,0.149167,0.920517,0.911854,0.407402,-0.050447
-0.722944,0.153032,0.766452,0.172188,-0.089753,-0.980967
-0.861705,0.134262,0.784930,-0.074318,0.780834,0.620302
-0.374106,0.364109,0.771972,-0.180053,-0.930774,-0.318182
0.538175,0.216115,0.736304,0.730292,0.297937,-0.614742
-0.272208,-0.252124,0.442356,-0.419157,-0.155158,0.894558
0.259363,0.266949,0.725120,0.126918,0.857987,-0.497745
0.082359,-0.612084,0.321435,-0.443275,0.809066,0.385900
-0.470092,-0.404710,0.383479,-0.725834,0.085059,0.682590
-0.177330,0.421714,-0.123805,0.970976,0.237807,0.025550
0.332809,0.420263,0.759618,-0.593234,-0.786357,0.172384
-0.595731,0.578893,0.989040,-0.414550,0.688360,-0.595238
0.352023,0.454340,0.727617,0.209571,0.904820,0.370650
-0.275718,0.354604,0.677415,0.355756,-0.211664,0.910294
-0.165044,-0.311175,0.436205,0.194347,0.908023,-0.371111
0.575035,0.188480,-0.931372,0.284703,-0.141465,-0.948120
-0.542427,0.424129,0.983848,0.508944,0.410024,-0.756873
0.492353,0.417928,0.469034,0.629630,0.037513,0.775989
-0.029610,0.111540,0.476827,-0.344683,-0.872383,-0.346614
0.003740,-0.070289,0.912237,0.872660,-0.453106,0.182095
0.552218,0.260424,0.623217,0.620758,0.635495,-0.459135
-0.184629,0.130958,0.896086,0.773974,0.362560,0.519148
0.000599,0.501550,0.959825,0.140043,-0.335967,0.931405
0.026929,-0.001728,-0.647530,0.854410,0.508367,0.107460
-0.460022,0.668721,-0.983283,-0.220462,0.217851,0.950756
0.431566,0.502278,0.502191,0.723694,0.565360,-0.395772
-0.146845,-0.398510,0.618289,0.954294,-0.095981,0.283037
-0.832234,0.068519,0.701517,-0.696439,-0.581343,0.420730
0.125869,-0.593552,0.636109,-0.524337,0.195560,-0.828750
-0.037554,-0.449988,0.768069,0.805419,-0.157350,0.571438
0.525427,-0.383763,0.754375,0.582378,-0.781683,-0.223178
0.824377,0.129104,0.530329,-0.700659,0.631818,0.331486
0.069148,0.067875,0.838799,0.992950,0.022298,0.116416
-0.080422,-0.092122,0.793078,-0.303608,0.572505,-0.761617
-0.837036,0.161007,0.570083,0.165230,0.438624,0.883350
0.252436,-0.077139,0.562159,-0.610690,-0.635087,-0.472994
-0.242921,-0.064089,0.929427,0.561024,0.730288,0.389784
0.037090,-0.021147,-0.346918,0.735809,0.673400,-0.071532
0.631297,-0.345821,0.299843,-0.295205,0.955138,-0.023792
0.030162,-0.130230,0.860195,-0.315608,0.889979,-0.329133
0.310266,-0.076333,0.818271,0.292987,-0.902894,0.314550
-0.420667,0.291761,0.247196,0.934232,-0.143481,0.326533
0.139729,0.282984,0.713726,0.727435,-0.365641,-0.580641
0.333641,-0.712627,0.441133,-0.229733,0.957197,0.176057
0.350176,-0.779172,0.592017,-0.740224,0.634636,0.222049
-0.480069,0.820020,0.481677,0.144172,0.013539,0.989460
-0.649129,0.519277,0.741377,0.341043,-0.858353,0.383301
-0.719434,-0.053212,0.685431,0.087516,-0.516110,0.852040
-0.001527,0.524273,-0.964963,0.212609,-0.060989,-0.975232
-0.237564,0.461352,0.563368,0.238809,0.229902,0.943459
-0.042266,0.147795,0.627514,0.902138,-0.354580,-0.245807
-0.486537,0.262115,0.353844,0.435818,-0.202100,-0.877051
0.101113,-0.184772,0.775862,-0.663094,0.743211,0.089134
0.818558,0.853132,0.775888,-0.407974,0.608322,-0.680809
0.426207,-0.131278,0.701162,-0.463446,-0.826154,-0.320450
-0.344081,0.477303,0.753376,0.747706,0.623070,-0.229606
-0.392029,0.043387,0.766019,-0.357207,-0.741940,-0.567387
0.041431,-0.270249,0.759750,0.636803,0.205534,0.743127
0.191094,0.164877,0.557980,0.312583,0.935765,0.163204
-0.608204,0.207574,0.747869,0.464098,-0.210268,0.860465
0.877312,-0.339291,0.457482,0.777247,0.479927,-0.406886
0.398031,-0.469647,-0.829758,0.978310,0.025130,0.205616
-0.469168,0.398996,0.970325,-0.321569,0.929414,-0.181058
0.394335,0.121532,0.582463,-0.660822,0.568822,-0.489649
-0.134096,-0.447652,0.622441,0.901003,0.335882,0.274550
-0.735231,-0.007531,0.700400,0.470226,0.711267,-0.522481
0.325048,0.092771,0.700282,0.753950,0.619865,0.217547
0.403204,-0.347267,0.677691,-0.245261,-0.782424,0.572416
0.743449,-0.474481,0.472411,0.919413,0.227589,0.320754
0.340937,-0.452889,-0.903629,-0.021998,0.995684,-0.090161
0.029054,0.085198,0.436442,-0.709581,-0.554864,0.434306
-0.385930,0.417284,0.975056,0.478730,0.636287,-0.604943
-0.301216,0.559721,-0.973768,0.288629,-0.089626,-0.953237
-0.279228,0.575992,-0.973952,-0.248556,0.131024,0.959715
0.291605,0.307231,0.600034,-0.378651,-0.698357,-0.607389
-0.556932,0.444997,0.590125,0.386693,0.433282,-0.814086
-0.160332,0.077788,0.916811,-0.745044,-0.228587,-0.626624
0.094738,0.131765,-0.095733,0.456648,0.888414,0.046823
0.490321,-0.460462,0.545192,0.721885,-0.481135,0.497385
-0.229620,-0.255507,0.806628,-0.602091,0.679621,0.419050
-0.473049,0.654948,0.676140,-0.166113,-0.982234,0.087314
0.653654,-0.346544,0.532011,0.596591,0.156925,0.787054
0.473230,-0.918629,-0.295243,-0.060465,0.749594,0.659130
-0.047808,-0.137238,0.625241,-0.404847,-0.203706,0.891405
-0.004391,-0.045801,-0.947878,0.279902,-0.234621,-0.930918
-0.108691,0.419137,0.677270,-0.234050,-0.577795,0.781904
0.264168,-0.323586,-0.660474,0.556320,0.809203,0.188943
-0.219180,-0.162537,0.838891,-0.517811,0.108055,-0.848644
0.156633,0.347513,-0.954016,-0.188493,0.109497,0.975951
-0.583631,0.043707,0.374950,0.162599,0.587046,0.793056
-0.644604,0.472470,0.652616,0.387446,-0.003874,-0.921884
-0.175853,-0.134179,0.607538,-0.565706,0.404950,0.718326
0.060095,-0.384328,0.772274,0.550876,0.815981,0.175245
-0.142224,0.468443,-0.967881,0.290272,0.056711,-0.955262
-0.246155,0.681531,-0.972901,0.246876,-0.015396,-0.968925
0.635176,0.391503,0.444419,0.734400,-0.662558,-0.147221
0.137879,0.199839,0.652694,-0.003365,0.336485,0.941683
-0.050490,0.077385,-0.020968,0.975361,0.220579,0.003950
-0.157285,-0.418567,0.789937,-0.699057,-0.154047,0.698276
-0.155342,0.290876,0.913210,-0.634843,-0.762132,0.126999
-0.335304,0.068116,0.759053,-0.689458,0.096408,-0.717881
-0.011688,0.080365,0.807482,0.900047,-0.272741,0.339894
0.651345,0.268080,0.745675,0.891544,0.286381,-0.350905
-0.209850,-0.486484,0.794169,-0.117942,0.580277,0.805834
-0.707238,0.111461,0.769606,0.698546,0.702834,0.134380
0.151830,0.747432,0.272573,0.179871,0.983244,-0.029629
0.470182,0.461996,0.619090,0.888704,0.006046,0.458441
-0.394061,0.035731,0.774009,-0.444591,-0.562864,-0.696795
0.371425,0.207898,0.806864,0.935438,-0.324896,-0.139278
-0.016122,0.155692,0.814684,0.810010,0.012298,0.586287
-0.266942,-0.160924,0.855897,0.092885,-0.675057,0.731895
-0.548894,-0.257360,0.391956,-0.009323,-0.440285,0.897810
-0.691072,-0.266546,0.542183,0.975252,-0.211495,-0.064449
-0.467966,0.010353,0.856265,0.328599,-0.868666,-0.370730
0.669913,-0.451035,0.492151,0.094080,-0.428374,0.898690
0.649219,-0.037019,0.356328,0.073636,0.760325,0.645356
-0.115804,-0.387952,0.619274,-0.877605,0.244276,0.412480
-0.116636,-0.070289,0.915391,0.243407,-0.057599,0.968213
-0.898288,-0.368618,0.553590,0.837203,0.529722,-0.135966
-0.312301,-0.347592,0.834791,0.106568,0.942310,0.317326
-0.153682,0.044435,0.835119,-0.655588,-0.187745,-0.731407
-0.340201,0.100181,0.758646,-0.029618,0.518594,0.854508
-0.035152,0.170916,0.806956,0.872769,0.370461,0.317857
-0.816159,-0.403904,0.189213,0.862966,0.294818,-0.410332
-0.218717,0.393676,0.960140,0.275787,-0.107691,0.955167
0.002908,0.010275,-0.239113,0.923414,-0.358848,0.136144
0.868905,-0.344287,0.263821,-0.306177,0.951130,-0.040104
-0.444780,0.425018,0.251073,0.999221,0.033870,-0.020255
-0.038663,-0.650754,0.634506,0.101636,0.685370,0.721068
0.368374,-0.111215,0.813514,-0.256313,0.653826,-0.711910
-0.582154,0.044754,0.486224,-0.235735,-0.730120,-0.641369
0.372070,-0.679195,0.594160,0.863168,-0.166537,-0.476662
-0.693012,-0.210632,0.400721,-0.086059,0.990248,-0.109561
-0.352674,-0.378206,0.842045,0.408722,0.909568,0.075051
-0.191835,0.560847,0.552420,0.258397,0.422314,0.868840
0.794445,-0.543199,0.482833,0.365418,-0.894170,0.258707
0.668160,0.369832,-0.932200,-0.193073,0.218261,0.956601
0.222966,0.053856,0.802672,0.455314,-0.299627,-0.838399
