-0.149754,-0.280766,-0.153826,-0.046383,-0.966341,0.253048
0.839606,-0.092247,0.497362,0.886426,0.020042,-0.462436
0.151176,0.526388,0.612010,-0.211800,0.077120,0.974265
0.418479,0.331205,0.785535,0.974980,0.148615,0.165309
0.301519,0.063696,0.934235,0.259177,0.903365,0.341701
-0.054608,0.798662,0.562334,0.125243,-0.654435,-0.745673
0.316913,0.161889,0.878981,-0.097517,0.634656,0.766618
-0.356469,0.069805,0.580365,-0.281985,0.883359,-0.374381
-0.623479,-0.308484,0.420127,0.862027,0.483626,-0.151705
0.209018,-0.525879,-0.473494,-0.284248,-0.206003,0.936358
-0.002842,0.815091,0.165076,-0.186482,-0.212674,0.959163
0.593186,-0.003585,0.537291,0.022598,-0.168848,0.985383
-0.396471,-0.272206,0.153990,-0.164948,-0.281136,0.945386
-0.271322,-0.455681,-0.983364,-0.009180,0.256769,0.966429
0.437550,0.623655,0.576961,0.064932,-0.541150,0.838416
0.673920,-0.197751,0.689983,-0.203235,0.619055,0.758595
-0.334361,0.663637,0.308103,0.322020,0.113461,-0.939909
-0.421863,0.623517,0.308828,-0.843359,0.052318,-0.534798
0.583920,0.544436,0.715354,-0.557655,0.666794,0.494374
-0.312254,0.653780,0.292424,0.737501,-0.279124,0.614965
0.589707,-0.068600,0.666853,0.014276,0.441865,0.896968
0.308628,0.573125,0.284031,0.484660,-0.238303,-0.841615
0.859069,0.094145,0.380266,0.418251,0.436372,0.796646
0.678186,0.301312,0.298453,0.600347,0.139614,0.787458
-0.122303,0.148886,0.472770,0.607886,0.722317,-0.329748
-0.902793,-0.116077,0.120089,0.439023,0.009853,-0.898422
-0.416226,0.207748,0.603863,-0.604987,0.087806,0.791379
0.240490,0.080032,0.931323,0.698469,0.503716,0.508342
0.665932,0.036118,0.751306,0.975551,-0.156547,0.154254
-0.911517,-0.178500,0.114334,-0.323245,-0.025146,0.945981
0.659215,-0.159390,0.416710,0.846378,-0.251206,-0.469616
0.236275,0.165360,0.900771,0.975530,0.208723,-0.069108
0.336079,0.314547,0.839735,-0.311542,-0.843043,-0.438429
0.578675,-0.250132,0.539219,0.300246,-0.328553,0.895492
0.309460,0.167580,0.961725,-0.288447,-0.877061,0.384139
-0.077990,-0.074384,0.741094,0.025768,-0.052639,0.998281
0.355098,0.251844,0.745387,0.381385,-0.264066,0.885898
0.338430,0.480021,0.686866,0.884012,-0.460330,-0.081362
0.233528,0.705838,0.225456,-0.456158,0.746092,0.485044
0.409363,0.480761,0.701329,-0.800682,-0.125324,-0.585834
-0.153138,-0.274566,-0.126623,0.079740,-0.920594,0.382293
0.463137,0.629578,0.301392,-0.041901,0.792412,0.608545
-0.752108,-0.137687,0.261599,0.443373,0.249650,0.860869
-0.232254,0.298536,0.368975,-0.696998,-0.102734,-0.709675
0.374609,0.809398,0.414700,0.288314,-0.268961,-0.918986
0.898233,0.019551,0.478593,-0.033688,-0.977850,0.206579
-0.119362,0.108583,0.718922,0.423692,-0.560064,0.711909
-0.137500,-0.069711,0.747984,-0.536400,0.024338,-0.843613
0.476519,0.846789,0.259056,-0.559706,-0.497799,0.662514
0.265392,0.131208,0.902411,-0.695057,-0.712605,0.095345
0.360050,-0.290577,0.804850,0.081009,0.734442,0.673819
0.007354,-0.253325,0.458061,-0.181496,0.131068,0.974618
0.403283,0.067630,0.935684,-0.045287,-0.478151,0.877109
0.193236,-0.016450,0.906389,-0.333065,0.302280,0.893137
-0.131911,-0.231946,-0.102100,0.192990,-0.976673,0.094150
-0.021030,0.227275,0.685171,0.780808,0.335212,-0.527231
-0.412304,-0.004465,0.169232,0.276464,0.154302,-0.948556
0.692990,-0.158465,0.675014,0.518330,0.071014,0.852227
0.435686,0.241804,0.858996,0.413117,0.346906,-0.842016
0.124754,0.353557,0.612858,0.637872,0.615335,0.463122
-0.260048,0.503020,0.480384,-0.484985,0.272702,0.830917
0.505490,0.612364,0.299984,-0.520377,-0.829244,-0.203867
-0.632108,0.071793,0.500396,0.668827,0.200569,0.715851
0.369460,0.076792,0.924064,0.441026,0.871429,-0.214729
0.212695,0.240369,0.911543,0.018667,-0.940186,0.340149
0.104265,0.431110,0.667469,0.113402,-0.932907,0.341797
0.607598,0.752713,0.576975,0.744093,0.407542,0.529372
0.872057,0.302145,0.708041,0.749536,0.661963,-0.000760
0.598383,0.417691,0.729721,-0.308359,0.897583,-0.315056
-0.059802,0.137781,0.593597,0.805311,0.187093,0.562557
0.145981,0.195436,0.895727,-0.194854,0.040937,-0.979978
0.426617,-0.002522,-0.051836,-0.096237,0.824670,0.557367
0.203480,0.568821,0.467425,0.735820,0.622783,0.265915
0.189951,-0.009046,0.675561,-0.189737,-0.968258,0.162714
-0.257107,0.573309,0.505905,0.165258,0.843512,-0.511055
-0.120538,0.808194,0.566558,0.666907,-0.596907,-0.446024
-0.242794,-0.401680,-0.532192,0.872125,-0.486731,-0.049905
0.443824,0.208070,0.860951,-0.402821,0.418956,0.813763
0.416864,0.624765,0.503718,0.626243,0.773695,-0.095995
-0.715684,0.064899,0.500889,0.982383,-0.158313,0.099296
-0.697990,-0.172208,0.264333,0.397457,0.233787,0.887339
-0.418677,0.413110,0.481190,0.042471,0.525049,0.850011
0.715098,0.539623,0.586557,-0.250131,0.384735,0.888489
-0.347942,0.233938,0.484116,-0.094610,-0.640269,0.762302
0.287744,0.481038,0.713823,0.082207,0.513569,0.854101
0.615096,0.023391,0.849537,-0.485442,0.104801,0.867965
0.006471,0.641378,0.672157,0.871545,0.088543,0.482254
0.143528,0.075451,0.540668,0.985343,-0.162481,0.051951
-0.381616,0.442771,0.471758,-0.327455,0.477721,-0.815203
0.592205,0.529950,0.717965,0.351621,0.873104,0.337717
-0.764066,-0.143703,0.105148,-0.167745,0.408663,0.897138
0.401910,0.624997,0.305069,-0.386248,0.839885,0.381321
-0.257843,-0.375627,-0.431897,0.924077,0.169836,-0.342398
-0.559066,-0.390758,0.453769,0.207022,0.581580,0.786706
0.444509,0.198583,0.784345,0.972082,0.165334,0.166497
0.271765,0.488582,0.753862,0.073629,0.993221,0.089950
0.585784,-0.288170,0.290551,0.086556,0.574573,-0.813864
0.597695,0.582333,0.660128,0.470099,0.846001,0.251575
0.171667,0.695379,0.224977,-0.411626,0.660878,0.627538
0.217402,-0.009926,0.765877,-0.163958,-0.940686,0.297033
0.369852,0.227967,0.983227,-0.209315,-0.929820,0.302692
-0.131863,0.484557,0.208082,-0.531683,0.626455,0.569972
0.301175,-0.229217,0.810332,0.452466,0.365481,0.813449
0.327989,0.372110,0.791262,-0.380294,0.693635,-0.611757
0.317206,0.814812,0.569566,0.853946,-0.005639,0.520331
0.026275,0.370861,0.705703,0.048161,-0.307605,0.950295
0.004362,0.657943,0.680332,0.914173,-0.157333,0.373543
0.133921,-0.177297,0.755680,0.532022,0.189294,0.825300
0.488529,0.570578,0.337740,0.982377,0.138332,0.125694
0.168283,0.820551,0.592230,0.237983,0.398703,-0.885664
0.355490,0.820966,0.474615,-0.721195,-0.280951,0.633202
0.263283,0.103539,0.598286,0.466779,0.485455,0.739223
0.003725,-0.348233,0.092080,0.489077,0.569836,0.660371
-0.656322,0.140789,0.502666,-0.238323,-0.665857,-0.706991
-0.849118,0.005437,0.275624,0.854619,-0.294720,0.427512
0.395489,0.139540,0.977500,-0.534718,-0.340334,0.773466
0.222108,-0.131580,0.455286,0.474164,0.821803,0.315925
0.335442,-0.018393,0.930448,-0.551036,0.460976,0.695601
0.423676,0.585711,0.586379,0.800797,-0.594979,0.068729
0.232645,0.194095,0.908317,0.727177,0.385332,0.568096
-0.413626,0.555216,0.497758,-0.444199,0.419423,-0.791689
-0.261520,-0.404456,-0.571739,0.945979,-0.324154,0.006896
0.682106,0.407371,0.682847,-0.703030,-0.448014,-0.552297
0.120930,0.904631,0.169629,0.141561,0.621010,-0.770913
0.256667,0.601120,0.666977,0.940543,-0.216776,0.261509
0.458382,0.295853,0.421139,-0.311138,0.767501,-0.560477
0.334508,0.276972,0.867143,0.514757,0.529357,-0.674393
0.740589,0.410656,0.776977,-0.761759,0.354225,0.542446
0.753774,0.416350,0.788214,-0.640723,0.507358,0.576249
0.486569,0.144166,0.872188,0.487415,-0.380525,-0.785893
-0.068186,0.154902,0.714383,0.227349,0.132428,0.964767
0.851667,0.095068,0.403136,0.348308,0.517760,0.781413
0.407598,0.133200,0.960248,0.968120,-0.165570,0.187965
0.316323,0.125334,0.936559,-0.393416,-0.405760,-0.824974
-0.500194,0.540315,0.461588,0.880152,-0.325562,0.345459
-0.607646,-0.016172,0.503349,0.275102,0.577268,0.768818
-0.074559,0.632724,0.171693,0.374201,-0.410345,-0.831620
0.560344,0.293167,0.731621,0.128806,-0.558322,0.819564
0.348382,0.070960,0.786491,-0.011511,-0.991278,0.131284
0.164950,0.530738,0.735886,0.945228,-0.097925,-0.311375
-0.336911,0.458365,0.166690,-0.402394,0.190681,0.895388
0.189559,-0.067998,0.456899,0.534131,0.063821,0.842989
-0.541274,0.245320,0.155508,-0.223152,-0.402810,-0.887664
0.337695,0.597234,0.430462,-0.267867,0.534301,-0.801729
0.768919,0.607413,0.354799,0.510546,0.687758,0.516074
0.120048,0.507415,0.608620,0.051954,-0.233641,0.970934
0.108038,-0.377340,0.081007,-0.575208,-0.296794,-0.762265
0.181717,0.124823,0.617724,-0.258149,-0.891004,-0.373458
-0.229217,-0.496494,0.072012,0.709021,0.334899,0.620591
-0.336519,-0.517087,-0.975668,0.121305,0.457850,0.880715
0.290341,0.010898,0.891804,0.511094,0.120130,-0.851089
0.602108,0.093266,0.766711,0.549188,0.183970,0.815198
-0.306079,0.058745,0.569525,-0.053823,0.984566,0.166533
-0.209802,0.426622,0.510457,0.809204,-0.556644,-0.187979
0.807500,0.307512,0.243664,-0.731519,0.644543,-0.222361
-0.423479,-0.560861,-0.958799,0.135865,-0.941338,-0.308905
0.859802,0.211309,0.646116,0.798172,-0.569595,0.196172
0.082598,0.861317,0.172854,0.023779,0.450907,0.892254
0.450343,-0.111636,0.869262,0.447741,0.585213,0.676057
-0.745636,-0.382708,0.379487,0.024505,0.277347,0.960457
0.188284,0.422179,0.782814,0.556972,-0.499760,0.663342
0.570537,0.027371,0.832668,0.441395,0.892012,0.097394
0.405096,0.130423,0.859939,0.512198,0.716064,0.474243
-0.014657,-0.017607,0.737239,-0.092834,0.269648,0.958474
0.440245,0.519678,0.607089,0.963366,-0.015728,-0.267728
0.709069,0.309178,0.420127,0.088877,-0.250902,0.963924
-0.508332,0.247681,0.461478,0.059369,-0.142442,0.988021
0.257697,0.278037,0.465005,0.825510,0.516089,-0.228441
-0.321469,0.368548,0.531946,0.791102,-0.429686,0.435347
-0.479754,0.151247,0.358121,0.603531,0.184631,-0.775669
0.630735,0.274379,0.778754,0.903686,-0.301915,-0.303643
0.410341,0.377479,0.365735,-0.066097,-0.036564,0.997143
0.686420,0.542908,0.612926,-0.099262,0.968765,-0.227247
0.534263,-0.123019,0.714452,-0.712700,0.045196,0.700011
0.562450,0.241572,0.777866,0.356251,0.084499,-0.930562
-0.064952,0.390019,0.577016,0.557656,0.384707,0.735541
-0.466763,-0.115014,0.460412,-0.071842,-0.478808,0.874975
-0.218186,-0.376229,-0.334842,0.823097,-0.566782,-0.035646
0.333383,0.300340,0.882125,0.879626,0.141635,-0.454090
0.948823,0.016497,0.388496,0.915470,0.266613,0.301383
-0.358431,0.656649,0.301515,-0.272506,-0.503354,-0.819985
0.436912,0.805974,0.488955,-0.609130,0.055397,-0.791134
0.425145,0.202842,0.851983,0.559948,-0.708738,0.429125
-0.543185,0.330603,0.124860,-0.066934,-0.991077,-0.115265
-0.540735,0.594734,0.309375,-0.638606,0.756063,-0.143357
-0.454559,0.310104,0.120978,-0.098487,0.985808,0.135953
0.223335,0.022698,0.806026,0.904395,-0.412310,-0.109860
0.013236,0.567062,0.727083,-0.061791,-0.128059,0.989840
0.219903,0.274842,0.849742,-0.532667,-0.368259,-0.762005
-0.240391,0.380071,0.535131,-0.655487,0.513393,-0.553863
-0.135097,0.516808,0.667933,0.223537,-0.448560,0.865347
0.251863,0.317832,0.783621,0.928183,0.310382,-0.205281
-0.707058,-0.334629,0.381319,0.187845,0.094240,-0.977667
-0.705637,0.057126,0.489474,-0.523887,0.236890,-0.818184
0.487108,0.854191,0.470241,0.435583,-0.616234,0.656143
0.314214,0.167950,0.889425,-0.573293,0.415020,0.706466
0.055982,0.748502,0.578027,-0.609174,0.378000,0.697153
0.443725,0.836330,0.386555,0.739295,-0.672366,-0.036969
0.594901,0.372943,0.747533,0.404264,-0.452560,-0.794834
-0.441469,0.361422,0.351655,0.328232,0.096221,-0.939684
-0.527499,0.355268,0.494819,0.995036,-0.015969,-0.098224
0.331519,0.302747,0.879774,0.879626,0.141635,-0.454090
0.366815,-0.112792,0.680017,0.062847,0.262755,0.962814
-0.604214,0.215613,0.161891,0.545780,0.271611,0.792686
0.299999,0.361654,0.354690,0.289750,0.008677,0.957063
0.635686,0.391499,0.747669,0.554644,-0.480733,-0.679166
0.598676,0.678351,0.466605,0.889736,-0.430329,0.152272
0.298088,0.655491,0.639705,0.855125,-0.347991,0.384271
-0.148677,0.122509,0.478470,-0.582804,-0.784589,0.211566
0.463334,-0.205293,0.530142,0.633804,0.772530,0.038587
0.710293,0.918419,0.417749,-0.594351,0.107845,0.796942
-0.080342,-0.180120,0.032397,0.129151,0.991622,0.002235
0.379949,0.291503,0.798070,-0.283445,-0.314764,0.905860
0.048580,0.457811,0.276950,0.068971,-0.988137,0.137217
0.502842,0.607689,0.286068,0.218958,0.970283,0.102996
0.559802,0.182205,0.746876,0.821834,0.561855,0.094387
-0.258382,0.535412,0.167510,0.455753,-0.361104,-0.813568
0.422746,0.772102,0.443216,-0.177977,0.704043,0.687494
0.337500,0.830868,0.417120,-0.121422,-0.360865,0.924680
-0.712890,-0.325512,0.122632,0.073921,-0.006945,0.997240
0.349411,0.042087,0.939470,-0.079758,0.229191,0.970108
0.671371,0.411399,0.738565,0.929070,0.319911,-0.185703
-0.226763,0.676778,0.239713,0.390294,0.895470,0.214021
-0.243970,-0.166424,0.585983,-0.288498,-0.194830,0.937449
0.093626,-0.098864,0.658966,-0.678713,0.617468,0.397595
-0.415293,-0.435644,-0.985824,-0.171684,0.336471,0.925912
-0.221177,0.056155,0.594554,0.191366,0.028017,0.981119
0.474362,0.810185,0.558808,-0.026254,-0.351106,0.935968
0.768919,0.296268,0.663204,-0.513637,-0.766809,0.384942
0.394508,0.594918,0.490513,-0.383074,0.183167,0.905375
0.654410,0.420468,0.741737,0.876515,-0.230753,-0.422461
0.422303,0.468038,0.641578,-0.104229,-0.748538,0.654849
-0.348429,-0.340690,0.122427,-0.190799,-0.776501,0.600534
0.653479,0.578076,0.684200,0.109426,-0.970518,0.214757
-0.352352,-0.234539,0.452060,0.609430,0.785375,-0.108544
0.459361,0.813377,0.395754,0.739295,-0.672366,-0.036969
0.380491,0.565489,0.322347,-0.219315,0.898542,0.380162
0.018334,0.839708,0.562266,-0.097682,0.428733,0.898135
0.207450,0.157955,0.891284,0.244691,-0.115237,-0.962729
0.342939,0.224219,0.803551,0.157732,0.585427,0.795233
0.270146,0.076931,0.839243,0.885534,-0.077012,0.458148
0.163481,-0.012979,0.767463,0.198238,-0.242941,0.949569
-0.843822,-0.012748,0.117793,0.914783,-0.379486,0.138427
0.582155,0.730130,0.447645,0.964859,0.152899,0.213705
-0.507842,0.454433,0.349195,-0.041562,0.256407,0.965675
0.419853,0.498670,0.642316,0.818103,0.369480,-0.440671
0.281569,0.059855,0.946237,-0.106332,-0.988639,-0.106242
0.721028,0.776404,0.432157,0.712698,0.358865,-0.602725
0.307255,0.748457,0.279192,0.383335,-0.016081,-0.923469
0.493283,0.072996,0.479181,0.102171,0.754522,0.648273
0.632204,0.040837,0.772384,0.901931,-0.431855,-0.004693
0.067058,0.606303,0.647278,-0.678770,-0.702575,-0.213682
-0.826567,0.020568,0.271468,-0.839991,-0.087700,-0.535465
-0.040980,0.717821,0.582073,-0.156380,0.912879,-0.377090
0.544606,0.230373,0.387662,0.453468,0.885372,-0.102387
0.561520,-0.062261,0.657695,0.136068,0.790457,0.597213
0.405587,0.159206,0.972373,0.844244,0.193726,0.499721
0.665734,0.567618,0.287640,0.113430,0.901531,0.417582
0.713922,0.629855,0.709763,-0.148463,-0.748339,0.646488
0.187207,-0.279238,0.561473,-0.450933,-0.436797,0.778375
-0.297794,-0.170866,0.584343,-0.269616,-0.360907,0.892778
-0.027011,0.167719,0.585067,0.701883,0.500124,0.507185
0.497989,0.655816,0.453031,-0.006343,0.119262,0.992843
-0.316862,0.252307,0.185280,-0.429849,0.056790,0.901113
-0.230832,0.032323,0.278303,-0.158989,-0.892597,0.421891
0.260931,0.108535,0.885898,-0.688230,0.256002,-0.678825
-0.251665,0.553920,0.470993,0.516572,-0.695272,-0.499750
-0.798333,-0.277157,0.352038,-0.106042,0.869861,0.481765
0.273138,-0.127090,0.553558,-0.254166,-0.249523,-0.934418
0.345488,0.586451,0.298193,-0.496055,0.746769,0.443018
-0.324901,0.005900,0.606283,-0.313950,-0.282337,0.906488
0.413923,0.757249,0.543812,-0.620924,0.292936,0.727078
0.014511,0.365402,0.702860,-0.057089,-0.279465,0.958457
0.428185,0.830408,0.484157,-0.649431,0.243695,-0.720314
0.918626,0.274566,0.629631,0.890801,-0.291399,0.348654
0.578185,-0.058651,0.849468,-0.388028,0.551124,0.738713
0.553774,-0.179658,0.684734,0.060619,0.067125,0.995901
0.458676,0.262904,0.602059,0.830869,0.496040,0.252193
0.242354,0.478863,0.785863,0.093080,-0.459554,0.883259
-0.588234,-0.154577,0.097753,-0.017612,0.311086,0.950219
0.292205,0.644756,0.358039,0.497722,-0.378299,0.780489
0.422500,-0.174752,0.776198,-0.714393,-0.523444,-0.464380
0.419508,0.525880,0.601252,0.962527,0.132644,-0.236533
0.711373,-0.078365,0.804754,0.366939,0.587698,-0.721088
0.575686,0.554338,0.694753,0.408227,-0.908995,0.084130
0.805244,0.394786,0.297701,0.600145,0.757037,0.258305
0.372305,0.402144,0.587473,0.842735,-0.379849,0.381462
0.579902,0.764005,0.472701,0.718276,0.409197,0.562706
0.570735,0.476644,0.708095,-0.260347,0.197637,-0.945071
0.465638,0.078504,0.593802,-0.262419,0.108649,-0.958818
-0.012057,0.469331,0.714014,-0.414790,0.557556,-0.719083
0.299754,0.632171,0.435082,0.053058,0.213304,-0.975544
0.378283,0.433101,0.627280,-0.073295,-0.369674,0.926266
0.361863,0.784041,0.564699,0.606240,0.234798,0.759831
0.368775,-0.115522,0.882371,0.358173,-0.730785,-0.581090
0.170931,0.424817,0.783976,-0.710771,0.594515,-0.375975
-0.219116,-0.308344,0.442259,-0.687136,0.468329,-0.555439
-0.327743,0.285671,0.378831,0.249802,-0.273986,-0.928725
-0.652450,0.333196,0.179553,0.970621,0.021887,0.239615
-0.035293,0.887880,0.573626,-0.226224,-0.170068,0.959114
-0.416469,0.396450,0.362359,-0.282493,0.235713,0.929859
0.728528,-0.318110,0.296265,0.001867,-0.168822,0.985645
-0.064263,0.026214,0.738196,-0.242270,-0.091219,-0.965911
0.082795,0.074479,0.479482,-0.093160,-0.955532,-0.279786
0.416959,0.335602,0.753602,0.088612,-0.943393,0.319620
0.814998,-0.222646,0.405706,0.215403,-0.780517,0.586852
-0.073236,-0.847574,-0.535678,0.424721,0.881087,-0.208082
0.323333,-0.020938,0.898707,-0.112060,-0.971327,0.209683
0.780980,-0.207838,0.454056,-0.605837,0.555902,0.569152
0.056077,0.727678,0.209544,0.346570,0.807844,-0.476736
0.471960,0.809398,0.472907,-0.625012,0.302356,-0.719681
0.735685,-0.207098,0.679143,-0.646340,0.521852,0.556700
0.653431,0.199509,0.687468,0.803449,0.294638,-0.517357
0.111078,0.899307,0.147278,0.684431,-0.506806,0.524120
0.158628,0.272066,0.771017,0.009867,-0.483954,0.875038
0.482108,0.507785,0.716707,-0.388355,0.495886,-0.776709
0.339313,-0.050276,0.927031,-0.702476,0.543505,0.459489
0.220833,-0.189654,0.750718,-0.120172,0.990427,0.067920
-0.548284,0.028297,0.334924,0.925410,-0.055262,-0.374916
0.418626,0.551745,0.559354,0.749863,-0.471031,0.464580
0.339804,0.755721,0.451240,0.481301,0.499425,-0.720363
0.259217,0.856643,0.134948,-0.295039,-0.240063,-0.924836
0.391420,0.615603,0.666402,-0.015471,-0.483212,0.875367
-0.639459,-0.074571,0.516609,0.336887,0.476239,0.812221
0.735931,-0.015201,0.819572,0.840813,-0.155622,-0.518475
-0.037501,-0.831193,-0.637163,-0.230450,0.145520,-0.962142
0.667547,0.625135,0.276089,-0.324776,-0.912199,-0.249827
0.377059,0.365678,0.718676,0.808649,0.004131,-0.588277
-0.313038,0.254482,0.507929,0.857436,-0.461655,-0.227331
-0.277353,0.574930,0.309593,0.331474,-0.433501,-0.837975
-0.061813,0.809815,0.167318,0.826841,-0.183887,0.531525
0.058725,-0.255038,0.069251,-0.486194,-0.794330,-0.364217
-0.017060,0.609217,0.682888,0.846464,0.173844,0.503267
-0.056766,0.101917,0.595894,0.352906,0.650403,0.672631
0.399361,0.020985,0.630574,0.977181,0.154384,-0.145884
-0.591421,-0.008121,0.354553,-0.536662,0.285902,-0.793885
0.260587,0.083779,0.871354,0.990911,-0.133811,-0.013791
0.065981,-0.014692,0.731443,0.161334,-0.077085,0.983885
0.767696,-0.108211,0.804754,0.467984,0.463545,-0.752407
0.184215,0.473590,0.756828,-0.109377,0.525205,0.843917
-0.180930,0.063557,0.391353,-0.135534,-0.010224,0.990720
0.488236,0.675897,0.265467,-0.043101,-0.049681,0.997835
-0.462009,0.456839,0.342415,-0.117130,-0.529974,-0.839886
-0.328186,0.773351,0.297304,0.050157,0.707339,0.705092
-0.022646,0.482984,0.202258,0.396013,0.673987,0.623630
0.064706,-0.799079,-0.463543,0.608163,-0.771898,0.185234
-0.515881,-0.355266,0.427960,0.442399,0.122818,-0.888368
0.923921,-0.057633,0.419512,0.968918,-0.211834,0.127766
0.637009,0.152727,0.627867,0.870523,0.450249,-0.198659
-0.072108,0.401957,0.693783,-0.480534,0.633136,-0.606816
-0.452108,0.104742,0.577494,0.409347,0.090344,-0.907895
0.614264,0.508572,0.591752,-0.110296,-0.617762,0.778591
0.512940,0.365585,0.721683,0.399913,-0.702949,-0.588160
0.422354,0.126859,0.837972,0.904569,0.001801,-0.426324
-0.190735,0.690197,0.568363,0.887308,0.120051,0.445278
0.549020,-0.178130,0.762064,0.015705,0.999530,-0.026336
-0.002597,-0.288587,0.251975,0.749769,0.345510,0.564331
-0.264411,-0.241618,0.587446,0.303680,0.313450,-0.899737
0.189852,0.149024,0.786218,0.366510,-0.728638,0.578582
0.369998,0.064484,0.923846,0.471144,0.806062,-0.358173
-0.042500,0.244905,0.507669,-0.425580,-0.489196,0.761295
0.578283,0.556233,0.703666,0.483402,-0.863703,-0.142621
0.859509,0.213300,0.380266,0.588290,0.386726,0.710181
0.706128,0.420976,0.769527,0.912964,-0.148798,-0.379942
0.375488,-0.109691,0.523116,0.937156,0.287889,-0.197126
0.440293,0.441752,0.628933,0.697580,0.116251,-0.707013
-0.123970,-0.016729,0.467931,0.254961,0.118652,-0.959644
0.157255,0.205850,0.544058,0.961717,-0.186406,0.200881
0.421618,0.188127,0.841020,0.951606,0.191572,-0.240303
0.541274,0.281138,0.792916,-0.137407,-0.888329,0.438167
0.408627,-0.129173,0.304768,-0.240335,0.290131,0.926317
0.781518,0.258185,0.633362,0.006200,0.987724,0.156089
-0.158431,-0.653363,-0.973768,-0.068742,0.088227,0.993726
0.443970,0.323661,0.683148,-0.703461,0.246686,-0.666550
0.266469,0.766872,0.388947,0.022218,0.897304,0.440853
0.576273,0.557021,0.415466,0.863166,-0.108029,0.493228
0.152058,0.144768,0.776800,-0.768884,0.613555,0.179911
0.311814,0.749429,0.241408,-0.684715,0.470188,0.556857
-0.373334,0.334676,0.567488,0.459894,-0.856829,0.233112
-0.313283,-0.399459,0.101198,-0.206455,-0.751726,0.626327
0.235832,0.663450,0.676627,0.837882,-0.531923,-0.122521
0.456177,-0.008028,0.543798,-0.445477,0.837286,-0.317020
0.259510,0.585849,0.609850,-0.069541,0.878583,0.472500
0.301274,0.378958,0.806572,-0.387729,0.119624,0.913978
0.023627,0.462807,0.295432,-0.318265,-0.929235,-0.187696
0.265048,0.297657,0.788487,0.841767,0.475012,-0.256498
-0.417549,0.631013,0.329415,0.075246,-0.930234,0.359170
-0.147696,-0.182203,0.662192,0.154894,0.364854,0.918090
0.268432,-0.096273,0.675561,-0.025919,0.302334,0.952850
0.136078,-0.097799,0.483145,0.597828,0.125301,0.791771
0.700931,0.685661,0.337753,-0.047673,0.983250,0.175918
0.774167,-0.370444,0.277278,0.305549,-0.674930,0.671647
0.344609,0.419773,0.814296,0.221641,-0.896910,-0.382658
-0.492400,-0.200342,0.441671,0.166210,0.711257,-0.682999
-0.391274,-0.116818,0.440290,-0.044037,0.447490,-0.893204
0.298234,0.719073,0.564467,-0.717474,0.241645,0.653329
-0.678136,-0.267532,0.122194,-0.003359,-0.115890,0.993256
-0.628775,0.322274,0.131900,-0.219037,0.936360,0.274322
0.286225,-0.062446,0.780026,0.298087,0.679380,0.670512
0.410392,0.031258,0.924556,0.932278,0.353589,0.076365
0.360343,0.833876,0.547557,0.740039,-0.451905,0.498120
-0.177304,0.107100,0.708205,-0.316945,-0.149984,0.936510
-0.189559,-0.790796,0.015679,0.043619,-0.778912,0.625615
0.066962,0.777237,0.575239,-0.660151,0.316837,0.681040
0.640539,0.854979,0.426416,-0.153306,-0.987791,0.027681
0.522990,0.844798,0.442313,0.697668,-0.698638,-0.158633
-0.023089,0.245738,0.701260,0.409998,0.528535,-0.743339
-0.170734,0.512414,0.559546,-0.735393,0.676853,0.032653
-0.106126,-0.093497,0.732865,-0.548231,-0.188621,-0.814779
-0.633628,0.143842,0.346967,-0.555022,0.814394,0.169449
0.684853,0.518243,0.507805,0.111037,-0.078265,0.990730
0.172254,0.735361,0.459633,-0.659647,-0.066471,-0.748630
-0.455980,0.233706,0.156765,-0.314047,0.217041,0.924266
0.413578,-0.021818,0.845791,0.945786,0.215953,0.242597
-0.150344,-0.211448,0.666963,0.305982,0.720215,0.622627
0.171667,-0.061058,0.766698,0.023767,-0.583116,0.812041
-0.718529,0.125472,0.497020,-0.255036,0.615142,0.746027
0.385098,-0.115060,0.577248,-0.493248,0.685081,-0.536069
0.541764,0.071146,0.836031,0.467139,0.496122,-0.731877
0.351520,0.722081,0.561692,0.259167,0.715131,0.649168
0.816960,0.215289,0.376179,0.307228,0.933364,0.185589
-0.187354,0.128664,0.381046,0.093671,-0.132316,0.986772
-0.451274,0.362902,0.359912,-0.032590,0.140767,0.989506
-0.852400,-0.328798,0.384545,-0.651389,0.665632,0.364180
0.521323,0.606441,0.472414,-0.620670,-0.508569,-0.596762
0.287451,0.471043,0.435424,0.735790,0.071351,0.673441
-0.346126,0.366512,0.178172,0.640355,-0.262811,-0.721718
0.163727,-0.218852,0.566134,-0.406109,-0.441041,0.800349
-0.586813,0.478912,0.307393,0.836497,-0.510390,-0.199437
0.420981,0.554058,0.643847,0.616995,0.733257,-0.285747
0.572793,0.610051,0.130861,0.737434,0.662631,-0.130811
-0.394900,-0.269615,0.153935,-0.164948,-0.281136,0.945386
0.181175,0.190997,0.893034,0.002227,0.357507,0.933908
0.129215,0.803845,0.125024,-0.397080,0.140822,0.906916
-0.296714,0.362671,0.384982,-0.050468,0.536138,0.842620
-0.221665,-0.157168,0.584575,-0.289972,-0.305977,0.906804
0.306324,0.795654,0.240971,-0.747122,0.212398,0.629838
0.002989,-0.065824,0.489761,0.918402,-0.356355,0.171899
0.155834,0.457949,0.196326,0.891950,-0.214136,0.398210
0.372305,-0.072626,0.725729,-0.456576,0.070197,0.886911
0.162500,0.828786,0.455081,-0.785761,0.197838,-0.586038
-0.557989,-0.332083,0.125981,-0.300545,-0.241766,0.922617
0.115931,0.731613,0.583126,0.254702,-0.357211,0.898625
-0.697353,0.145325,0.141318,0.804941,0.146579,-0.574964
-0.464265,0.445918,0.346365,-0.053924,-0.309420,-0.949395
-0.800343,-0.090025,0.314023,0.975008,-0.210126,-0.072158
0.755734,0.373313,0.719578,-0.150602,0.967416,-0.203532
-0.277745,0.040189,0.196954,-0.652272,0.303227,0.694690
-0.480343,-0.182481,0.452634,-0.025953,-0.393067,0.919144
0.538332,0.651419,0.626159,0.644445,0.716657,-0.266632
-0.202107,0.102104,0.577234,-0.240624,-0.598684,-0.763988
0.234363,0.601213,0.653949,0.722498,0.687917,-0.069043
0.490294,0.078967,0.833037,0.188068,0.814011,-0.549560
0.472157,-0.099049,0.818520,0.213748,-0.832355,0.511367
0.745930,0.871730,0.433114,0.859010,-0.138362,-0.492907
0.635979,0.057448,0.426675,0.407553,-0.014788,0.913062
0.315539,0.696814,0.273915,-0.016927,-0.245126,0.969343
-0.547939,-0.623331,-0.634196,-0.812473,0.494095,0.309449
-0.503725,-0.041439,0.462367,0.347431,-0.621173,0.702450
0.096226,0.631798,0.475394,0.780206,0.442499,-0.442122
0.684215,0.560074,0.308746,0.341367,0.801502,-0.490982
0.697745,0.686635,0.599475,0.616044,0.540012,-0.573477
-0.314851,0.721061,0.288788,-0.541692,0.169053,-0.823402
0.088285,0.192197,0.771646,0.777822,0.234884,-0.582944
0.294117,0.272436,0.801460,0.805988,0.282868,-0.519971
0.271519,0.177251,0.887757,-0.165780,-0.889937,0.424886
0.266960,0.180815,0.384668,0.780629,-0.624924,-0.009403
0.385685,0.418708,0.710460,-0.185788,0.720729,0.667857
0.101570,0.038801,0.277387,-0.476773,0.418022,0.773269
-0.290195,0.061614,0.593706,-0.422086,-0.357854,-0.832937
-0.110638,-0.157863,0.416163,-0.474007,0.871255,0.127404
-0.857007,-0.137271,0.148208,-0.657729,-0.033923,0.752490
-0.820440,0.011221,0.276471,0.832356,-0.123608,0.540282
-0.904657,-0.104463,0.123137,-0.691672,0.358802,0.626778
-0.112400,-0.089424,0.455464,0.069592,0.111464,0.991329
-0.232304,0.363642,0.533669,0.911878,0.180748,-0.368521
-0.524363,-0.065500,0.604724,0.436779,0.364868,0.822250
0.309119,0.775525,0.363056,0.525525,-0.264693,0.808555
0.371030,0.436247,0.700481,0.406884,0.466151,-0.785588
-0.704949,0.009046,0.096222,-0.501108,-0.862627,-0.069030
0.786422,0.485249,0.494532,0.890244,-0.270839,-0.366212
0.415736,-0.083270,0.823154,0.349533,0.395159,0.849515
0.729656,0.851138,0.434030,0.884601,0.225175,-0.408383
-0.208186,-0.335508,-0.359488,-0.517155,0.854769,0.043818
0.499117,0.073877,0.962914,-0.368265,0.663316,0.651454
0.064658,0.544574,0.582716,0.798229,0.019335,-0.602044
-0.610734,-0.871359,-0.406006,-0.408516,-0.437446,-0.801096
0.183479,0.795377,0.447153,0.895387,0.063204,0.440781
-0.281471,-0.848407,-0.974027,-0.025421,0.046441,0.998597
0.097058,0.215334,0.905924,-0.534926,0.137146,-0.833694
0.376030,0.158093,0.953892,0.711743,-0.599429,-0.366206
0.308921,-0.044075,0.917503,-0.624249,0.326515,0.709720
-0.399115,0.100762,0.587555,0.698769,0.171478,-0.694490
-0.682450,0.146943,0.490377,0.271791,-0.772248,0.574249
0.159999,0.055552,0.612475,-0.585661,0.803347,-0.107862
0.436912,0.015340,0.838984,-0.845474,0.219484,-0.486827
0.247794,0.084703,0.856973,0.942381,0.334301,-0.012664
0.301471,0.472478,0.772521,-0.171501,0.977283,0.124522
-0.700784,-0.072766,0.518796,0.425111,0.561169,0.710190
-0.437891,-0.370723,0.440318,0.243356,0.194838,0.950166
-0.260883,-0.345688,0.428220,-0.623551,0.298294,-0.722638
0.366519,0.784411,0.269965,-0.699595,0.382277,0.603681
0.827549,0.494321,0.579189,-0.453620,0.666701,-0.591388
0.118872,-0.454987,0.312177,-0.872538,0.074492,0.482834
0.558971,0.963998,0.593939,0.676153,-0.566960,0.470503
0.033578,0.508618,0.417681,-0.724899,0.622288,-0.295431
0.181519,-0.235371,0.616316,-0.313241,0.934824,-0.167284
0.098628,0.694176,0.205758,0.497978,0.797205,-0.341294
0.346521,-0.086277,0.792957,-0.138785,0.971892,0.190170
-0.510343,0.042457,0.568458,-0.130383,0.536721,0.833625
-0.497206,-0.027509,0.587842,-0.673398,-0.462331,-0.576876
-0.396961,0.694964,0.273724,0.297746,0.816456,0.494719
0.764066,0.829665,0.555417,-0.033095,-0.931328,0.362676
0.371225,0.461974,0.681179,0.920605,-0.003520,0.390479
-0.010295,0.082670,0.610548,0.188679,-0.970741,-0.148534
0.494166,0.191457,0.749501,0.941098,-0.078174,-0.328974
-0.664902,0.132090,0.231744,0.820727,-0.503968,-0.269117
0.414853,0.024964,0.815827,0.879940,-0.189667,0.435583
0.620344,-0.079012,0.738196,0.888534,0.085622,-0.450751
-0.769117,-0.281460,0.355005,0.164444,-0.810998,-0.561462
0.594655,0.318249,0.784783,0.907330,-0.045839,0.417912
0.460881,0.423337,0.580706,-0.249943,0.654097,-0.713923
-0.438528,0.286089,0.569689,0.859853,-0.233180,0.454180
0.472597,-0.080957,0.801692,0.921229,0.312092,0.232241
-0.407059,0.427593,0.352011,-0.006644,0.604985,0.796209
-0.351813,0.491683,0.484704,-0.249585,0.326328,-0.911711
0.327597,-0.282108,0.792807,0.064022,0.810318,0.582483
0.354560,0.757571,0.540545,-0.608940,-0.192356,0.769539
0.435784,0.596816,0.497580,-0.656393,0.074445,0.750737
0.475391,0.085121,0.591574,0.360359,-0.042874,0.931828
0.078334,0.274102,0.777552,-0.740294,0.399034,0.541051
0.692401,0.539714,0.656697,0.173367,0.090067,0.980730
0.158087,0.419217,0.763622,-0.622741,-0.267367,0.735329
0.325784,0.730503,0.533956,0.096891,-0.955756,0.277745
0.232843,0.460909,0.763868,0.261750,-0.893112,-0.365839
0.013969,0.827631,0.561446,-0.188986,0.472956,0.860579
0.415000,0.620741,0.667715,-0.088335,-0.507138,0.857326
-0.239706,-0.092895,0.228983,-0.322170,0.543904,0.774839
-0.373873,0.157215,0.607267,-0.076705,-0.044760,0.996049
-0.214754,-0.429120,-0.382249,0.946554,0.321708,-0.023232
-0.118824,-0.234168,0.000301,-0.295408,0.954755,-0.034312
-0.632108,0.303995,0.165295,0.920791,0.167285,0.352364
0.232744,0.000949,0.781611,0.125263,0.210191,0.969602
-0.101225,0.014924,0.518673,0.509195,0.406752,0.758468
0.807991,0.554200,0.274079,0.541175,0.767803,-0.342940
-0.563970,-0.394230,0.246740,-0.739974,0.262018,0.619504
-0.387450,-0.337590,0.438199,0.015824,0.282649,0.959093
0.634412,0.165869,0.432239,0.517795,0.196956,0.832524
0.366420,-0.061336,0.727629,-0.266395,0.200593,0.942760
0.308137,0.850025,0.419663,0.015108,-0.428398,0.903464
0.221764,0.021170,0.712552,0.299533,-0.630718,-0.715873
0.129706,-0.126674,0.757826,-0.675510,0.298724,-0.674129
-0.253382,-0.843271,-0.626063,0.207622,-0.028690,0.977788
-0.792547,-0.140094,0.299163,0.924654,-0.309445,-0.221943
0.275537,0.074016,0.850535,0.925638,0.375739,0.044879
-0.152648,-0.310381,-0.283607,0.831156,0.541558,-0.126076
0.086814,-0.047731,0.693783,0.098248,-0.206220,0.973561
0.420442,0.118347,0.925472,0.986010,0.011822,-0.166265
0.417058,0.228478,0.987724,0.546658,0.779707,0.305322
0.476274,0.834709,0.422656,0.152006,-0.620180,-0.769592
0.018580,-0.233751,0.460098,0.301259,0.121907,-0.945717
0.024854,0.701302,0.676942,0.873592,-0.123369,0.470763
0.060784,0.676871,0.595552,-0.023036,0.800374,0.599059
0.302109,0.053562,0.803907,-0.606387,0.793974,-0.043587
0.190735,0.848037,0.145775,0.803345,0.239460,0.545249
0.068087,0.660906,0.609591,-0.102352,0.935731,0.337538
0.767794,-0.081743,0.474930,-0.444662,-0.887961,0.117479
-0.708578,0.076467,0.364929,-0.678834,0.296345,0.671837
-0.456470,0.287707,0.354882,-0.057645,0.549429,0.833549
-0.202942,-0.350177,-0.387087,0.991889,0.124686,0.024704
-0.131961,-0.061799,0.675069,0.061234,-0.562743,0.824361
-0.493971,0.309409,0.476051,0.996961,0.030792,-0.071560
-0.412451,0.560399,0.347459,0.791501,-0.049995,-0.609119
0.657841,0.951645,0.407332,0.619388,0.202153,-0.758612
0.129511,0.256566,0.899814,-0.437114,-0.328270,-0.837359
0.584755,0.613937,0.328389,0.088785,0.982332,-0.164743
0.036421,0.555403,0.718348,-0.618805,0.261914,-0.740595
-0.231030,-0.701025,-0.974191,0.096843,0.015532,0.995179
0.367647,-0.082205,0.433278,-0.252794,0.537865,-0.804237
-0.389410,-0.540130,-0.832367,0.133466,-0.956776,0.258394
-0.287646,-0.430647,-0.554597,0.931573,-0.362661,-0.025447
-0.105393,0.611022,0.405022,0.039326,0.905921,0.421617
0.412597,0.894774,0.552875,0.079682,-0.865650,0.494268
0.676520,-0.088822,0.547844,0.825016,0.564691,-0.021755
0.587941,-0.040420,0.844000,-0.404748,0.552668,0.728517
0.758038,0.243701,0.248845,0.465358,-0.829266,0.309452
-0.420197,0.057217,0.279520,-0.433738,0.260025,0.862704
0.433822,0.145923,0.873896,-0.383662,0.647637,0.658309
-0.356813,-0.490895,-0.662835,0.957825,-0.264513,-0.112270
0.012057,0.727910,0.577986,-0.113915,-0.534578,-0.837406
-0.061813,0.830823,0.554119,0.397840,0.029191,-0.916990
0.286715,0.406400,0.798603,-0.676224,0.736278,-0.024825
0.522547,0.668495,0.687481,0.470951,0.749838,-0.464702
0.731224,-0.219130,0.692170,-0.440172,0.766988,0.466880
0.273922,0.054349,0.911953,-0.750632,0.595783,0.285645
0.635588,0.084983,0.747601,-0.026316,0.283422,0.958634
0.047108,0.045556,0.458075,-0.146964,-0.489322,0.859631
-0.238480,0.105112,0.589510,0.680755,0.216506,0.699784
0.175048,0.434072,0.760519,0.331664,-0.003741,-0.943390
-0.380341,-0.400847,0.235312,-0.274589,-0.170713,0.946286
0.252206,0.286089,0.349769,-0.616986,0.716873,-0.324686
-0.664116,0.098494,0.510813,0.545423,0.118940,0.829679
0.275882,0.633696,0.600610,0.197630,0.492155,0.847777
0.811617,-0.369241,0.276841,0.277756,-0.712447,0.644415
-0.264949,0.024779,0.600159,0.111466,0.341734,0.933163
-0.209802,0.022744,0.556757,0.235321,0.970769,0.047234
0.331765,-0.023623,0.878694,0.237317,0.955689,-0.174181
0.415197,0.193493,0.809238,0.336443,-0.348720,0.874757
-0.780537,-0.177112,0.308746,0.771780,-0.627401,-0.103550
0.272204,0.016775,0.902275,0.951203,-0.253319,-0.176187
-0.139312,0.138566,0.706482,0.159543,0.302595,0.939672
0.219266,-0.174198,0.475189,0.168111,-0.833230,-0.526750
0.355882,-0.162999,0.759412,-0.420930,-0.803952,-0.420095
-0.094263,-0.235279,0.038153,0.020942,0.995964,0.087272
0.210293,0.829481,0.140744,0.527862,0.205554,0.824081
0.433235,0.012841,0.934303,-0.598372,-0.700990,-0.388026
0.521518,0.314824,0.737116,0.467558,-0.092990,-0.879058
0.832303,0.263554,0.671036,-0.676741,-0.550491,0.488858
0.018529,0.058838,0.240370,0.218352,-0.132488,-0.966835
0.422746,0.798617,0.433661,-0.317874,0.705826,0.633060
-0.295194,-0.454478,-0.709421,-0.580847,0.811591,-0.062743
0.492451,0.057078,0.485606,0.102171,0.754522,0.648273
0.037746,-0.014044,0.733753,-0.210768,-0.076879,-0.974508
0.531322,0.616391,0.259179,-0.082543,0.813677,0.575427
0.497107,0.296084,0.784345,0.860253,0.499580,0.101909
0.457548,0.799634,0.554966,0.188197,0.529013,-0.827482
0.505834,0.855208,0.561377,0.346419,0.646463,-0.679765
-0.536863,-0.309133,0.441001,0.064424,0.344284,0.936653
0.715980,0.371508,0.710269,0.005870,0.637602,0.770344
0.757990,-0.288077,0.296580,0.664034,0.707331,-0.242368
0.385930,0.809861,0.251661,0.269076,0.255942,-0.928489
0.579803,0.400847,0.737144,-0.661220,0.410548,0.627884
0.277010,0.253234,0.787517,-0.476665,0.844059,0.245673
0.651029,-0.059115,0.680318,0.124176,0.353407,0.927191
0.239853,0.463872,0.793641,0.388200,-0.496232,0.776566
0.281814,0.270956,0.800886,0.805988,0.282868,-0.519971
0.555491,0.532079,0.717432,0.922171,-0.189878,-0.336967
0.554411,0.300572,0.799573,0.282362,0.479042,-0.831138
0.147696,0.428842,0.761271,0.071607,-0.204782,0.976185
-0.035538,0.602507,0.697993,-0.559935,0.457930,-0.690488
0.410931,0.276740,0.793600,-0.495924,0.361953,-0.789335
-0.224510,0.449157,0.454398,0.677112,0.006676,0.735850
0.357794,-0.313714,0.802362,-0.049687,0.839149,0.541628
0.289656,0.124591,0.885762,-0.339983,0.474426,-0.811992
-0.131324,0.213114,0.331561,0.792964,0.021237,0.608898
0.269018,0.589552,0.639309,-0.585555,0.423381,-0.691284
-0.810244,-0.202980,0.148755,-0.246674,-0.150810,0.957292
0.434609,-0.076329,0.841649,0.915706,-0.401830,-0.003878
0.398038,0.319405,0.734765,-0.284240,-0.273573,-0.918894
-0.010295,0.577983,0.691104,0.384220,-0.294933,0.874866
0.246274,0.500797,0.615729,0.224875,0.326671,-0.917996
-0.712106,0.025474,0.357643,0.725010,-0.072615,-0.684900
0.344705,0.199416,0.812628,0.082553,0.116990,0.989696
0.006175,0.635037,0.568390,-0.483495,0.073910,0.872221
-0.109558,0.034590,0.266151,0.180425,-0.458483,-0.870196
0.904019,-0.057032,0.530265,0.747837,0.509846,0.425203
-0.641909,0.108673,0.496883,0.674497,0.265010,0.689074
0.419805,0.358276,0.772890,0.414705,0.908261,0.055517
-0.801076,-0.081418,0.273874,-0.662092,0.001012,-0.749422
-0.255932,-0.202980,0.568786,0.188414,-0.019280,0.981900
-0.467843,-0.136021,0.450351,0.435797,0.534502,-0.724147
-0.441520,0.294325,0.566968,0.832719,-0.258891,0.489443
-0.438480,0.660812,0.338300,-0.064384,-0.863354,0.500475
-0.001714,0.878946,0.551330,0.519759,0.571685,-0.634844
-0.404704,0.069711,0.583550,0.402585,0.590204,-0.699703
-0.380733,-0.819208,-0.976556,-0.096513,0.027465,0.994953
0.181080,0.130977,0.786847,-0.175680,-0.893616,0.413023
-0.499608,-0.122186,0.435055,0.126716,-0.450449,0.883764
0.449461,0.767843,0.293955,0.755340,0.472627,-0.453966
-0.004706,0.592698,0.680933,0.565671,0.399836,0.721213
0.432254,0.460539,0.655002,-0.703337,0.708227,-0.061086
0.848480,0.571504,0.600528,0.323826,0.351072,-0.878570
-0.334804,-0.495846,-0.686647,0.853928,-0.520392,-0.000066
0.031322,0.411026,0.386718,0.668278,0.081306,0.739455
0.415490,0.773582,0.539574,0.953867,-0.202562,0.221598
-0.405342,0.049861,0.602701,-0.192340,-0.482999,0.854235
-0.360882,0.703107,0.309006,-0.138667,-0.019746,0.990142
0.696126,-0.064667,0.810701,0.735901,-0.063515,-0.674103
0.187892,0.116030,0.773164,0.218174,0.946973,-0.235886
0.631471,-0.053747,0.753862,0.937328,-0.330008,-0.111852
0.030589,-0.024733,0.697460,0.177540,-0.930703,0.319799
0.481175,-0.283681,0.691063,0.046243,-0.136357,0.989580
0.700048,0.241388,0.647552,-0.068146,0.210442,0.975228
-0.302109,-0.335091,0.444241,0.260948,0.448122,0.855040
-0.306420,0.363922,0.585655,-0.327150,0.892342,-0.310964
-0.733088,-0.056986,0.119884,-0.244626,0.909466,0.336200
0.563381,0.265449,0.743732,-0.792523,0.337011,-0.508262
0.574313,0.681173,0.585778,-0.340413,0.488259,-0.803569
-0.057499,-0.280165,0.651352,0.199721,0.462657,-0.863748
0.417549,0.256657,0.792534,-0.583808,0.073266,-0.808580
0.610539,0.561927,0.740165,-0.732947,0.486139,0.475875
-0.289656,0.343561,0.517265,0.855351,-0.307058,0.417240
0.313921,0.050507,0.935916,0.234775,-0.502525,0.832075
-0.495686,-0.516161,-0.984403,0.250950,-0.262318,-0.931780
0.378334,0.403948,0.816743,0.661126,0.730990,0.169014
-0.693921,-0.014229,0.120595,0.081306,0.849216,0.521749
0.426372,0.199696,0.916929,0.758563,0.609087,0.231504
0.469312,0.085121,0.805123,-0.341240,0.789329,0.510406
0.891274,0.030749,0.399240,-0.522043,-0.356831,-0.774689
0.149509,0.574142,0.718676,-0.652552,0.638983,-0.407281
-0.282500,-0.488257,-0.717104,-0.553588,0.829913,0.069172
0.272109,0.688347,0.121620,-0.371217,0.133176,-0.918946
0.640587,0.419033,0.739700,0.895314,0.143491,-0.421690
0.321766,-0.281275,0.807133,0.257831,0.851754,0.456112
-0.408528,0.325652,0.578137,-0.506843,0.758581,-0.409469
-0.570050,-0.419218,0.117246,-0.218512,-0.346052,0.912415
-0.466616,-0.108350,0.455696,-0.162875,-0.308643,0.937129
-0.281862,-0.238519,0.428138,0.185990,-0.320534,0.928798
0.685882,-0.201637,0.686757,-0.201233,0.737674,0.644471
-0.075636,0.043613,0.733398,-0.437291,0.606062,-0.664428
-0.283430,-0.792185,-0.852517,0.994089,0.103746,-0.031986
0.272647,0.641841,0.567542,-0.372341,0.494660,-0.785286
0.294557,0.307930,0.831602,-0.191188,-0.969612,-0.152643
-0.085883,-0.074709,0.731580,-0.487373,0.187998,-0.852716
0.499411,0.888018,0.572901,-0.366628,-0.344669,0.864169
0.403334,0.824112,0.490773,-0.715388,0.559768,0.418187
0.082646,0.460819,0.724144,0.931401,0.131094,-0.339567
-0.647941,0.327782,0.167264,0.998731,-0.038932,0.031942
0.357794,0.255917,0.728532,-0.702128,0.443142,-0.557353
-0.358677,0.160824,0.605134,0.377356,0.088798,0.921801
0.736861,0.416533,0.469749,0.601707,0.727454,-0.329787
0.622498,0.559891,0.639213,-0.581253,-0.747958,-0.320474
-0.382451,0.527222,0.491743,0.530396,-0.286227,0.797969
0.415538,0.557761,0.657736,0.278173,-0.935147,0.219362
0.644019,-0.342448,0.687508,0.115391,0.755906,0.644430
0.362794,0.117002,0.952976,0.707670,0.573535,-0.412625
0.546910,-0.253742,0.695355,-0.395826,0.161237,0.904060
0.452450,0.961222,0.579996,0.237798,0.688772,0.684869
0.584902,0.132782,0.735052,-0.271252,-0.069524,0.959994
0.632401,0.027417,0.520026,-0.690050,0.718705,0.085407
0.350539,0.706069,0.577535,0.979628,-0.168237,0.109664
-0.768674,-0.302005,0.383903,-0.292427,0.265771,0.918614
-0.125391,0.674417,0.313653,-0.345511,0.903688,0.252922
0.496616,-0.059253,0.817973,0.368383,-0.593788,0.715339
0.432254,0.060549,0.787831,0.353265,0.572788,-0.739674
0.781569,0.664515,0.624272,-0.012626,-0.605351,0.795858
0.247354,0.690615,0.659349,-0.741754,0.670011,0.029768
-0.602647,-0.089100,0.487123,-0.358244,0.862304,-0.357902
0.440637,-0.024039,0.545452,-0.606276,0.757948,-0.240715
0.666422,0.613245,0.353337,0.127066,0.735038,0.666013
0.399361,0.194095,0.967562,-0.053922,-0.791605,0.608650
-0.062058,-0.136207,0.742488,0.373453,0.070893,0.924936
0.382648,0.620046,0.571507,-0.360410,-0.517414,0.776136
0.362500,0.463225,0.718266,0.968422,0.160792,0.190537
-0.074412,0.055043,0.724472,0.860331,-0.459861,-0.219905
0.332991,-0.113995,0.437515,0.596228,-0.021164,0.802536
0.596764,-0.008676,0.739973,0.248373,0.190975,-0.949652
-0.478530,0.203952,0.582237,0.919774,-0.310083,-0.240551
0.174019,-0.757294,0.034038,0.269446,-0.879791,0.391621
-0.027451,0.309827,0.709312,0.074961,-0.092689,0.992869
-0.263627,0.632956,0.310099,-0.044728,0.467525,0.882847
0.145392,-0.238240,0.303825,-0.683418,0.069278,-0.726733
0.364508,0.764976,0.510157,-0.654617,0.707944,-0.265129
-0.095442,0.790796,0.569470,-0.291082,0.570243,0.768176
0.314067,0.110896,0.940441,0.146486,0.355524,0.923117
0.469755,-0.103677,0.824671,-0.218042,0.875943,-0.430327
0.364508,0.426297,0.582251,0.640422,-0.394398,0.659022
0.424215,0.775017,0.241942,0.052150,0.515144,-0.855516
-0.563725,0.080122,0.563578,-0.379948,0.654672,0.653486
0.171177,-0.095948,-0.016363,-0.111263,0.863579,0.491784
-0.666126,0.076512,0.140840,-0.773583,-0.180274,0.607511
0.026469,0.418013,0.666457,-0.706986,0.631510,-0.318379
-0.445098,-0.432451,-0.988258,0.158856,-0.186509,-0.969525
-0.324802,0.025289,0.604478,0.414179,0.213029,-0.884915
0.580880,0.278915,0.797113,-0.177351,-0.771660,0.610809
-0.073873,0.118067,0.714575,0.017877,0.174265,0.984537
-0.550342,-0.380116,0.136397,0.293376,0.327832,-0.898029
0.505197,0.439902,0.739987,-0.035075,0.613305,0.789067
0.034658,0.365678,0.708833,0.152782,0.356110,-0.921870
0.644459,0.941788,0.415972,0.542025,-0.071386,-0.837325
0.349019,0.124964,0.821076,-0.582608,0.795521,0.166475
0.419461,0.408806,0.702368,-0.497761,-0.262077,0.826771
0.547254,0.986257,0.605558,0.676153,-0.566960,0.470503
0.032157,0.625183,0.617246,0.589196,-0.753254,-0.292330
-0.048873,0.245136,0.692935,-0.416521,-0.384357,0.823881
0.434950,0.033665,0.868961,0.997169,0.052727,0.053599
0.388138,0.193123,0.891093,0.940406,-0.091009,-0.327649
0.395097,-0.093867,0.860650,-0.534300,-0.689818,-0.488543
-0.124461,-0.105295,0.659335,0.049327,-0.324824,0.944487
0.339705,0.627403,0.598874,0.406212,0.019099,0.913579
-0.680047,0.104648,0.514640,-0.698304,0.597043,0.394856
0.149018,0.613429,0.597165,0.239996,0.490261,0.837882
-0.314020,-0.081788,0.581048,0.660661,0.191153,-0.725939
0.176323,0.241018,0.761079,0.881969,0.337152,0.329330
0.498432,-0.117743,0.303196,-0.044888,0.057120,0.997358
0.078921,0.242128,0.725305,-0.736897,-0.170975,0.654027
0.397401,0.866776,0.541693,0.831507,-0.491720,0.258471
-0.421127,-0.954188,-0.974246,-0.151947,0.066217,0.986168
0.416373,0.337082,0.727889,-0.093653,0.675950,0.730973
0.665243,0.880243,0.415958,-0.517688,0.208102,0.829875
0.671862,0.642858,0.587118,0.508197,0.271577,-0.817302
0.629658,0.152402,0.752085,0.568662,0.338658,-0.749623
0.449263,0.064854,0.594363,-0.444383,0.187060,-0.876089
0.424313,0.194835,0.795445,0.970849,0.207756,0.119540
-0.031227,0.713427,0.585846,-0.162990,0.911442,-0.377767
0.803772,-0.052914,0.413552,0.325634,0.275809,0.904374
0.257843,0.665811,0.642412,0.444377,-0.665064,0.600182
0.180930,-0.245598,0.715586,-0.033615,0.358404,0.932961
0.323528,-0.130562,0.300271,-0.223677,0.058834,0.972886
-0.061864,0.358739,0.693988,0.397721,0.725459,-0.561718
0.630343,-0.226440,0.702846,-0.552290,0.598203,-0.580628
-0.676077,-0.040327,0.523744,0.249253,0.579451,0.775957
-0.457940,-0.063511,0.583413,0.606537,0.366284,0.705655
-0.004069,0.606441,0.385215,0.057310,0.965857,0.252657
0.196716,0.348233,0.780395,0.554875,0.277416,0.784318
0.489851,0.866175,0.534038,0.814906,-0.246044,0.524777
0.660980,-0.000809,0.795172,0.427016,0.609224,0.668209
0.238922,0.487147,0.724882,0.397248,0.462360,0.792728
-0.000293,0.252076,0.687919,0.046113,-0.298542,0.953282
0.661518,-0.073876,0.807885,-0.539987,0.557381,0.630667
0.468381,0.201732,0.725046,0.743468,0.181993,-0.643532
0.088971,0.599731,0.360472,-0.707034,0.392402,0.588322
0.205736,-0.308114,0.569607,0.960566,-0.089595,0.263222
0.303087,0.265172,0.850945,-0.488305,0.067146,0.870086
0.032696,-0.127184,0.648345,-0.059935,-0.359408,0.931254
0.004413,0.577983,0.678691,0.713386,0.473571,0.516538
0.544265,0.861919,0.479427,-0.495832,0.097759,-0.862899
0.285342,0.685246,0.640990,0.837733,-0.366864,0.404492
0.727107,0.541518,0.256186,-0.424136,-0.762146,0.489123
0.437253,0.244628,0.787462,0.682640,0.029773,0.730148
-0.136126,0.236991,0.676395,0.281302,0.478466,-0.831829
-0.565439,-0.356423,0.389630,0.314556,0.204446,-0.926961
0.359509,-0.100159,0.865230,0.758880,-0.167321,-0.629368
0.305932,0.130977,0.932512,-0.559292,-0.648997,-0.515747
0.111422,-0.263922,0.206113,0.779510,-0.117213,0.615325
-0.414362,-0.562389,-0.927700,0.460961,0.885615,-0.056573
0.016126,-0.002012,0.689545,0.468129,0.015864,0.883518
0.328871,0.761599,0.578779,0.931053,-0.023759,0.364109
0.511666,0.318063,0.787407,0.954371,0.133830,-0.266955
0.411224,0.300524,0.800353,-0.224401,0.141011,0.964241
-0.016569,0.845122,0.562512,0.193247,-0.144495,-0.970452
-0.574508,-0.480438,-0.990732,-0.179563,0.215493,0.959854
0.258825,0.126675,0.593132,-0.440722,-0.496459,-0.747858
0.546126,0.509959,0.715696,-0.498829,0.328742,0.801934
0.222745,0.222231,0.793477,-0.684726,0.259160,0.681165
-0.534362,0.083963,0.566121,-0.215268,0.567623,0.794647
-0.136910,0.642350,0.569962,0.154916,-0.451813,-0.878559
0.078430,0.774045,0.598341,0.440708,-0.700114,0.561798
0.371078,0.387011,0.715272,0.871600,-0.086420,-0.482541
-0.383381,0.377109,0.560981,-0.526122,0.755520,-0.390367
0.101815,0.456190,0.558384,-0.272779,-0.121259,0.954404
0.471224,0.583813,0.597343,0.274198,0.961162,-0.031345
0.813627,0.609912,0.602086,-0.086737,-0.447639,0.889998
0.458774,0.635456,0.274202,-0.049668,0.734826,0.676434
0.282745,0.074939,0.844520,0.882389,0.393883,0.257381
-0.006421,0.584507,0.568240,-0.600091,-0.117760,0.791217
0.171275,0.161287,0.899008,-0.371131,-0.088362,0.924367
0.535197,-0.128247,0.299450,0.103808,0.066540,0.992369
0.291616,0.415099,0.757539,-0.356543,0.041047,-0.933377
0.132599,-0.161102,0.755406,0.532022,0.189294,0.825300
-0.206421,-0.553272,-0.481997,-0.549590,-0.308366,0.776442
0.384608,0.114644,0.868210,-0.201248,-0.437168,-0.876575
-0.049558,0.171514,0.624641,0.072542,0.942836,-0.325265
0.191863,0.791582,0.148536,0.929220,-0.314373,0.194216
0.660537,0.164389,0.761858,0.877193,-0.144569,0.457857
0.089168,0.430231,0.744744,0.906701,0.011647,-0.421614
-0.583088,-0.103722,0.252946,0.167207,0.063158,0.983897
0.417647,0.359618,0.351396,-0.161185,0.019560,0.986730
