0.218430,0.005378,0.641666,0.981964,0.128504,0.138686
-0.107356,-0.459078,0.537845,0.666639,0.614084,-0.422485
0.239500,0.250019,-0.985237,0.392581,-0.099933,-0.914272
-0.343713,0.288030,0.831849,-0.581924,0.307601,-0.752825
-0.251428,-0.390128,0.525902,0.788806,-0.243109,0.564520
0.546786,-0.295985,0.588422,-0.630959,0.068044,0.772827
0.281357,-0.043242,0.837491,0.551652,-0.107697,0.827092
0.092715,-0.221658,0.815837,-0.001232,-0.998607,0.052759
0.083930,0.210165,0.892671,0.665447,-0.144008,0.732423
-0.065499,0.138636,0.836101,0.081386,-0.957034,0.278319
0.144858,0.066078,0.920654,0.919855,0.352871,-0.171315
-0.670142,0.065783,0.547655,-0.504807,0.110217,-0.856167
0.587429,0.192264,0.748265,0.121385,0.328017,0.936841
0.402858,-0.161106,0.362102,0.423103,-0.825303,0.373976
-0.672143,-0.201620,0.644430,0.698733,0.422970,0.576948
0.254000,-0.473075,0.683051,0.365729,-0.133743,0.921062
-0.670857,-0.069319,0.660036,0.871587,-0.490092,-0.012080
-0.353570,-0.084640,0.413255,-0.076146,0.916016,0.393848
0.524357,-0.175691,0.767589,0.826252,-0.344498,0.445679
-0.695713,-0.702099,0.554966,-0.174443,-0.981867,0.074210
0.260786,0.059889,-0.816118,0.708093,-0.701010,0.084787
-0.166070,-0.811565,0.430249,-0.014450,-0.041678,-0.999027
0.644071,-0.016721,0.528246,0.542459,0.003736,-0.840074
-0.096357,0.516685,0.566684,0.943342,-0.293008,0.155728
0.933572,0.319925,0.611676,-0.554762,-0.596600,0.579919
0.275286,-0.141141,-0.988184,0.468122,0.454054,-0.758088
-0.461142,-0.579595,0.567007,0.832569,0.551186,0.054970
0.183500,0.100037,-0.318556,0.203388,0.979098,-0.000934
0.649000,0.459668,0.653496,-0.151192,-0.979945,0.129806
-0.018570,-0.223058,0.750216,-0.558465,-0.569630,-0.603025
-0.072141,0.036758,0.773876,0.551218,-0.196104,-0.810988
-0.053427,0.139817,0.795797,-0.045082,-0.622179,0.781576
0.352929,0.141878,0.852114,-0.661767,0.746711,0.066982
0.312001,0.263499,0.830011,0.329642,-0.325536,-0.886207
-0.012643,0.745192,0.716114,0.234906,-0.371175,0.898359
0.171001,-0.312486,0.841981,0.432761,-0.810207,-0.395326
-0.044285,-0.384310,0.767477,0.017517,0.954992,0.296114
0.215358,0.716242,0.775069,0.518666,0.122611,-0.846140
-0.204570,-0.310497,0.744223,0.060312,-0.981578,-0.181294
-0.686571,0.104236,0.606638,0.950614,-0.309709,-0.020351
-0.006858,0.239705,0.905259,0.332256,-0.127385,-0.934548
0.023786,0.240957,0.375645,0.472637,0.358556,0.805017
-0.206357,-0.186226,0.784037,-0.695906,-0.641577,-0.322637
-0.269285,0.604418,0.785230,0.876221,-0.340866,-0.340656
0.590215,0.128913,0.708732,0.302223,-0.511717,-0.804243
0.429644,0.382689,0.670350,0.797249,-0.512334,0.319230
-0.015928,0.145266,0.878357,-0.158196,0.880259,-0.447346
-0.072499,0.668286,0.776472,0.491714,0.769758,0.407050
0.464144,-0.391749,0.706557,-0.755894,-0.071875,0.650737
-0.094641,-0.178710,0.708901,0.332582,0.835706,-0.437018
-0.005571,0.063351,0.459748,0.114503,0.987692,-0.106556
-0.252284,0.133407,0.657510,-0.568813,-0.120462,-0.813597
0.208215,0.323536,0.775350,-0.691538,0.390724,-0.607544
-0.033142,-0.273444,0.828636,0.366819,-0.769990,-0.522073
0.462645,-0.355800,0.684819,-0.449953,0.318157,0.834457
0.111930,-0.459373,0.672469,-0.633813,0.611475,-0.473687
-0.206070,-0.102172,0.414111,0.386336,-0.648400,-0.655989
0.503000,0.358378,0.845392,0.037252,0.990366,0.133367
-0.071714,-0.652522,0.357527,0.228165,0.430652,0.873201
-0.444142,-0.125083,0.456506,-0.061527,0.314755,0.947177
0.087143,-0.149834,0.201263,0.970455,-0.220442,-0.098096
0.638572,0.063351,0.763590,0.801367,0.528410,-0.280344
-0.544427,-0.311086,0.487829,0.811443,-0.467819,0.350293
0.555930,0.711013,0.683177,0.436987,0.255804,-0.862327
-0.346285,0.143942,0.470540,0.550591,-0.630468,0.547137
0.081787,0.456280,0.693590,-0.627685,-0.103674,0.771533
0.793357,-0.596462,0.497063,0.202421,0.449700,-0.869940
0.166286,0.199336,0.943922,0.911019,0.015168,0.412086
0.144071,-0.246998,0.822868,0.828317,0.385848,-0.406217
-0.346429,-0.021804,0.795320,0.992365,0.073515,0.099030
-0.013641,0.561251,0.840859,-0.224896,0.956142,-0.187654
0.254000,0.010166,-0.976227,0.322120,0.569507,-0.756242
0.363643,-0.098785,-0.970698,-0.038664,0.067004,0.997003
-0.321856,-0.698637,0.427092,-0.393410,0.662234,-0.637710
-0.405857,-0.722651,0.552103,0.943964,-0.253379,0.211498
0.645571,0.291786,0.576213,-0.282388,-0.280594,0.917346
0.145072,-0.052670,0.871635,0.942641,-0.319557,0.096497
-0.493428,-0.702099,0.447876,0.578467,-0.323754,0.748705
0.142716,-0.381951,0.560313,0.773412,-0.633676,-0.016994
0.653571,-0.126924,0.718261,-0.652154,-0.100360,0.751414
0.095071,0.070497,0.957969,0.261522,0.965124,0.011921
-0.588643,-0.355580,0.588324,0.850937,0.052218,0.522666
-0.193499,-0.109982,0.756643,0.750760,-0.482806,-0.450842
-0.040784,0.927734,0.779700,0.317480,-0.825853,0.466019
0.175930,-0.293259,0.812820,0.483540,-0.867012,-0.120326
0.716714,-0.225414,0.604589,-0.628810,-0.200574,0.751244
0.576928,0.299299,0.575273,-0.315162,0.864303,0.391987
-0.019143,0.647440,0.735803,0.993392,-0.083200,0.079062
0.157715,0.378121,0.898481,0.961771,-0.255382,-0.098873
0.357429,0.847293,0.677957,0.050066,0.281532,-0.958245
-0.025643,-0.437863,0.661425,-0.097881,-0.532326,-0.840861
-0.148786,0.688692,0.768024,0.102718,0.988339,-0.112404
0.516715,-0.167146,0.830853,0.740713,0.412399,-0.530350
0.399000,-0.476317,0.710445,-0.152656,0.522620,0.838787
-0.357999,0.130314,0.867046,0.977487,0.210892,0.006610
-0.508571,-0.456205,0.599537,0.924858,0.330308,-0.188508
0.171500,-0.403610,0.443539,-0.480561,-0.845734,-0.231940
0.222502,0.511677,0.770270,0.498784,-0.851356,-0.162503
-0.249784,-0.209208,0.540750,0.026608,0.989863,0.139513
0.349501,0.148287,0.863200,-0.672928,0.556952,-0.486798
0.214929,-0.254511,0.691836,0.901428,0.414947,-0.123474
0.255358,0.439630,0.778648,0.873384,0.042018,-0.485216
0.369930,-0.125820,0.486201,0.246426,-0.207916,0.946597
-0.209715,0.787771,0.753289,-0.685161,0.688542,0.237622
-0.487213,-0.438452,0.571301,0.887405,-0.406784,0.216885
0.276644,-0.442578,0.664793,-0.374981,0.921374,0.102271
0.575786,0.442503,0.867467,0.997327,0.023964,0.069025
0.540857,0.400148,0.647981,-0.359250,0.396724,-0.844719
0.156215,0.261289,0.921552,0.679848,0.679183,0.276616
0.661929,-0.413332,0.596772,0.405992,0.248161,-0.879538
0.477430,0.395654,0.845869,-0.728253,0.630216,0.269211
0.558572,0.024162,0.724703,0.939858,-0.137973,0.312457
0.119858,-0.034991,0.868337,-0.264638,0.933100,0.243498
-0.730785,-0.176132,0.665944,-0.620996,0.192615,-0.759778
-0.321357,0.546002,0.630186,-0.533763,0.487203,0.691181
0.356430,-0.130166,0.903631,-0.744655,-0.153005,0.649675
0.036216,0.507255,0.575034,0.394058,0.005377,0.919070
-0.675927,0.049502,0.662716,0.542303,0.267553,0.796444
0.163644,0.046115,0.930084,0.546411,0.781220,-0.301878
0.666214,-0.522726,0.594765,-0.207834,0.562630,0.800158
0.274286,0.259668,0.829660,-0.450480,0.092149,-0.888018
0.066428,-0.230128,0.746553,0.789146,0.222805,0.572369
0.735143,-0.355211,0.494369,-0.131225,-0.292317,0.947276
0.082644,0.077495,0.339859,0.852747,-0.517406,-0.071517
-0.018642,0.048030,0.797004,0.324368,0.513350,0.794517
0.623858,0.343941,0.594667,-0.619474,0.762645,0.186079
-0.565571,-0.336795,0.508824,-0.744382,-0.298464,0.597339
-0.177000,-0.677789,0.538126,-0.304011,0.757356,0.577918
0.633501,0.598306,0.685591,0.013521,-0.419635,0.907592
-0.228999,0.159705,0.718851,-0.330781,0.855209,-0.399001
-0.007499,-0.337752,0.757106,0.180238,0.775110,0.605573
-0.511714,-0.598526,0.607887,0.903334,0.392146,-0.173808
-0.202929,-0.264899,0.586696,-0.242141,-0.831055,0.500714
0.444286,-0.244714,0.678111,-0.695225,0.116305,0.709320
-0.807643,0.046115,0.542378,-0.748968,0.101039,0.654857
0.208714,0.082210,-0.496530,0.997281,-0.071225,0.018921
0.400430,0.621436,0.773750,0.930164,0.354318,0.096194
0.231716,-0.077570,-0.984324,-0.403266,-0.451249,0.796085
0.408929,-0.585267,0.693281,-0.311650,0.936327,-0.161760
-0.013929,0.879778,0.733249,-0.225890,0.922441,0.313171
-0.498500,-0.630644,0.453952,0.598913,-0.148535,0.786918
0.753071,-0.156980,0.763099,0.793309,0.385752,-0.471015
0.213859,0.094070,-0.512065,0.887248,-0.459928,0.035451
0.798216,0.018268,0.750959,-0.628288,0.777165,-0.035626
-0.654286,-0.100920,0.633835,-0.391725,-0.837314,-0.381389
0.374859,-0.260551,0.766537,0.383588,-0.008126,-0.923468
-0.127999,0.694143,0.393018,0.970680,0.121381,0.207478
0.337143,0.462172,0.723075,0.532529,0.399324,-0.746293
-0.682643,-0.635210,0.563919,0.192963,0.647526,0.737208
0.137286,0.347329,0.903000,0.956109,-0.292324,0.020063
0.280073,-0.213922,0.545690,0.537122,-0.231076,-0.811236
0.083573,0.064014,0.609529,-0.703051,0.511282,0.494277
0.277287,-0.003682,-0.943711,-0.319527,0.942209,-0.100720
0.125429,0.123979,0.040704,0.781657,0.623178,0.025695
0.696287,0.201400,0.438333,0.348139,0.507843,-0.787969
0.147930,0.049577,-0.516935,-0.407530,0.913156,0.008045
0.031429,0.078379,0.777722,0.383466,0.811088,0.441690
0.139428,0.352192,0.810153,0.568013,0.529778,-0.629839
-0.112429,0.422763,0.791671,0.720628,0.095735,-0.686680
-0.020857,-0.399336,-0.027667,0.890984,-0.452352,-0.039046
0.534073,-0.029025,0.502073,0.909519,-0.136146,-0.392733
0.227929,0.095028,0.836410,0.934997,-0.173464,0.309339
0.881858,0.161841,0.448676,0.379441,0.116798,-0.917814
-0.023429,-0.699372,0.557745,-0.680890,0.373954,0.629720
-0.067213,-0.139962,0.805508,0.980654,0.126384,-0.149481
0.662715,0.113150,0.436761,-0.408653,0.428189,0.806013
-0.843142,0.246703,0.562867,-0.558580,-0.027724,-0.828987
-0.274427,-0.142541,0.618538,0.477183,-0.301836,0.825344
0.515429,0.378415,0.818265,0.867101,-0.168282,-0.468847
-0.914501,0.207292,0.536315,0.206128,-0.453383,0.867154
-0.103999,-0.205082,0.698951,0.209324,0.926497,0.312708
-0.353428,-0.135397,0.767224,-0.498597,0.409459,-0.764032
0.552501,0.208913,0.696313,-0.244530,0.497274,0.832420
-0.174286,-0.506371,0.556776,0.294612,-0.729781,-0.616947
0.330357,0.783351,0.644290,-0.035704,-0.775578,0.630241
0.353143,-0.438158,0.533817,0.767219,-0.265329,0.583931
-0.377500,0.286557,0.749191,-0.222653,0.974203,-0.036803
0.193643,0.134439,0.812904,-0.811002,0.568768,0.137034
-0.370285,0.330239,0.821549,0.978167,-0.207676,0.007702
0.156643,-0.067256,0.710781,-0.503190,-0.840261,-0.201895
-0.114001,0.671602,0.723805,0.180516,-0.964929,-0.190596
-0.779356,0.092596,0.461292,0.805241,0.592913,-0.006442
0.304786,-0.655027,0.402112,0.385642,0.242531,0.890201
0.292572,-0.689870,0.481837,0.504204,0.343496,-0.792331
0.323787,-0.306960,0.670252,-0.177100,-0.415038,0.892401
0.057500,-0.046189,0.844732,0.475255,-0.678755,-0.559843
0.661357,-0.184456,0.737768,-0.587541,-0.752371,0.297881
0.135001,-0.544235,0.225317,0.642187,0.114001,-0.758024
-0.064784,0.820921,0.737768,0.187486,0.722279,0.665704
0.513716,-0.144531,0.827316,-0.367623,-0.752590,0.546316
0.130358,0.077347,0.959822,0.478308,0.877958,0.020286
0.083357,0.440368,0.806210,0.330657,-0.917471,0.221163
0.525145,-0.544087,0.709083,-0.334585,-0.755396,0.563408
-0.647714,-0.050017,0.632516,0.440240,0.894045,0.082896
0.657429,-0.031160,0.447861,0.067641,0.535994,0.841508
0.461716,-0.130534,0.838712,0.291379,0.866022,-0.406330
-0.704714,-0.022321,0.669200,-0.470454,0.102617,-0.876438
-0.361570,-0.567955,0.536750,-0.138705,0.711657,0.688698
0.381429,-0.173039,0.806378,0.995621,0.090517,-0.023347
0.521572,-0.170534,0.829842,0.740713,0.412399,-0.530350
0.038001,0.209061,0.705224,0.574457,0.567210,-0.590146
0.735286,-0.164714,0.495885,-0.018547,0.286262,0.957972
0.107858,0.080220,0.474483,0.601113,0.770554,-0.211917
-0.564928,-0.781951,0.548861,0.090587,0.939069,-0.331577
0.029572,-0.008988,0.784107,0.247175,-0.845995,0.472437
0.763430,0.280073,0.443245,0.333914,0.329544,-0.883121
0.203428,0.214659,0.919756,0.844979,-0.313791,0.433065
0.468214,0.355139,0.842852,0.738453,-0.585211,-0.334984
0.207073,-0.138196,0.727271,0.709446,0.427037,-0.560648
-0.222214,0.392632,0.407192,0.613108,-0.497950,0.613306
0.014999,-0.236612,-0.093597,0.851715,-0.510045,-0.120151
-0.100499,-0.286409,0.818012,0.894590,-0.437239,-0.092360
0.152071,0.062099,0.627632,0.940590,0.010943,-0.339369
-0.449142,0.222615,0.745248,0.896949,-0.138174,0.419990
0.347358,-0.136132,0.671922,-0.603220,0.478525,-0.638074
0.293071,-0.042210,0.801902,-0.484623,0.445414,0.752826
0.581499,-0.134070,0.521608,-0.095357,-0.628634,0.771833
-0.617285,0.054217,0.613655,0.430139,0.557966,0.709686
0.172071,0.138564,-0.069151,0.989045,-0.137092,-0.054735
0.027357,-0.174805,0.060702,0.900901,-0.427062,-0.077423
0.186286,0.130091,-0.507771,-0.580780,-0.787498,0.206257
-0.451643,-0.010903,0.461390,0.263097,-0.459087,0.848539
-0.206998,0.560588,0.828986,-0.045374,-0.832633,0.551963
-0.145715,0.418710,0.765919,0.507284,0.303699,-0.806492
-0.402642,0.232632,0.835344,0.813274,-0.331942,0.477911
0.608715,-0.067919,0.789033,-0.187361,0.927986,0.322084
0.196858,0.129282,-0.545339,0.530698,0.800868,0.277436
-0.307142,-0.184605,0.105750,0.298556,-0.813070,0.499781
-0.365855,-0.196538,0.523755,0.339337,0.499009,0.797396
0.420572,0.260774,0.835175,-0.166566,0.419159,0.892503
-0.371571,-0.899963,0.440059,0.475416,0.428595,0.768301
-0.134356,-0.478378,0.658857,-0.618987,-0.785154,0.019715
-0.120784,0.747551,0.581798,0.873027,-0.301313,0.383451
0.159215,-0.029391,0.861165,0.850526,0.525883,0.007183
-0.498071,0.212155,0.754033,0.150458,-0.227523,0.962079
0.545715,0.306960,0.718261,0.864043,0.485699,-0.132389
0.274571,-0.219373,0.764755,-0.652149,0.612536,-0.446655
0.288143,-0.110792,0.870989,0.738046,0.642175,-0.207123
0.042786,-0.284714,0.725797,0.071121,0.876484,0.476148
0.525500,-0.062393,0.326246,0.310909,-0.382759,-0.869961
0.050215,-0.037053,0.844690,-0.456330,0.855311,0.245370
0.143073,0.100774,-0.700888,-0.553543,0.831904,-0.039064
0.290144,0.621362,0.798126,0.495804,-0.300029,-0.814961
0.000571,-0.639558,0.565590,0.939996,0.009473,-0.341054
-0.200500,-0.505856,0.674210,0.962495,0.271232,-0.006120
-0.435000,-0.290091,0.625976,0.321263,0.870373,-0.373150
0.589358,0.262246,0.733825,0.044136,-0.988258,-0.146284
0.217072,-0.581510,0.460927,-0.503548,0.532266,0.680538
-0.057070,0.677642,0.739312,0.169228,0.973349,-0.154768
0.070287,0.094291,0.858036,-0.394303,0.107250,-0.912701
-0.577357,-0.144162,0.634663,-0.093451,0.707433,0.700576
-0.533142,-0.415765,0.546855,0.945444,-0.037818,0.323582
0.539143,0.049577,0.437421,0.463710,-0.315633,-0.827858
0.066644,-0.436980,0.685773,0.938623,0.099660,0.330235
0.450215,-0.227183,0.288103,-0.389402,-0.915511,0.101026
-0.037355,0.831822,0.755352,-0.377517,0.843210,-0.382724
0.553787,-0.384087,0.591888,-0.420360,0.055023,0.905688
0.048859,-0.803534,0.575273,-0.220571,-0.685035,0.694317
0.330429,0.547551,0.819556,0.074528,0.874632,0.479024
-0.421572,0.075875,0.853180,-0.617624,0.782522,0.078740
0.759358,-0.642431,0.493892,0.994609,-0.024491,-0.100760
0.298501,0.100700,0.834628,0.628153,0.241734,-0.739587
-0.136429,0.679927,0.774157,-0.098067,-0.895000,0.435152
-0.426928,-0.598083,0.457896,0.340401,-0.212049,0.916058
-0.158571,-0.380920,0.770312,-0.312328,-0.732096,-0.605381
0.092859,0.023130,0.288482,0.784523,-0.619246,-0.032525
0.146001,0.062173,0.246423,0.769289,-0.578104,0.272011
0.704071,-0.675873,0.505301,0.797334,0.533256,-0.282658
0.348572,0.211786,0.801915,0.910854,-0.408115,-0.061534
0.060859,-0.394476,0.453152,0.326819,0.935999,-0.130750
-0.803070,-0.007441,0.552959,-0.237932,0.170822,0.956142
-0.068571,0.358967,0.786591,-0.646934,0.687568,0.329737
-0.384286,-0.200883,0.534112,0.799285,0.043107,0.599404
0.161357,0.041106,0.514311,-0.495759,-0.868366,-0.012779
-0.167214,-0.415837,0.665677,0.864835,0.434996,0.250678
-0.211142,-0.231380,0.607480,0.127806,-0.961120,0.244773
0.096000,-0.676390,0.572747,-0.335271,0.248895,0.908650
-0.041857,0.790644,0.738947,-0.496024,-0.558484,-0.664872
0.095215,-0.161326,0.806982,-0.121118,0.769099,0.627548
0.373001,-0.085746,0.369484,0.425434,-0.850523,0.309218
0.063001,-0.469761,0.598709,-0.104321,-0.185721,0.977049
0.178430,0.016281,-0.654619,-0.432969,0.900216,0.046363
0.523715,0.461877,0.820215,0.826228,0.443230,-0.347698
-0.372500,0.180257,0.829786,0.578380,0.509678,0.636950
0.138785,0.104308,0.943473,0.860398,-0.495336,-0.119825
0.053787,0.119854,-0.997221,-0.370967,0.014822,0.928528
0.275358,-0.345119,0.538070,-0.691721,-0.529813,0.490735
0.282216,-0.337606,0.559204,-0.266442,-0.472199,0.840260
-0.379000,-0.004568,0.739298,0.856546,0.376651,-0.352793
-0.141357,0.209356,0.795867,-0.465666,-0.712008,0.525547
-0.190499,-0.199262,0.788163,0.812987,0.578290,-0.068067
0.427144,-0.212229,0.804470,0.004357,-0.996931,0.078163
-0.288214,-0.309908,0.698305,-0.463435,0.741724,0.484844
-0.030143,-0.038968,0.669901,0.796650,-0.160175,-0.582831
0.158358,0.015100,0.900628,-0.090158,0.465508,0.880440
0.218214,0.097238,-0.606624,-0.089764,0.956894,0.276217
0.289786,0.281251,0.791966,0.654571,-0.532368,0.536769
-0.456000,-0.269245,0.567793,0.421887,-0.419240,0.803897
-0.463285,-0.303941,0.539375,-0.481573,0.780023,0.399565
-0.012427,-0.228730,0.819359,0.846987,0.180077,0.500185
-0.169856,-0.746665,0.427260,-0.135245,0.098208,0.985933
0.587143,-0.201326,0.494187,0.118175,-0.310049,-0.943347
0.563786,0.236317,0.726681,0.233728,0.880398,0.412638
0.538073,0.692448,0.673269,0.897007,-0.162155,-0.411198
0.167287,0.064971,0.326780,0.987017,-0.029491,-0.157885
0.433714,-0.159705,0.798295,0.747881,0.075402,0.659537
-0.335000,0.390497,0.720871,-0.194398,-0.027389,0.980540
-0.141643,0.623572,0.831358,-0.042233,-0.843994,0.534688
-0.354714,-0.104751,0.781062,0.745630,0.565947,-0.351766
0.151572,0.144236,0.626790,0.954344,0.056333,-0.293348
-0.672928,0.024677,0.545662,-0.424423,0.292026,-0.857080
-0.829928,0.376574,0.547725,0.310015,0.862917,0.399080
-0.055570,0.408544,0.780823,0.760626,-0.525799,-0.380767
-0.409714,0.336869,0.718373,0.652366,0.394871,0.646912
-0.342429,0.023279,0.764867,0.906461,0.404694,-0.120628
0.152357,-0.711748,0.603705,0.315660,0.397391,-0.861649
0.744572,-0.221143,0.494074,0.180975,0.547561,0.816961
0.731716,-0.019005,0.444662,0.276983,0.359475,0.891100
-0.204570,-0.590276,0.539613,0.840343,0.541964,-0.009938
-0.185928,0.114179,0.533817,0.394248,0.717452,-0.574309
-0.366213,-0.683094,0.550096,-0.603319,0.010338,0.797433
0.328716,0.594990,0.724885,-0.394819,-0.915978,0.071431
0.168858,-0.425193,0.388163,0.420142,-0.708913,-0.566502
-0.533999,-0.405008,0.617261,0.990825,0.020135,0.133644
-0.342784,-0.342395,0.659152,0.618862,0.778994,-0.100881
0.338429,-0.026003,0.884938,0.910987,0.031954,-0.411195
-0.040643,0.635507,0.691022,0.214035,0.976030,0.039418
0.473430,-0.168988,0.333207,0.278702,-0.819622,-0.500545
0.782643,-0.034769,0.440592,-0.387058,0.157197,-0.908557
0.102500,0.219816,0.857348,-0.045676,-0.442784,0.895464
-0.015357,-0.456354,0.351507,-0.390193,0.361186,0.846932
-0.360214,-0.691050,0.557619,0.192434,0.704329,0.683293
0.062287,0.158010,0.544988,0.828519,0.331825,-0.451053
0.388214,-0.211049,-0.956875,0.974683,-0.031437,-0.221369
0.006500,0.484347,0.354749,-0.849984,0.496801,-0.175260
0.548929,0.101952,0.832354,0.609769,0.293007,-0.736429
0.022786,0.611345,0.562095,-0.495210,-0.401592,-0.770384
0.172786,0.067772,-0.191524,0.872306,-0.484549,0.065535
-0.140429,-0.078379,0.762116,0.086918,0.620714,0.779205
0.322643,0.175617,0.802982,0.769099,0.553211,-0.320070
-0.679927,0.260994,0.562011,-0.266926,0.430163,0.862386
0.865786,-0.133922,0.629821,0.047780,-0.608927,0.791786
0.134358,-0.313370,0.817338,-0.388624,0.877531,0.280910
0.253287,0.572669,0.809494,0.654825,-0.707551,0.265662
0.056643,-0.233150,0.805340,-0.493142,-0.117097,-0.862032
-0.057000,-0.560884,0.559036,-0.277239,-0.323799,0.904595
0.221715,-0.013702,-0.846893,-0.553878,0.830809,0.054552
-0.151642,0.485082,0.863285,-0.139202,-0.973449,0.181713
0.295500,0.422466,0.437519,0.054956,-0.997939,0.033136
-0.292857,-0.300479,0.709701,0.057232,-0.906536,0.418231
0.235286,0.042873,0.875311,0.920836,0.328583,0.209987
-0.352428,0.206998,0.828159,0.641138,0.303658,0.704794
-0.301786,0.507623,0.716774,-0.563981,-0.206081,-0.799660
0.174144,0.036612,0.860829,0.972877,-0.229607,0.028106
-0.038214,-0.575616,0.145943,0.767454,0.595791,-0.236744
-0.225285,0.095763,0.839063,0.811928,-0.529759,-0.245212
0.186000,0.081178,-0.383854,0.061749,-0.997978,0.015044
-0.088856,0.037053,0.806547,0.405896,0.528939,0.745300
-0.065214,-0.269319,0.741220,-0.811697,0.556799,-0.176417
0.435787,0.530387,0.723482,0.719492,0.694501,-0.000529
-0.025713,-0.545930,0.672877,0.145308,0.532389,0.833935
0.196573,0.164493,0.821745,0.473900,-0.645986,-0.598432
-0.202142,0.217532,0.830530,0.333954,-0.112829,0.935812
-0.488499,0.150645,0.744757,0.634257,-0.306809,0.709638
0.088357,-0.040443,0.893836,-0.577565,0.816082,-0.020717
-0.037355,0.465856,0.360544,-0.589439,0.522458,-0.616116
-0.030714,0.495322,0.869586,0.709480,0.366223,0.602095
0.343787,-0.358232,0.764362,-0.210873,0.675752,0.706323
-0.015143,-0.162430,0.824762,0.936999,0.204175,-0.283453
-0.030143,-0.425856,0.430839,-0.265236,-0.406228,0.874431
0.673643,0.250682,0.600266,0.129049,0.414278,0.900955
-0.015143,-0.313296,0.076013,0.894862,-0.382351,0.230282
-0.132357,0.587771,0.818068,-0.246605,0.948036,-0.201030
0.662214,-0.196832,0.715805,-0.522207,0.315649,0.792253
0.257928,-0.142615,0.893723,0.390394,0.617528,-0.682826
0.196071,0.131343,0.939726,0.420369,0.580137,0.697661
-0.691999,0.060480,0.616910,-0.750481,-0.298637,-0.589571
0.341714,-0.013039,-0.975427,0.199319,-0.066581,0.977670
-0.142785,-0.133113,0.766916,0.140349,0.521206,0.841812
0.330643,0.310865,0.792710,0.887639,-0.193777,-0.417789
0.114430,-0.318821,0.392906,-0.544750,0.000053,0.838599
-0.267999,-0.194033,0.435287,-0.642280,-0.685078,-0.343721
-0.383000,-0.780330,0.425548,-0.642396,0.287726,-0.710310
-0.089286,-0.436906,0.671838,0.292241,0.310101,0.904673
-0.627786,-0.084051,0.513455,0.127892,-0.060456,0.989944
0.637787,-0.195580,0.724590,-0.701355,0.448076,0.554372
-0.002927,0.236243,0.653370,0.889417,0.329269,0.317049
0.833714,0.224162,0.445672,-0.286481,-0.202404,0.936462
0.064216,-0.273370,0.679963,0.850577,0.104235,0.515415
-0.195999,-0.778931,0.419696,-0.611164,-0.434173,0.661794
-0.042356,-0.381362,0.429744,0.236965,0.466476,-0.852202
0.881786,0.062910,0.448016,0.311051,-0.092240,-0.945906
0.232287,0.144825,0.851538,0.121126,-0.943011,0.309934
-0.214785,-0.327661,0.593867,-0.251952,-0.781872,0.570259
-0.685000,-0.103130,0.519840,0.304914,0.343960,0.888098
0.311286,0.739226,0.619745,0.485090,-0.831073,0.272039
0.172357,-0.755358,0.492881,-0.033405,0.670626,0.741043
0.880286,0.366188,0.449251,0.316034,0.628714,-0.710522
0.427285,0.321840,0.834221,0.866650,0.041639,-0.497176
0.499071,0.015617,0.740729,-0.460792,0.129324,-0.878035
-0.909284,0.246703,0.554391,-0.067462,-0.948848,0.308440
0.019071,0.848912,0.581335,0.144125,-0.676532,0.722172
0.308572,-0.246483,0.714570,-0.058639,-0.155548,0.986086
0.315643,-0.158453,0.796751,-0.207301,0.836691,0.506927
0.372073,-0.126189,0.489303,0.246426,-0.207916,0.946597
-0.704928,-0.105340,0.643546,0.769546,-0.487821,-0.412104
-0.178000,0.637200,0.537438,-0.783124,0.299110,0.545207
0.288359,0.609798,0.706866,-0.344316,0.778287,-0.525087
0.305001,-0.415028,0.620391,0.970448,0.152783,-0.186785
0.529785,-0.125671,0.833112,-0.394643,-0.853988,0.339061
0.032144,-0.627771,0.563232,0.850778,0.128787,-0.509501
0.167001,0.052007,0.850584,0.660983,-0.206320,-0.721480
-0.538857,-0.682725,0.535614,0.052002,0.831831,0.552587
0.177571,0.579078,0.786633,0.689365,0.689735,-0.221451
0.539429,-0.095691,0.731509,0.832144,-0.553781,0.029358
0.818357,0.034033,0.446851,-0.257675,0.068424,0.963806
0.344716,-0.625341,0.682307,-0.049768,-0.998731,-0.007691
0.098785,0.510570,0.724829,0.954758,0.295743,-0.031202
-0.835214,0.150866,0.560580,0.902656,-0.159583,0.399681
-0.001641,-0.211123,0.809325,-0.158021,-0.552520,-0.818383
0.467144,-0.120589,0.832228,-0.227023,-0.814232,0.534309
0.655287,0.607291,0.686208,-0.018702,0.378125,-0.925566
-0.696143,0.564936,0.591201,-0.083082,-0.318900,0.944140
0.738000,-0.672411,0.506620,0.454885,0.729636,0.510599
0.285786,-0.331712,0.719777,-0.010505,-0.084540,0.996365
0.072715,-0.182836,0.721349,0.827655,-0.149758,-0.540887
-0.013785,-0.082578,0.834249,0.370342,0.087347,-0.924780
0.553643,-0.511454,0.711497,0.359585,0.666309,-0.653247
0.116501,-0.131861,0.734737,-0.222810,0.814605,-0.535514
-0.010999,0.504381,0.830067,-0.413369,0.742321,-0.527339
0.194787,-0.102026,0.825731,-0.326909,0.884680,-0.332373
-0.791999,-0.048176,0.510283,-0.498217,0.249760,0.830301
0.214715,0.633223,0.832874,0.898149,-0.419344,-0.132207
0.295286,-0.141952,0.888152,-0.373687,-0.875237,0.307112
-0.619356,-0.707402,0.553254,0.171717,0.718713,0.673769
-0.075143,-0.325231,0.629709,-0.150973,-0.273834,-0.949854
0.108072,0.147993,0.960271,0.722847,0.269851,-0.636139
-0.332785,0.232927,0.811599,0.975737,0.210008,-0.061925
-0.628143,-0.641325,0.537593,0.552626,-0.646082,-0.526481
-0.196429,0.515139,0.793776,-0.359452,0.082842,-0.929479
-0.208071,-0.019742,0.366326,0.431916,-0.116172,0.894401
-0.502143,-0.527145,0.549367,0.873349,-0.464504,-0.146622
0.265071,-0.565081,0.716605,0.444449,0.616824,-0.649610
-0.478071,-0.558452,0.528835,0.190826,0.174910,0.965915
-0.071999,0.133996,0.677788,0.086993,0.224343,0.970619
0.773429,0.240737,0.445967,-0.333227,-0.275564,0.901678
-0.100856,0.438895,0.391952,-0.713315,0.337603,-0.614171
0.442786,-0.322726,0.677802,-0.222073,-0.077869,0.971916
0.538786,0.311749,0.567554,0.019634,0.970944,0.238499
0.047287,-0.417900,0.585784,-0.625656,0.748234,0.220682
-0.098927,-0.160883,0.756026,0.064835,0.964509,0.255968
-0.097427,0.174144,0.894874,0.674657,-0.520439,0.523433
-0.222072,0.118379,0.804512,0.807491,0.585271,0.073599
-0.040213,0.560957,0.796176,0.727582,0.150695,0.669264
0.083357,-0.041767,0.050345,0.874285,-0.483244,0.045844
0.116501,0.023279,0.908823,0.854824,0.146467,0.497818
0.242214,-0.125671,-0.980760,0.485467,0.552417,-0.677612
0.546858,-0.241620,0.686882,-0.700547,-0.533032,0.474458
-0.196357,0.554107,0.800232,-0.353509,0.646108,-0.676444
0.547714,0.389024,0.819738,0.893773,-0.033946,-0.447234
0.032144,-0.044934,0.679023,0.417957,-0.164950,-0.893367
-0.048141,-0.239410,0.716100,0.370694,0.691177,-0.620371
-0.011928,-0.342100,0.765512,0.123483,0.779397,0.614241
0.449929,0.423793,0.587594,0.889530,-0.456037,0.027692
0.446357,0.480662,0.717321,0.273474,-0.814506,0.511656
-0.780927,-0.103130,0.553212,0.211097,0.645451,0.734051
-0.170286,0.113665,0.786844,0.835539,-0.005783,0.549401
0.076859,-0.147550,0.200351,0.970900,-0.228631,-0.071276
0.669643,0.040958,0.720647,0.797020,-0.490264,-0.352704
0.549001,-0.601914,0.480813,-0.158674,0.271266,0.949335
0.421215,-0.607514,0.734793,0.938252,0.203427,-0.279821
-0.854571,0.038673,0.546546,0.606522,0.245476,-0.756223
-0.203713,-0.733037,0.424664,-0.172647,0.136656,0.975458
0.604928,0.328913,0.688552,0.852056,0.409697,0.325805
0.294643,0.487366,0.651209,0.849763,0.357866,-0.387085
0.864644,0.107993,0.742680,0.926373,-0.113611,-0.359061
-0.018570,0.271675,0.837280,0.842539,0.096211,-0.529973
-0.184714,0.274917,0.390155,0.331344,-0.347310,0.877261
0.118572,-1.000000,0.417100,-0.024616,0.992419,0.120406
-0.067357,-0.089208,0.824117,0.973304,0.109567,0.201679
0.607501,0.203021,0.772431,0.246792,0.687412,0.683051
-0.396857,-0.130019,0.446009,-0.216550,0.170413,0.961283
0.454786,-0.310276,0.789706,0.924092,-0.382119,-0.006222
-0.396356,-0.109025,0.774887,0.978299,0.194953,0.070172
-0.062785,0.124714,0.847426,-0.618871,0.637121,0.459430
0.567573,0.465193,0.869838,0.154697,0.976621,0.149268
0.452358,-0.321031,0.766649,0.877162,-0.478969,-0.034285
0.459573,0.480368,0.735340,0.055536,-0.971255,0.231474
0.004929,0.259522,0.941746,0.497513,0.524836,0.690672
0.004571,-0.555210,0.579062,0.205037,0.960874,0.186228
0.185285,-0.245671,0.690713,0.803877,0.396464,-0.443393
-0.304356,-0.010681,0.772768,0.808303,0.468913,0.356045
0.503143,0.169871,0.543178,0.392694,0.701154,-0.595125
0.518644,0.522872,0.669270,-0.136527,-0.312809,0.939953
0.148643,0.081915,0.952833,0.637203,0.709008,-0.302124
-0.103786,-0.798526,0.322850,0.958720,-0.121782,0.256954
0.051714,-0.152044,0.746300,0.891859,-0.035301,0.450935
0.065358,-0.695690,0.574487,-0.442640,0.279901,0.851895
0.135999,-0.167292,0.780907,0.226874,0.969473,-0.093010
0.166144,0.127881,0.264653,0.979722,-0.164038,0.115052
0.213357,0.847588,0.544651,-0.393791,0.042747,0.918206
0.683644,-0.637863,0.514704,-0.338160,0.326893,0.882490
0.691215,-0.174291,0.487254,0.011494,0.597327,0.801915
-0.396070,-0.770312,0.432733,0.572369,-0.316995,0.756246
0.291643,-0.096501,0.863677,0.362262,0.913544,-0.184942
0.466071,-0.750275,0.522619,0.276369,0.956498,0.093441
0.030500,-0.590939,0.595004,-0.570437,-0.810740,-0.131538
-0.493356,-0.060480,0.590247,0.982320,0.187146,-0.004810
0.011715,0.158084,0.846458,0.696584,-0.695286,-0.177054
0.068144,-0.577311,0.598007,0.173294,0.684777,0.707848
0.225143,0.120737,0.855917,-0.601209,0.645051,0.471653
0.264572,0.625044,0.750974,0.623466,0.780584,0.044473
-0.278499,-0.789392,0.564930,-0.324492,0.428983,-0.843018
0.477073,-0.201400,0.342890,0.018632,0.883628,0.467818
0.237573,0.092081,0.936021,0.968325,-0.171175,-0.181786
0.045643,0.239705,0.837449,-0.523089,-0.680671,0.512899
0.550359,0.526482,0.672989,0.229319,0.646936,-0.727246
0.147001,-0.132229,0.795558,-0.264406,-0.232594,0.935943
-0.570214,0.098859,0.521201,-0.250318,0.651674,-0.716004
0.007643,0.450313,0.874483,0.649687,0.260418,0.714205
-0.186000,0.001472,0.433070,0.256776,0.030835,0.965979
0.856214,-0.104677,0.631449,0.870446,-0.351145,-0.344995
-0.057286,-0.393812,0.628264,-0.350630,0.933578,-0.074097
0.344857,-0.025929,0.911995,0.317767,0.674953,-0.665930
0.025073,0.447071,0.442487,0.159548,0.846383,0.508115
0.736001,0.189760,0.745879,0.983766,-0.145118,0.105570
0.288428,-0.075875,0.537298,0.435423,0.707411,0.556755
-0.158571,-0.405305,0.674518,0.717108,0.477918,0.507297
0.560144,0.475579,0.661804,0.333755,0.607557,-0.720751
0.305714,-0.673443,0.491310,0.577216,0.331421,-0.746312
0.445572,0.365745,0.639154,-0.066693,-0.605378,0.793139
-0.184570,-0.213407,0.778564,0.610538,0.730372,0.306266
-0.134785,0.321840,0.782142,0.801532,-0.438815,0.406186
-0.131570,-0.187109,0.696186,-0.616495,0.625341,0.478417
0.239073,-0.008545,-0.915055,0.134724,0.990600,-0.023694
0.074428,0.141878,-0.485584,-0.249064,-0.967684,-0.039434
0.102857,0.471160,0.828271,-0.057770,-0.931895,0.358098
-0.125857,-0.270865,0.696958,0.126735,-0.900773,-0.415387
0.582500,0.004199,0.741178,0.357019,0.487466,0.796815
0.773215,-0.041252,0.737066,-0.606711,0.223156,0.762957
-0.279000,0.274548,0.802477,0.812732,0.459143,0.358686
0.856500,0.093259,0.736926,-0.355067,0.135349,0.924991
-0.110929,0.809944,0.739073,0.197684,0.396438,0.896526
-0.052856,0.192412,0.897148,-0.422617,0.779205,-0.462855
-0.206000,0.153519,0.726429,0.976536,0.076372,-0.201359
0.216786,0.068433,0.881458,0.865268,-0.469827,-0.174852
0.288428,0.666076,0.791643,0.948277,0.204736,-0.242600
0.345215,-0.729135,0.490706,0.343690,0.475347,-0.809891
0.703073,0.036907,0.536470,0.763609,0.136751,-0.631031
0.456072,0.479999,0.761667,0.961905,0.195238,0.191364
0.162073,0.185709,0.848549,0.192308,0.379224,0.905100
0.211428,0.017459,-0.727032,0.868039,-0.496495,0.000620
-0.182571,-0.024531,0.624292,0.869351,0.349627,-0.349271
0.102286,0.792780,0.666982,-0.519225,0.820021,0.240772
0.117571,-0.449430,0.411360,-0.059819,0.998196,0.005177
0.236001,0.444788,0.810504,0.734879,-0.211851,0.644261
-0.158427,-0.160442,0.785889,0.288165,0.934073,0.210874
0.253215,0.857459,0.543767,-0.424928,0.071978,0.902361
-0.335070,0.098636,0.866147,-0.498446,-0.741308,-0.449460
0.740001,0.207809,0.758075,-0.616582,0.360963,0.699666
-0.023786,0.294365,0.578346,0.857429,0.251708,0.448841
0.205501,-0.383424,0.666646,-0.141480,0.387445,-0.910972
-0.040357,0.370682,0.349065,0.434691,-0.588479,0.681715
-0.048643,-0.646482,0.549703,0.583164,0.176858,-0.792869
-0.642142,-0.204714,0.522394,0.413140,0.176706,0.893359
0.018287,0.318821,0.721377,0.901494,0.395255,-0.176303
0.156643,-0.070571,0.776669,-0.397936,0.239866,-0.885501
0.025929,0.123756,0.951500,0.932823,0.197390,-0.301461
0.197571,-0.703131,0.478483,-0.055304,0.268340,-0.961736
0.088357,0.321105,0.854710,0.224221,-0.867431,0.444172
-0.455715,-0.105709,0.592618,0.990491,-0.103952,0.090126
0.598857,0.244199,0.660780,-0.244248,0.927893,0.281706
-0.012141,-0.113150,0.806462,0.734986,-0.432935,0.521884
-0.993999,0.094954,0.501652,-0.472765,-0.858574,0.198353
0.258429,0.663572,0.833098,-0.508648,-0.768600,0.387984
0.321001,0.606777,0.760081,0.802546,-0.252940,-0.540317
0.143359,-0.015543,0.919377,-0.736326,-0.032027,0.675868
0.447216,-0.258195,0.696004,-0.277803,0.926380,-0.254254
0.103357,0.520221,0.743592,0.458098,0.379574,-0.803784
0.361501,0.578638,0.730849,-0.373755,-0.867205,0.329032
0.105430,0.102836,-0.119994,0.655039,-0.740725,-0.149166
-0.092285,0.177607,0.906662,-0.429572,0.673555,-0.601491
0.046287,0.401105,0.370340,0.863585,-0.417202,-0.283133
0.213787,-0.249502,0.837000,-0.132244,0.681004,0.720240
0.164643,0.001841,-0.724211,0.995709,-0.084653,0.037382
-0.393999,0.228507,0.845308,0.934425,-0.014074,0.355881
-0.195572,0.043462,0.743017,-0.050378,0.913180,0.404431
0.224714,-0.566628,0.463748,-0.371700,0.528461,0.763261
0.645643,-0.032192,0.762762,-0.085715,-0.740394,0.666686
0.112143,-0.632265,0.596744,0.230184,0.492086,0.839563
-0.057070,-0.332523,0.853629,0.003450,0.657749,0.753229
0.575357,-0.011492,0.336098,-0.435390,0.189263,0.880122
0.628501,0.359925,0.643013,-0.371436,0.922295,0.106801
-0.528928,-0.024382,0.639098,0.206765,0.606370,0.767830
0.025715,0.101952,0.906494,0.915057,0.369404,-0.161898
0.070858,0.294144,0.555471,0.357894,0.130037,-0.924663
-0.179785,-0.333407,0.751381,-0.531384,-0.819168,-0.215858
0.192429,0.034991,0.900011,0.916925,-0.342090,-0.205484
-0.656642,-0.523315,0.544483,-0.749456,0.644190,-0.152757
0.011215,0.244788,0.711693,-0.364382,0.735968,-0.570594
-0.669285,-0.125451,0.647237,-0.322922,0.397832,-0.858749
0.017214,0.883462,0.740841,-0.473302,-0.868757,0.145761
-0.365356,-0.269024,0.644585,-0.130535,0.952846,-0.273944
-0.489286,0.165820,0.781679,0.706193,0.707436,-0.028747
-0.456998,-0.587477,0.561422,0.678316,0.387816,0.624088
0.216357,0.103425,0.941859,-0.442967,-0.855284,-0.268830
-0.017286,-0.118379,0.876616,0.233714,0.187541,0.954047
0.793002,-0.130754,0.623605,0.911709,-0.150068,-0.382447
0.040357,0.014806,0.726078,-0.243992,-0.441512,0.863444
0.045072,-0.516022,0.669845,-0.013069,-0.183982,0.982843
0.076859,0.821216,0.728576,0.842534,0.059964,0.535294
0.154144,0.284642,0.865754,-0.609483,0.579261,-0.541283
-0.301357,0.263941,0.804077,0.567657,0.782395,0.256172
-0.130571,-0.208987,0.288664,-0.669942,0.740360,-0.055174
0.286857,0.638158,0.729853,0.875659,0.170179,-0.451952
0.202358,0.202947,0.894537,-0.429755,0.506645,0.747410
0.082358,0.802505,0.670589,-0.519225,0.820021,0.240772
0.091573,-0.108139,0.826755,0.917111,0.307014,0.254263
0.669285,-0.141583,0.727664,0.999527,0.026165,-0.016143
0.652643,-0.338269,0.596744,-0.269179,-0.024358,-0.962782
-0.748143,0.090314,0.677760,-0.583005,-0.334072,-0.740609
0.587786,0.488912,0.665116,-0.503339,-0.812547,0.293969
-0.464070,-0.587329,0.583960,0.398267,0.910929,-0.107667
0.056357,-0.111749,-0.042683,0.910366,-0.411527,-0.043340
0.101643,0.181658,0.882412,-0.491700,-0.308058,-0.814451
-0.385356,-0.876095,0.583132,0.774464,-0.227799,0.590180
0.375715,0.475948,0.802926,0.045502,0.905593,0.421700
0.701859,-0.237569,0.496993,0.007275,0.378872,0.925420
-0.138070,0.482357,0.799263,0.179085,-0.074481,0.981010
0.372644,-0.457826,0.675234,-0.316679,0.831607,0.456229
0.373359,-0.165082,0.711721,0.271167,0.527903,-0.804852
0.038714,0.593149,0.784416,-0.449902,0.581367,-0.677939
0.194358,0.022836,-0.982837,0.769995,0.312300,-0.556396
0.312287,-0.149982,0.754145,0.212609,-0.933299,-0.289397
0.194214,-0.038968,0.899926,-0.570558,-0.730101,-0.376053
-0.230643,-0.323978,0.588731,-0.122404,-0.869933,0.477739
-0.592429,-0.709244,0.494748,0.233067,0.848131,0.475766
0.152643,0.047072,0.926239,0.489580,0.581440,0.649799
-0.531786,-0.741216,0.563835,0.045201,-0.857866,0.511881
0.372572,0.060995,0.791096,-0.596760,0.267471,0.756529
0.124429,-0.049134,0.947093,0.872745,-0.290662,0.392214
0.123786,0.048030,0.497793,-0.067001,-0.984932,-0.159437
-0.185643,0.194476,0.825703,0.053634,-0.282208,0.957853
0.832786,-0.857531,0.499505,-0.292887,0.401023,-0.867985
-0.233714,-0.293701,0.620461,-0.156462,-0.757849,-0.633392
-0.359072,0.311749,0.796316,0.287352,-0.876786,0.385583
-0.408785,-0.688986,0.433996,-0.494141,0.224474,-0.839903
-0.102356,0.139817,0.845209,0.298705,0.904835,0.303397
0.197715,-0.188435,0.700509,0.926247,0.030368,-0.375692
0.535002,0.427034,0.860604,-0.205884,0.858450,-0.469761
-0.024000,0.702909,0.719061,0.485142,-0.570043,0.663090
-0.327785,0.053553,0.767561,-0.011621,-0.159726,0.987093
0.223857,-0.418195,0.701393,0.203828,0.174336,-0.963359
0.088144,0.536794,0.715988,0.028701,-0.952201,0.304122
0.451643,-0.222172,0.665621,0.890899,0.254648,-0.376103
0.108859,0.097384,0.298895,0.825614,-0.553440,0.109848
0.145787,-0.121769,0.794899,-0.333746,-0.506442,0.795066
-0.075215,-0.078453,0.637287,-0.362268,0.841260,-0.401303
0.534714,-0.592043,0.702586,0.183759,-0.941778,0.281581
0.364358,-0.784383,0.487296,0.495978,0.375180,-0.783100
0.574929,-0.072338,0.457685,-0.203500,0.783442,0.587202
-0.078713,0.076095,0.750637,0.048172,-0.842647,0.536308
-0.030500,0.581216,0.869866,-0.494568,0.391928,-0.775754
0.452857,0.479779,0.725559,-0.438389,0.770347,-0.463013
0.530359,0.334807,0.862358,-0.250002,-0.956175,0.152407
0.003071,0.884492,0.706389,0.151258,-0.557058,0.816583
0.774787,0.277715,0.584465,0.057470,-0.507917,0.859487
0.101787,-0.214659,0.797158,0.321692,0.578305,0.749718
-0.667572,0.034769,0.618763,0.226116,0.477602,0.848981
0.180786,0.122504,0.905554,0.832630,-0.491785,0.254705
-0.680856,-0.526702,0.559906,-0.685893,0.713168,0.144715
-0.152642,-0.325894,0.753766,0.568153,0.765962,0.300839
-0.144856,0.080589,0.791460,-0.412797,0.677007,0.609311
0.195644,0.086261,0.193432,0.354413,0.935086,-0.002258
0.312359,0.199042,0.852591,0.216562,0.795918,-0.565346
0.680071,0.142690,0.729404,0.877392,0.319554,-0.357867
0.328572,0.588803,0.710866,0.566961,0.768874,-0.295615
-0.176429,0.659741,0.691261,-0.410153,0.573967,-0.708757
0.048000,-0.259005,0.771210,0.393782,-0.588479,0.706136
0.544357,-0.549761,0.689577,-0.035223,0.960938,0.274514
-0.757928,0.229319,0.468463,0.963418,-0.140141,-0.228445
-0.959571,0.201252,0.550433,0.651669,0.466177,-0.598337
0.236858,-0.099889,0.843090,-0.740388,-0.528456,-0.415403
0.227929,-0.003905,-0.856394,0.017040,0.997983,0.061146
-0.163857,-0.032559,0.751002,0.209786,0.813138,0.542952
0.140357,0.046409,0.834066,0.517334,0.668370,0.534459
-0.208357,-0.071898,0.369344,0.502050,0.221431,0.836011
-0.147642,-0.513738,0.668694,0.265332,0.553305,0.789590
0.263073,-0.015249,-0.952061,-0.316890,0.925464,-0.207598
-0.209285,0.241326,0.808694,-0.335947,0.864553,0.373747
-0.092928,0.102984,0.886159,0.956263,0.054101,0.287461
0.292644,-0.238601,0.737571,0.772702,0.103991,0.626193
-0.034642,0.174880,0.888784,-0.489112,0.334188,-0.805660
0.354501,-0.579816,0.706080,0.754454,0.053840,0.654141
-0.344785,0.351603,0.837084,-0.319704,-0.865999,-0.384494
0.579930,0.424973,0.872533,0.988133,0.056990,-0.142638
0.164714,0.073516,0.131488,0.985630,-0.167736,-0.019937
-0.013857,-0.279631,0.361316,0.873930,-0.455257,0.170257
0.171287,0.027919,0.742932,-0.549755,0.042055,0.834266
-0.126000,0.696279,0.752012,0.542173,-0.167634,0.823375
0.061929,0.470276,0.377988,0.983637,-0.109717,0.142897
-0.077142,0.160957,0.682167,0.206138,0.356477,0.911280
-0.368857,-0.015323,0.790604,0.990534,-0.067485,-0.119534
-0.373215,0.106887,0.688510,0.831562,-0.439975,0.339010
0.311358,0.702762,0.744616,-0.226783,0.924533,-0.306280
0.100573,0.085526,-0.261664,-0.627948,-0.776857,0.046634
0.644786,-0.098416,0.524752,-0.627693,0.507547,0.590252
0.167073,0.126335,-0.746328,0.969287,-0.132261,-0.207342
-0.209143,0.101069,0.633105,0.956556,-0.101743,0.273218
-0.570857,-0.252155,0.677451,-0.003705,-0.983028,0.183420
0.679714,0.245599,0.444129,-0.171519,-0.322548,0.930884
0.221144,-0.002653,0.756741,0.152375,0.846625,0.509910
0.473500,0.433812,0.660316,0.478371,0.674900,-0.561846
0.814859,-0.180185,0.628769,0.915985,-0.087282,-0.391604
-0.412857,0.323093,0.596127,0.568650,0.756966,-0.321930
-0.479285,-0.874400,0.572747,0.494425,0.641689,0.586327
0.216001,0.521399,0.781455,-0.167986,-0.921078,0.351276
0.062929,-0.064236,0.851510,-0.234203,0.905501,0.353860
-0.019928,-0.365671,0.759029,-0.177775,-0.681429,-0.709965
0.497430,0.205671,0.831695,0.829176,0.379193,-0.410707
-0.350285,0.328544,0.841336,-0.717073,-0.163277,-0.677604
-0.127284,0.480442,0.864407,-0.022526,-0.932761,0.359791
0.216930,-0.077127,0.594106,0.642211,0.516880,0.566039
0.118358,0.493038,-0.273438,0.999423,0.017563,-0.029075
0.258286,0.555359,0.729263,-0.495267,0.611031,0.617537
0.357071,-0.262467,0.740196,0.133103,0.971908,0.194111
0.323499,0.528766,0.771336,-0.377300,0.684715,0.623547
-0.162643,0.075580,0.730667,0.158580,0.095373,0.982729
0.153072,0.107772,0.975666,0.956490,-0.065612,0.284292
0.825573,0.151234,0.444297,0.431620,0.092099,-0.897342
-0.077000,0.473295,0.717756,0.795231,-0.601654,-0.074973
0.526644,0.218121,0.724464,-0.071802,0.872967,0.482465
-0.352500,-0.655027,0.521075,0.208696,-0.972648,-0.101990
0.286571,0.469761,0.748265,-0.121129,0.914269,0.386576
-0.348214,0.170314,0.474455,-0.490948,0.765972,-0.415037
0.089144,0.091932,-0.403122,0.038775,-0.989089,0.142123
-0.556213,-0.628140,0.559906,-0.282612,0.124972,-0.951059
0.477929,-0.448913,0.697842,0.761708,0.178722,0.622783
0.379715,-0.033150,0.884896,-0.690880,0.610898,0.386636
0.348572,-0.105709,0.729488,0.681276,0.030723,0.731382
0.569000,0.327366,0.494229,-0.010693,-0.545283,0.838184
0.534073,0.393295,0.876139,-0.361180,-0.139275,0.922037
-0.304857,0.410608,0.824411,0.236487,0.757681,0.608271
0.472430,-0.171786,0.728983,0.159034,-0.591322,0.790599
0.010572,-0.241400,0.773638,0.972102,-0.229273,0.049510
0.462645,0.049282,0.818966,-0.178055,-0.610044,0.772102
0.150358,-0.013482,0.798169,0.326929,0.342018,-0.880989
-0.087999,0.164273,0.774550,0.285722,0.625086,0.726382
-0.329071,0.512266,0.773975,0.963210,-0.084928,-0.254980
0.234430,-0.467183,0.664302,0.074946,0.978761,0.190814
0.155428,0.112855,0.543052,0.487622,0.649235,-0.583711
0.165857,0.086703,0.352896,0.961497,-0.273670,-0.025069
0.420643,-0.336574,0.681058,-0.547679,-0.371925,-0.749480
-0.585499,-0.706004,0.549507,0.111803,0.374472,0.920473
-0.325428,-0.709761,0.563246,-0.046187,0.619546,0.783601
0.178430,0.229613,0.913048,0.772917,-0.456443,0.440747
-0.380713,0.078822,0.731032,0.324026,0.706779,0.628864
0.153000,0.293112,0.894692,-0.645604,-0.219236,0.731526
-0.370071,-0.054511,0.796681,0.955621,-0.072820,0.285456
-0.056643,0.623057,0.710922,-0.620048,-0.678076,0.394655
0.003643,0.349908,0.830291,-0.567995,-0.418824,-0.708497
0.063429,-0.266003,0.825829,0.873472,0.063761,-0.482682
-0.545929,-0.119190,0.613879,-0.469458,0.708901,-0.526374
0.389999,0.487660,0.788078,0.929155,0.349768,0.119721
0.073430,-0.046040,0.053503,-0.858713,0.506867,-0.075481
0.531643,-0.176943,0.705420,-0.243655,-0.209926,0.946870
0.564429,-0.105783,0.742862,-0.625385,0.120872,0.770898
0.589430,0.346960,0.700916,-0.766632,-0.475760,-0.431194
-0.204570,0.061141,0.792710,0.909977,-0.096656,0.403236
-0.073857,0.155580,0.872912,-0.499504,-0.723827,0.475995
0.227929,0.196906,0.754482,-0.520141,-0.831625,0.194560
-0.389284,-0.176721,0.541957,0.897770,0.213120,0.385472
-0.196071,-0.181437,0.748181,-0.762449,-0.549248,-0.342050
0.502644,0.369724,0.723846,0.201191,0.261654,-0.943959
0.073072,-0.108730,0.763239,-0.493275,0.818515,-0.294470
0.199073,0.106667,-0.475171,0.132001,0.981087,0.141577
0.295785,-0.219962,0.734568,0.538147,-0.050543,0.841334
-0.516643,-0.243093,0.513006,-0.245789,-0.546290,0.800721
0.244930,0.121031,-0.877487,0.314245,0.949290,0.009938
0.392145,0.496205,0.755282,-0.189224,-0.682299,0.706161
0.551642,0.214880,0.608083,-0.057800,-0.929587,0.364042
-0.391643,-0.433812,0.554489,-0.517912,0.560887,-0.645890
0.185859,0.044714,0.895323,0.949378,0.024407,-0.313187
0.300714,0.520073,0.780458,-0.423223,0.699866,0.575387
0.668501,0.032928,0.580704,0.510510,-0.321522,-0.797498
0.164215,0.012819,0.887100,0.253145,0.914168,0.316568
-0.359072,0.064308,0.679402,0.929815,-0.069371,0.361431
0.155143,-0.079042,0.875031,-0.197110,0.812743,0.548267
0.710358,-0.310202,0.497976,-0.069151,-0.206160,0.976072
0.578073,-0.498269,0.604603,0.048289,0.782633,0.620608
-0.452785,-0.678674,0.565575,0.219691,0.572199,0.790142
-0.177357,-0.799926,0.427485,0.945250,0.279412,-0.168618
-0.029286,0.007367,0.662155,0.736978,-0.439874,-0.513201
-0.059928,0.846924,0.751409,-0.438406,-0.884391,0.160167
0.923144,-0.470570,0.511771,-0.341369,0.134272,0.930289
-0.364929,-0.097016,0.772024,0.989667,-0.019462,0.142060
0.633571,-0.522578,0.601810,0.095339,0.824766,0.557379
-0.137427,0.716759,0.775013,0.451259,0.210846,-0.867127
0.337357,-0.481031,0.701519,-0.235603,0.226344,0.945124
0.309786,0.231898,0.700845,0.120926,0.118499,0.985563
-0.119143,0.785341,0.781328,-0.741623,0.219859,-0.633765
0.886215,-0.111234,0.630425,0.911653,-0.388016,0.135397
-0.005857,-0.172670,0.719019,-0.729172,0.557373,-0.397043
-0.177357,-0.435211,0.625709,0.217054,0.743092,0.633010
-0.237213,0.120663,0.831302,0.859654,-0.503410,0.087028
0.410215,-0.289208,0.641666,0.835418,-0.348201,-0.425244
0.216001,-0.906593,0.426390,-0.431128,0.900025,-0.063902
-0.216570,-0.076907,0.678588,0.070480,0.995383,0.065161
-0.203999,0.133848,0.803137,0.909571,0.356215,0.213989
-0.040856,0.483315,0.851047,0.046177,0.998360,0.033823
-0.034927,0.583498,0.757668,0.787547,-0.461111,-0.408836
0.145357,0.036390,-0.700986,0.519741,-0.852145,0.060977
0.113501,0.068067,0.172943,-0.210975,0.975385,0.064137
-0.158142,0.138047,0.679837,-0.157257,0.139677,0.977630
-0.608571,-0.364347,0.475620,0.791224,0.373305,0.484363
0.028571,0.183719,0.899800,-0.044512,-0.647697,0.760597
0.752071,-0.164199,0.479928,0.200807,0.003657,0.979624
-0.009571,0.524124,0.857882,-0.415318,-0.750650,0.513843
0.113358,0.403756,0.564509,-0.592752,0.035961,-0.804582
0.022572,-0.004789,0.794520,0.545244,-0.828221,0.129453
-0.353642,-0.038010,0.776290,-0.576199,-0.126253,-0.807499
0.465001,-0.174805,0.813114,-0.282416,-0.841283,0.460960
0.104000,-0.167513,0.790211,-0.089717,0.953764,0.286854
-0.302856,-0.228802,0.622019,-0.649833,0.137268,0.747579
-0.028213,0.100183,0.778157,0.622818,0.557462,-0.548939
0.256500,-0.128545,0.603551,0.712756,0.630062,0.308221
0.303929,0.130977,0.789889,0.858765,0.429722,-0.279037
-0.209643,-0.521031,0.366958,0.660551,0.749696,0.040357
0.719143,-0.492302,0.500403,-0.267545,0.170843,0.948278
0.679786,0.058564,0.721012,0.858339,-0.151964,0.490063
-0.378429,0.004051,0.807585,0.515154,0.585233,0.626194
-0.377071,-0.750570,0.566249,-0.137525,0.822707,0.551580
-0.537214,-0.651050,0.478006,0.725730,-0.653873,0.213929
0.147073,0.270497,0.905750,0.277029,0.395181,0.875835
-0.077427,0.086998,0.750216,0.009764,-0.934001,0.357138
0.156858,0.053996,0.238971,0.513261,-0.855930,0.062827
0.642358,0.438895,0.654450,0.319238,0.896136,-0.308266
0.648071,-0.438821,0.489219,0.117181,0.416202,0.901690
0.746715,-0.652448,0.506255,-0.469135,-0.809535,-0.352937
-0.631284,-0.610313,0.561183,-0.008299,0.311654,0.950159
-0.241928,-0.745561,0.548412,-0.473686,0.325237,-0.818439
-0.070713,0.443756,0.358313,-0.631405,0.519523,-0.575694
0.831144,-0.091787,0.629583,0.849695,-0.461772,-0.254528
0.712786,0.339668,0.597754,0.079462,0.604444,0.792675
0.134430,0.092155,0.906719,-0.640957,0.420303,0.642276
0.240501,-0.714401,0.406294,0.483929,-0.038216,-0.874272
0.688071,0.439705,0.648149,0.116856,0.947798,-0.296689
-0.668501,-0.477569,0.591622,0.370435,0.244115,-0.896206
0.173285,-0.473518,0.694993,-0.642734,0.733465,0.221184
0.651073,0.012670,0.770452,0.812167,0.454442,-0.365878
0.837143,0.192487,0.767028,-0.245061,0.867412,0.433061
0.091143,0.244345,0.926885,0.235452,0.083365,0.968304
0.375857,-0.607071,0.489387,-0.178334,0.463101,0.868179
-0.071143,-0.639115,0.148553,0.774239,0.595849,-0.213348
