0.100888,0.106543,0.615132,-0.018614,0.284418,0.958520
0.049117,0.089787,0.816540,-0.337033,0.093443,0.936844
0.259603,0.349562,0.386342,-0.651115,0.352238,0.672293
-0.755414,0.130805,0.503403,0.363294,0.819082,-0.443984
0.158634,-0.134975,0.249632,0.273720,-0.938180,0.211884
0.529412,0.452355,0.017894,0.817739,-0.572859,-0.055988
-0.011450,-0.229679,0.061338,-0.637603,-0.183441,0.748206
-0.126691,0.355648,0.923887,-0.070322,0.966851,-0.245467
-0.262424,0.517466,0.784963,0.678596,-0.442719,0.586095
0.025223,0.390745,-0.651434,-0.536077,0.832540,0.139635
0.004813,0.039850,0.888599,0.961831,0.253113,0.103991
-0.024973,0.302876,0.480995,0.501510,0.679769,-0.535165
-0.615863,0.092288,0.746821,0.735115,0.675101,-0.062012
-0.782377,-0.028179,0.634655,0.111679,0.597595,0.793983
-0.165435,0.279617,0.938857,-0.267977,-0.644905,0.715742
-0.838877,0.286453,0.189097,-0.321711,0.539954,-0.777786
0.424541,-0.154898,0.669164,0.013048,-0.958109,0.286108
-0.587404,0.412754,0.455328,-0.437049,-0.477375,0.762300
-0.510494,0.064526,0.768231,-0.585204,-0.810159,-0.034341
-0.146519,0.178157,-0.995462,0.167067,-0.040172,0.985127
0.441880,0.759149,0.616255,-0.106993,-0.315633,0.942830
-0.656516,0.016591,0.666576,0.303227,-0.207622,0.930025
0.035926,0.494123,0.145450,0.797213,-0.599409,-0.071841
-0.944578,0.304876,0.577364,0.640112,-0.480969,0.599104
-0.239692,-0.162485,0.288569,0.733244,0.632119,-0.250556
0.503110,-0.211506,0.674825,0.781171,0.422276,-0.459842
0.039493,0.604752,-0.986246,0.282667,0.009068,-0.959175
-0.045881,0.792495,0.505680,-0.496279,0.782118,0.376826
0.067203,0.420758,-0.232011,-0.581421,-0.671995,-0.458663
0.345722,-0.705629,0.483818,-0.301989,-0.765277,0.568466
0.060400,0.492622,-0.984172,0.327965,0.011699,-0.944617
-0.334604,-0.526554,0.581263,-0.288874,0.940147,-0.180762
-0.225007,0.386995,0.925244,0.946746,0.077556,-0.312500
-0.461544,0.079865,0.760060,0.213964,0.771586,0.599062
0.240439,-0.079951,0.484909,-0.516883,-0.103722,0.849749
-0.252632,0.338474,0.693584,0.406403,-0.251484,-0.878404
-0.552228,0.880115,0.446798,0.561382,-0.528451,-0.636860
0.148012,0.596748,0.832274,-0.360324,0.686418,-0.631662
0.088608,0.320550,-0.788721,0.992037,-0.009990,0.125552
-0.423959,0.028096,0.607242,-0.511753,0.857202,-0.057568
-0.481706,-0.020842,0.696251,0.937907,-0.177591,0.297980
-0.224923,0.336724,0.874253,0.193625,-0.795097,0.574743
-0.408446,0.050103,0.704437,0.728848,-0.219868,-0.648413
-0.067370,0.093372,0.793820,0.833826,-0.315445,-0.453021
-0.131254,0.523384,0.865551,0.723475,-0.191366,-0.663298
-0.413009,0.003918,0.577754,-0.576305,0.807972,0.122696
0.038911,0.257190,-0.274581,0.668852,-0.580281,-0.464662
-0.239692,0.659607,0.844297,-0.036862,-0.997937,-0.052564
0.154153,0.722719,0.740084,0.913511,-0.061984,-0.402064
-0.248237,0.752898,0.711610,0.816440,-0.451578,0.359865
0.355845,0.002417,0.193978,-0.334076,-0.060640,0.940594
-0.095743,0.196582,0.935972,0.995172,0.055656,0.080843
0.148595,0.179991,0.810038,0.325559,-0.923755,0.201714
0.007965,0.611672,0.768449,0.765276,0.399244,0.504932
-0.212562,0.461191,0.754852,0.600373,-0.279392,-0.749328
-0.447689,0.315131,0.874720,0.909634,0.234476,-0.342909
0.093338,0.077781,0.837904,0.789628,-0.071706,0.609381
-0.194973,-0.203502,0.583836,0.962327,-0.098446,-0.253445
0.128350,-0.037349,0.727937,0.273288,0.904704,-0.326840
0.323074,-0.096542,0.674357,0.776663,0.629234,0.029328
-0.175309,-0.566403,0.562161,0.329550,0.939684,0.091600
-0.422385,0.498206,0.655255,-0.215930,0.292423,-0.931592
-0.034265,-0.216256,0.228783,-0.205653,0.499823,0.841358
-0.112834,0.322133,0.947247,0.007597,-0.999122,-0.041193
-0.614038,0.734389,0.472200,0.796408,-0.505757,0.331577
-0.368373,-0.664278,0.172505,0.507236,0.438521,-0.741897
0.035343,-0.574657,0.438612,-0.758020,-0.322233,0.567072
-0.216957,0.273363,0.599835,-0.303702,0.574516,0.760064
0.000914,0.682284,-0.027032,0.999992,0.001916,-0.003541
-0.836388,0.333890,0.544680,-0.316702,0.001065,0.948524
-0.593876,0.776322,0.793462,0.872610,-0.372839,0.315503
0.073343,0.149227,0.399924,-0.065432,-0.945369,0.319367
0.105618,0.294623,0.091823,-0.640136,-0.701075,-0.314195
-0.170000,0.018506,0.781221,-0.309154,-0.947368,-0.083175
-0.232557,0.335556,0.834660,0.530816,0.812004,-0.242658
0.132831,0.872531,0.717099,-0.178988,-0.888683,0.422144
-0.641583,-0.077783,0.383925,0.487114,-0.336517,-0.805901
-0.012113,0.337640,-0.077165,-0.472684,0.874998,0.104631
-0.440554,-0.540559,0.555689,0.980310,-0.125849,-0.152168
0.097404,0.298790,-0.501532,-0.346309,0.930090,0.122488
-0.253630,0.443600,0.650249,0.145689,0.948666,-0.280727
0.299592,0.141892,0.192855,0.425247,-0.107984,0.898613
-0.768107,0.768402,0.600661,-0.086462,-0.452808,0.887406
0.475234,-0.302542,0.400547,0.877221,0.366137,-0.310528
0.418485,-0.167153,0.519948,0.786093,-0.031272,-0.617317
0.030697,0.569988,0.729091,0.590543,-0.239250,0.770726
-0.222434,0.351480,0.805999,0.944304,0.178168,0.276669
0.280180,0.277198,-0.047303,0.382259,-0.716171,0.583932
-0.534471,0.672445,0.452038,0.815114,-0.578687,0.026668
-0.026714,0.718549,0.822528,-0.700696,0.354758,-0.619009
0.383223,0.068194,0.695783,-0.755934,-0.345848,-0.555835
0.247158,0.464193,0.608598,-0.412686,0.133004,-0.901110
0.614952,-0.075199,0.627560,-0.100996,-0.300096,0.948547
0.068117,0.128469,0.714277,-0.646579,0.652441,0.395292
0.232058,0.170237,0.422955,-0.369833,0.439920,0.818348
-0.167924,-0.016840,0.784698,0.377060,0.348387,0.858168
0.039493,0.442517,0.593473,-0.508530,0.842376,0.178325
-0.618436,-0.512215,0.537148,0.938276,-0.239724,0.249339
-0.685720,-0.194498,0.455952,0.474483,-0.626947,-0.617902
0.015764,0.031011,0.726081,-0.701775,-0.691955,-0.169440
-0.569817,0.132222,0.409966,0.322243,0.400047,-0.857976
-0.798639,-0.004669,0.657298,0.245546,-0.926589,0.284849
0.112669,0.424760,0.846231,0.821388,-0.335869,-0.460993
-0.703144,0.123302,0.655520,-0.612881,0.776271,-0.147579
-0.145357,0.300792,0.549452,-0.146560,-0.589531,0.794339
-0.320833,0.051105,0.741737,0.812816,-0.264506,-0.519005
-0.012528,0.291704,-0.558387,-0.444729,0.886177,0.130025
-0.624492,-0.349730,0.403089,0.582008,0.074971,0.809720
-0.090932,0.208586,-0.113202,0.888376,0.138056,0.437868
-0.067783,0.437431,0.893370,0.262129,0.706195,0.657706
-0.117232,0.047436,0.561412,-0.209713,0.809437,0.548481
0.139136,0.199834,-0.347030,-0.667149,-0.744800,-0.013597
-0.026218,0.123635,0.743016,0.693608,0.483391,0.534080
0.046378,0.408587,-0.518763,-0.577985,0.806832,0.122290
0.017506,0.283283,0.689733,-0.244269,-0.730066,0.638229
-0.034265,0.203584,-0.991907,0.176495,0.364166,-0.914457
0.219365,0.189827,0.804923,-0.870228,0.388837,-0.302505
-0.663899,0.338808,0.400329,0.790223,0.418563,-0.447607
0.533975,-0.234849,0.536758,-0.526159,0.143871,0.838127
-0.120136,0.148894,0.751016,0.977984,0.046130,-0.203519
-0.136064,0.257190,0.887866,-0.461393,-0.866997,0.188234
0.331536,0.425677,0.411026,-0.842315,0.514534,-0.160500
-0.398407,-0.230514,0.541265,0.962996,-0.012553,-0.269225
-0.366712,0.608836,0.674684,-0.099491,0.992013,-0.077539
-0.150337,0.407837,-0.119799,-0.333526,-0.941214,-0.053642
0.133991,0.742225,0.698917,-0.607361,-0.085247,0.789839
0.099146,0.534390,0.798920,0.867095,-0.485299,-0.112387
-0.116485,0.276032,0.934008,0.534148,0.691609,0.486172
-0.244338,0.285535,0.888833,-0.312870,0.549626,-0.774612
0.186427,0.494372,0.811301,0.828890,0.359750,0.428394
0.113996,0.565653,0.826364,-0.733738,0.670480,-0.109931
-0.023562,0.255106,-0.532532,0.640198,0.763182,-0.087750
0.035179,0.368152,-0.205735,0.959027,-0.271742,-0.080145
0.414669,0.576323,-0.968766,0.200736,-0.310210,-0.929234
-0.104539,-0.113631,0.621229,-0.143428,0.422787,0.894807
-0.395171,0.354981,0.025348,-0.333663,-0.780642,0.528457
0.212562,0.316131,-0.217914,0.500519,0.810619,-0.303938
0.025636,-0.641434,0.593519,0.523523,-0.747594,0.408690
0.891478,0.314048,0.292982,0.252480,0.246477,0.935683
0.172074,-0.008088,0.713778,-0.235114,-0.813261,0.532286
0.767111,0.351895,0.501891,0.088500,0.771001,0.630655
-0.402805,0.041516,0.761791,0.473408,0.170253,0.864233
-0.448188,0.351813,0.743952,0.649256,0.640510,-0.410138
0.388616,0.512629,0.614399,0.495759,-0.613375,0.614812
0.277276,-0.187578,0.639287,0.681417,-0.060693,0.729374
0.126443,-0.492289,0.460380,0.490343,-0.077082,-0.868114
-0.275119,0.054021,0.614165,0.289299,0.912982,-0.287697
-0.011450,0.351228,0.808073,0.365039,-0.039234,0.930165
0.006803,0.248186,0.730261,-0.544239,0.661994,-0.515333
0.124035,0.779741,0.773486,0.590683,-0.736773,0.329028
-0.436986,0.831180,0.694052,0.892243,-0.379423,-0.244827
0.004398,0.356149,-0.221656,0.994893,-0.058108,-0.082530
-0.541857,0.033097,0.722869,0.356868,-0.328164,0.874616
-0.107939,0.466526,0.843580,0.039419,-0.420410,0.906478
-0.064879,0.551146,0.882221,0.967242,-0.253054,0.020170
-0.524683,0.531889,0.438939,0.649140,-0.070973,-0.757351
-0.574129,0.547060,0.727188,0.555540,-0.831473,0.005282
0.426699,0.191496,0.507676,0.535500,0.396884,-0.745468
-0.026631,0.343642,-0.478859,0.922391,-0.295890,-0.248283
-0.078569,0.213005,0.897175,0.241706,-0.602775,0.760421
-0.786939,0.512131,0.422550,0.975416,0.068634,-0.209412
-0.106944,0.404168,-0.141084,-0.301956,-0.935209,-0.184952
0.182445,0.274615,0.883562,-0.674876,0.730758,-0.102640
-0.493320,-0.376324,0.529726,0.116909,0.286606,0.950889
-0.249896,0.213921,0.887959,0.426210,0.568170,0.703937
-0.228490,-0.776658,0.254528,0.826173,0.150060,-0.543066
-0.355678,0.515214,0.272757,0.425514,0.804307,-0.414762
-0.003320,0.978074,0.401842,0.885581,0.283736,0.367749
0.034184,0.276699,-0.591586,0.793311,-0.604121,0.075472
0.464615,-0.248020,0.531347,0.580930,0.016240,-0.813792
-0.238778,0.408836,0.849006,-0.021664,-0.619979,0.784319
-0.124534,0.305794,0.948401,0.978129,-0.022003,-0.206831
-0.019165,0.443183,0.711782,0.977427,0.151251,-0.147511
-0.072761,0.111545,0.767545,0.035501,0.356321,0.933689
-0.622084,-0.089454,0.450167,0.458129,-0.581774,-0.672055
0.061562,0.316714,0.922593,0.698627,-0.558656,0.447017
-0.827759,0.280533,0.560866,0.640489,-0.581705,0.501392
-0.768686,0.745894,0.610735,-0.109160,-0.586882,0.802280
0.002820,0.455021,0.522303,0.117971,0.630984,-0.766774
-0.260765,0.337390,0.906142,0.496948,0.279856,-0.821416
-0.632622,-0.250356,0.645119,0.643366,0.397971,-0.653987
0.084377,0.526719,0.794740,0.806719,0.421324,-0.414355
-0.278851,0.434014,0.612341,-0.721704,-0.107650,-0.683780
-0.600016,0.749061,0.779365,0.755050,-0.331955,0.565425
-0.092674,0.094954,0.764473,0.968143,0.237905,-0.078108
-0.315109,0.437181,0.803972,0.870000,0.492767,0.016727
0.049945,0.660442,0.710519,0.704646,0.700774,0.111310
-0.551233,0.077616,0.693943,-0.599388,-0.755387,0.264811
0.011865,0.030263,0.806498,0.329161,-0.881831,0.337678
0.323406,0.445852,0.779162,0.271808,0.828158,0.490179
-0.009125,0.402751,-0.542606,-0.612176,0.696776,0.373824
-0.616359,-0.363570,0.459445,-0.219489,-0.669384,0.709753
-0.901434,-0.019008,0.654179,0.367710,0.928691,0.048192
-0.277025,0.352480,0.835034,0.185609,0.887935,-0.420858
-0.440637,0.435181,0.261686,0.317252,0.840985,-0.438287
-0.099893,0.754231,-0.992156,0.171548,0.118485,-0.978025
-0.569898,-0.232348,0.625970,-0.488100,-0.311089,0.815465
-0.219365,0.394080,0.886509,0.629504,0.509747,0.586416
-0.224756,0.662693,0.761853,0.884755,0.322256,-0.336688
-0.258524,0.414256,0.814077,0.861572,0.356090,0.361793
-0.216874,0.106045,0.860156,0.894253,0.141415,-0.424633
0.165686,0.656857,0.813577,0.922746,0.208210,-0.324328
-0.068449,0.260942,0.881706,-0.425346,0.743696,0.515749
0.095330,0.719966,0.769245,-0.308789,0.916445,-0.254515
0.231643,0.785326,0.682762,-0.085615,0.915149,-0.393920
0.624575,0.152812,0.499271,-0.368491,0.791165,-0.488132
0.130674,0.121717,-0.292280,0.781518,0.606475,0.146344
-0.289721,0.195330,0.676369,0.847654,-0.337006,0.409769
-0.136811,0.166902,-0.493158,-0.638533,0.730098,0.243378
-0.548992,0.006668,0.675168,0.542944,-0.204371,-0.814521
-0.449266,-0.097040,0.692025,0.820656,-0.559674,-0.115278
0.059488,-0.020761,0.619888,0.582353,0.320207,-0.747216
-0.495727,0.706794,0.700040,0.862068,0.042404,0.505016
-0.186840,-0.558066,0.576834,-0.491205,-0.810367,-0.319410
-0.130008,0.097374,0.592958,0.773645,0.067618,0.630001
0.216793,-0.430513,0.111612,-0.148698,-0.720761,0.677047
-0.691528,0.623259,0.444615,0.214637,0.231790,0.948791
-0.002241,0.079531,0.852577,0.117969,0.948556,0.293812
-0.041400,0.341474,0.098607,-0.313746,0.940738,-0.128746
-0.017838,-0.411088,0.451492,-0.438168,0.070567,0.896119
0.047456,0.125719,0.819971,0.377430,-0.410127,0.830267
-0.694764,0.071779,0.389086,-0.093015,-0.091275,0.991472
0.102546,0.611255,0.561739,0.881260,0.470155,-0.048319
-0.146769,0.655440,0.805110,0.836872,-0.428138,-0.341091
0.874803,0.147059,0.280351,-0.299129,0.297838,-0.906540
0.408279,0.164986,0.055163,-0.233179,0.939095,0.252442
0.723055,0.276780,0.583009,-0.114558,-0.570727,0.813110
0.056584,0.844853,0.654132,-0.013718,0.906316,0.422379
-0.038000,-0.516634,0.587469,0.954197,0.021572,-0.298401
0.203850,-0.706044,0.474290,-0.317460,-0.006341,0.948250
-0.063719,0.431179,-0.985623,-0.072495,-0.050148,0.996107
0.098731,0.090286,0.118442,0.157861,0.402404,0.901749
0.063967,-0.044686,0.843159,0.793950,-0.596828,-0.115932
0.041982,0.514298,0.239605,0.951465,-0.234566,0.199231
-0.031692,-0.381161,0.588374,-0.584277,-0.080379,0.807564
-0.452251,-0.047770,0.755663,-0.375238,0.774498,-0.509264
-0.075002,0.497041,0.292998,0.973370,-0.104871,0.203844
-0.189412,0.331137,0.097578,0.546920,0.783721,-0.294382
0.070937,-0.385244,0.567010,0.166523,-0.363477,0.916599
-0.188334,0.429594,0.901947,-0.519689,0.850134,0.084833
-0.204098,0.053438,0.763646,0.934282,-0.060123,0.351429
0.292541,0.362234,-0.967721,0.001289,0.078134,0.996942
0.149673,-0.198999,0.175624,0.928315,0.363794,-0.076717
0.343648,-0.106879,0.521336,0.119372,-0.136879,-0.983369
-0.443541,0.287619,0.686614,0.974151,-0.209970,-0.083325
0.055505,0.626594,0.750672,0.332319,0.813642,-0.477023
-0.318924,-0.683451,0.183982,0.657242,0.525694,-0.540074
-0.033434,0.406086,-0.737683,-0.845674,0.336301,0.414412
-0.047041,-0.011339,0.834317,0.414597,0.424652,0.804848
0.114163,0.390997,-0.400391,0.264971,-0.952209,-0.151948
-0.268728,0.432930,0.691074,0.456792,0.533948,-0.711506
0.296524,-0.060442,0.222483,0.524698,-0.839924,-0.138632
0.115074,0.446768,0.833350,0.959154,-0.257360,0.117430
-0.244087,0.474446,0.874050,0.872720,-0.094331,0.479021
0.014186,0.262360,-0.623553,-0.214654,0.963977,-0.157071
-0.513648,0.687952,0.715836,0.808825,-0.144926,0.569911
-0.550071,0.467195,0.460989,-0.112716,-0.540864,0.833523
0.158966,-0.431014,0.470875,0.508122,0.352864,0.785684
0.318676,0.455105,-0.968610,-0.212465,0.096933,0.972349
0.449349,-0.273531,0.506584,0.764947,0.423726,-0.485090
-0.077075,0.304794,0.373835,-0.470429,0.882140,-0.022952
0.091679,0.452271,0.573778,-0.443347,0.780814,0.440197
-0.078569,0.349895,-0.564063,0.930525,0.310225,-0.194639
-0.421554,0.088869,0.746291,0.645374,0.071151,-0.760546
-0.185845,0.179241,0.908028,0.662427,0.480608,-0.574635
0.013027,0.297289,0.933228,-0.400322,-0.140252,-0.905578
-0.415414,0.756897,0.680423,0.779047,0.529085,-0.336386
0.441964,-0.143144,0.677601,-0.218282,-0.975706,0.018729
0.155147,-0.416840,0.463140,0.095998,0.170215,0.980720
0.188749,-0.526220,0.623038,-0.738648,0.240379,-0.629776
-0.189248,0.187410,0.362312,-0.624051,0.681541,-0.382181
0.612544,0.440268,0.487451,0.658398,0.645417,0.387232
-0.612627,0.747062,0.784558,0.811995,-0.327781,0.482933
-0.056085,0.689204,0.770477,-0.444700,0.881126,-0.160808
-0.324981,0.750979,0.758999,0.732746,0.478261,-0.484097
0.514643,0.209921,0.070928,-0.108786,0.938377,0.328047
-0.379987,-0.177908,0.213704,0.933262,-0.359194,0.000673
0.131254,-0.203169,0.225602,0.319907,-0.910800,0.260965
-0.237783,0.265945,0.905861,-0.521822,-0.130685,0.842985
0.190906,-0.051940,0.659403,-0.129105,0.793848,-0.594253
0.878287,0.138641,0.282472,0.392150,-0.425841,0.815400
0.164523,0.503877,-0.457683,0.811760,-0.564026,0.151395
0.186675,0.074364,0.484083,-0.368234,-0.439657,0.819210
-0.035012,0.371404,0.959550,0.030683,0.998914,-0.035069
-0.221687,0.360316,0.031585,-0.150410,-0.960762,0.233052
-0.006140,0.301708,-0.230592,0.918015,0.027951,0.395559
0.023646,0.438181,0.745963,-0.288544,0.670867,0.683139
-0.554717,-0.102961,0.461098,0.956495,-0.261984,-0.128381
-0.017174,0.374571,0.300311,0.154692,-0.987672,-0.023977
-0.546088,0.048268,0.381757,-0.140862,0.535035,0.833004
-0.085456,0.550062,0.891982,0.846789,0.526379,-0.076644
-0.051107,0.331053,0.993310,0.402758,0.608756,0.683522
-0.306978,-0.029263,0.659559,-0.748711,-0.273984,-0.603626
-0.688874,-0.023928,0.635716,0.169544,-0.054745,-0.984001
-0.758898,0.658857,0.596139,-0.174441,0.753730,-0.633610
-0.211149,0.186578,0.892029,-0.057293,0.983422,0.172044
0.239360,-0.309712,-0.029121,-0.120693,0.584336,-0.802487
0.279765,-0.312714,0.142285,0.186494,0.848873,0.494606
0.230896,0.373406,0.790561,0.888060,0.014561,-0.459496
-0.450261,0.023343,0.391815,0.691761,-0.247185,-0.678503
0.255787,-0.166820,0.619639,0.800960,0.579033,-0.152262
-0.216542,0.613005,0.796487,-0.253940,0.904316,0.343113
0.260765,-0.175575,0.657921,-0.425942,0.894613,0.135061
0.052434,0.172071,0.558262,0.393910,-0.856366,-0.333874
-0.524184,-0.039018,0.480465,0.283885,0.378611,-0.880944
0.526176,-0.282868,0.532954,-0.584755,-0.357306,0.728282
0.025223,0.118300,0.801227,0.371235,-0.479747,-0.795001
-0.475317,0.550729,0.710643,-0.546198,0.155313,-0.823132
-0.799799,0.093705,0.476660,0.421219,0.730407,-0.537661
0.095495,0.299874,-0.568694,-0.451932,0.880626,0.142317
0.763959,0.099875,0.271931,-0.472032,0.611297,-0.635218
-0.122873,0.160651,0.784979,0.099112,0.109923,0.988986
0.269310,-0.635348,0.489322,0.505679,0.328970,-0.797539
-0.320170,-0.600417,0.185105,0.805786,0.433984,-0.402948
-0.036506,0.340309,0.983315,0.812130,0.554423,0.181825
-0.508337,0.759983,0.473744,0.556424,0.760889,-0.333825
-0.073839,0.372238,0.963994,0.239025,0.968594,0.068511
-0.423212,0.321968,0.713029,0.508588,0.582695,0.633881
-0.347631,0.181409,-0.033534,-0.501418,-0.012535,-0.865114
0.341990,0.516049,0.046617,0.761142,-0.150967,0.630771
0.203850,0.254440,0.805219,0.896627,-0.416741,-0.149624
0.090185,0.559150,0.839713,0.806568,-0.228520,-0.545184
-0.656017,0.827595,0.738494,-0.170568,0.484624,0.857931
-0.045215,0.338724,0.931528,-0.716300,0.182595,0.673479
0.496307,-0.248771,0.414535,0.818951,0.306519,-0.485145
0.284659,0.635430,-0.971729,0.198252,-0.167235,-0.965779
-0.187754,-0.000834,0.027858,0.523363,-0.540993,-0.658345
-0.455322,0.061608,0.476957,0.019997,0.206720,0.978196
-0.078569,0.377657,-0.754555,0.970744,0.222892,-0.089302
0.080893,0.055105,0.471904,0.698483,0.336498,-0.631577
0.143118,-0.063943,0.719111,0.957832,0.080940,0.275692
-0.292956,0.057023,0.598525,0.144900,-0.916562,0.372716
-0.119141,0.200584,0.758657,0.519340,0.283735,0.806090
0.145607,0.712712,0.398879,0.758357,0.634837,0.147911
-0.507177,0.647769,0.594127,0.481390,0.752785,-0.448975
-0.431094,0.669611,0.641891,0.477372,0.775925,-0.412379
-0.600264,0.541974,0.205049,0.437126,0.896002,0.078105
-0.050528,0.088953,0.873722,-0.161032,-0.677091,0.718065
0.246495,0.343642,0.868857,0.157487,-0.864160,0.477939
-0.063137,0.333554,0.419634,-0.282443,-0.955959,0.079806
-0.019165,0.288702,0.005200,-0.181091,0.973367,-0.140583
-0.534059,0.671613,-0.026611,0.972755,-0.054988,0.225218
0.620342,-0.271613,0.447905,0.487541,-0.157929,-0.858698
-0.957851,0.399583,0.587640,0.732759,-0.321753,0.599615
0.111175,0.329303,-0.885807,0.994372,0.019502,-0.104138
0.771925,-0.247354,0.450291,-0.322783,0.267231,0.907964
-0.515722,0.759734,0.668197,-0.445509,0.221571,-0.867426
0.106114,0.059608,0.495747,-0.619711,-0.451855,0.641706
0.479383,-0.305461,0.201260,-0.073778,-0.535502,0.841305
-0.315109,-0.522636,0.515239,0.311350,0.950244,0.009835
0.379822,-0.143477,0.633377,0.453219,0.855962,0.248842
-0.020825,0.563567,0.530209,0.495750,0.623754,-0.604287
0.137973,0.492373,0.593457,0.312899,0.764367,-0.563770
0.639924,0.212338,0.533016,0.518324,-0.845704,0.126980
0.114994,0.693873,0.746790,-0.233901,0.859901,0.453719
-0.115657,0.785494,0.722417,0.970760,0.112850,0.211873
-0.047707,0.381741,0.936050,0.966889,-0.171982,-0.188543
-0.454492,0.101043,0.739242,0.138909,-0.026851,0.989941
-0.106944,0.553815,0.866409,-0.537349,-0.225047,0.812779
-0.248237,0.330804,0.658436,0.826584,0.537174,0.167938
-0.608146,0.000916,0.655863,-0.778682,0.627023,-0.022259
-0.120219,0.371572,0.790764,0.119755,-0.643349,0.756149
0.334855,0.684283,0.621448,0.603176,-0.034087,-0.796879
-0.060815,0.378408,0.846636,-0.233871,0.322720,0.917145
-0.173233,0.615089,0.766719,0.341128,-0.118306,-0.932543
-0.025968,0.278533,0.295290,0.988960,0.147699,0.011927
0.095495,0.402084,0.794366,-0.173053,0.909995,-0.376778
-0.154568,0.299042,0.910477,0.369496,-0.802681,0.468161
0.133659,-0.002918,0.583851,0.435794,0.497177,0.750265
-0.076827,0.406335,0.918024,-0.575305,0.814688,-0.072854
0.292126,-0.045935,0.719407,0.306486,0.918531,-0.249735
0.254210,-0.170573,0.401842,0.958036,-0.045617,-0.282996
-0.280345,0.511047,0.809554,0.066075,-0.994980,0.075161
0.053348,0.536972,0.217898,0.987811,-0.143468,-0.060385
-0.526257,0.167652,0.617424,-0.442617,-0.839550,0.315033
-0.212810,0.712631,0.704032,0.036495,-0.811829,0.582754
-0.572387,0.253023,0.573622,0.255239,-0.864014,-0.433973
0.280428,-0.059608,0.721357,-0.315845,-0.945593,-0.078073
0.165518,0.397248,0.852842,0.466383,0.856776,-0.220051
-0.109765,0.516799,0.731212,0.205361,0.968852,-0.138391
0.510577,0.163902,0.206998,-0.270997,0.197679,0.942063
0.331784,0.526218,-0.969686,0.318356,-0.062081,-0.945936
0.045466,0.020175,0.828251,0.395112,-0.810866,-0.431721
-0.463121,0.592163,0.126691,0.919366,0.323370,-0.224050
0.756824,0.255271,0.510686,-0.094309,0.089380,0.991523
0.256284,0.095873,0.714760,0.927193,-0.018867,0.374108
0.325396,-0.201167,0.649064,-0.708816,-0.345107,0.615208
0.187007,0.594247,0.148382,0.929774,-0.282307,-0.236267
-0.721147,0.733056,0.740427,-0.313272,0.143416,0.938772
-0.319671,0.632097,0.715805,0.980240,-0.184604,0.071070
-0.530987,0.093372,0.716741,0.819659,-0.247182,0.516779
-0.052353,0.664693,0.611592,-0.233858,-0.525378,-0.818101
0.653280,-0.006170,0.635373,0.071475,-0.525092,0.848039
0.169916,0.364985,-0.514724,0.249128,0.968466,-0.002927
-0.055670,0.332971,0.435399,0.399601,0.898552,0.181445
-0.201525,0.385911,-0.088362,-0.345716,-0.929069,-0.131572
0.438728,0.244601,-0.073828,-0.054661,0.827592,-0.558663
0.194309,0.344392,-0.957585,-0.583601,0.392384,-0.710947
0.411350,-0.233514,0.660510,0.976267,-0.165960,-0.139140
-0.074338,0.217172,0.891281,0.865330,0.501017,-0.013654
0.800713,0.415255,0.219146,0.908873,0.135323,-0.394509
-0.486600,0.815673,0.683900,-0.591827,-0.024711,0.805686
0.083630,0.385076,-0.388696,0.204819,0.969486,0.134709
-0.042727,0.282617,0.990348,0.979475,0.047508,0.195886
0.076412,0.313129,-0.221376,-0.464563,0.560133,-0.685881
-0.937856,0.301459,0.584475,0.607213,-0.364495,0.706000
0.221523,0.429594,0.786663,0.703711,0.694595,-0.149429
-0.095080,0.433765,0.877558,-0.490610,0.870618,-0.036433
0.829420,0.443516,0.266847,-0.232415,0.597478,0.767466
0.080645,0.455357,0.895195,0.846611,0.309395,-0.433042
0.414004,-0.198918,0.623116,0.455286,-0.424305,-0.782739
-0.191405,0.382659,0.870588,0.008638,0.514668,0.857346
-0.476229,0.296790,0.522739,0.933850,-0.013004,-0.357429
-0.699493,0.282701,0.584709,-0.061129,0.801269,0.595173
0.215051,-0.463694,0.461378,-0.279791,0.419161,0.863725
0.197213,0.554815,0.816119,0.867051,0.150655,-0.474896
-0.139966,0.910045,0.721325,0.857722,-0.497064,0.131304
-0.375592,-0.313132,0.386108,-0.644609,0.122598,-0.754618
-0.229070,-0.314131,0.554956,-0.730853,0.543724,-0.412576
0.254460,-0.358983,0.589106,-0.677268,0.178654,-0.713717
-0.269807,0.380990,0.751140,0.431080,0.893685,-0.124489
0.119888,-0.442435,0.103503,-0.217776,-0.772324,0.596732
-0.212479,0.704126,0.782764,0.721274,0.692166,-0.025906
0.868164,0.310463,0.289832,-0.241471,-0.196152,-0.950377
-0.260515,0.223927,0.628215,-0.014558,0.304479,0.952408
-0.498381,0.742477,0.674950,-0.847654,0.527931,-0.052646
-0.080230,0.087202,0.879664,-0.311651,-0.712166,0.629041
0.079979,0.199834,0.759109,-0.166425,-0.108788,-0.980035
0.425040,0.550563,0.494047,-0.626954,0.774434,-0.084737
-0.133826,0.143475,0.604716,0.916116,-0.132310,0.378452
-0.492656,-0.249855,0.605168,0.898362,-0.263185,0.351682
0.471750,0.141559,0.427556,0.481211,0.328036,-0.812913
0.540778,0.290119,0.559806,0.542449,0.021186,-0.839822
0.317845,-0.131804,0.489743,0.489276,0.406016,-0.771855
0.108934,0.218175,0.694878,-0.565941,-0.824089,-0.024258
-0.871235,-0.489289,0.431750,-0.144143,-0.684072,0.715030
-0.268812,-0.576074,0.593363,0.134430,0.957504,0.255174
0.048535,0.030263,0.752123,-0.467899,0.301685,0.830696
-0.434330,0.445852,-0.074780,0.279549,0.934484,-0.220435
0.164108,0.424176,0.598431,-0.065110,-0.878183,0.473873
0.233137,-0.229346,0.390583,0.899870,0.379616,-0.214767
0.302664,0.407419,0.403198,-0.849140,0.515495,0.115010
-0.271301,-0.405503,0.572406,-0.479389,-0.503499,-0.718801
-0.284991,0.130886,0.877683,0.618574,0.761989,0.191676
-0.081640,0.429511,0.897970,-0.698878,-0.267125,-0.663487
-0.780635,0.772738,0.610158,-0.851899,0.385265,0.354738
-0.660663,0.237099,0.644464,-0.663306,0.746144,-0.057390
0.133494,-0.514881,-0.049253,0.287144,0.517319,-0.806182
-0.303492,0.407251,0.835518,0.886298,0.449646,-0.110882
-0.011366,0.035680,0.655255,0.829934,0.554498,0.061169
-0.593048,0.691120,0.578892,0.672154,-0.404532,0.620131
0.424706,-0.175157,0.669975,0.916709,0.396209,-0.051606
-0.450013,-0.259526,0.179912,-0.747006,0.098664,0.657456
-0.408611,0.433179,0.592132,-0.638577,-0.450288,0.624068
0.123620,0.600915,0.740209,-0.814328,0.379982,0.438729
-0.031528,0.375739,0.939559,0.162462,-0.269837,0.949102
-0.191238,-0.167904,0.609472,-0.584859,0.409083,0.700422
-0.201857,0.387827,0.927645,0.950014,-0.048170,-0.308468
-0.606487,0.316131,0.424842,0.184075,0.954369,-0.235149
-0.605242,-0.053774,0.477627,-0.653089,-0.682840,0.327419
-0.686882,0.204001,0.591820,-0.231926,0.730411,0.642425
0.207501,0.057272,0.761042,0.479726,0.872967,0.088272
0.153985,0.152229,0.507645,-0.199442,0.594109,-0.779267
-0.214636,0.713880,0.788830,0.880435,0.279529,-0.383012
0.627229,-0.141811,0.637353,0.100676,-0.512913,0.852517
0.486187,-0.116633,0.608021,0.002024,0.602222,0.798326
-0.590308,0.540224,0.733753,0.337757,-0.902305,0.267891
-0.665393,-0.037183,0.440904,-0.436675,0.459811,0.773232
0.685555,0.017924,0.241008,0.202870,-0.960957,0.188161
-0.035427,0.418006,0.970372,0.417409,0.097938,0.903426
0.128018,0.075115,0.740942,0.844313,0.521091,-0.124900
-0.576453,0.492706,0.023352,0.253353,0.940346,0.227071
0.226832,0.337390,0.851018,0.922549,0.076615,-0.378197
-0.017339,0.331389,-0.504666,0.940477,0.309922,-0.139469
-0.283082,0.184492,0.890735,-0.074654,0.771283,0.632099
0.363312,0.581409,0.474134,-0.583710,-0.771110,0.254307
-0.383058,0.141391,0.754353,-0.017903,0.956148,0.292337
-0.167012,0.421092,0.664611,0.578910,0.791257,0.196916
0.102298,-0.243601,0.586798,-0.263273,-0.195383,0.944729
-0.349538,0.551146,0.826395,-0.464584,0.315983,-0.827234
0.076412,0.608920,0.730338,-0.721479,0.500896,-0.478090
0.305484,0.384578,0.410980,-0.876143,0.346559,0.335068
-0.123205,-0.037183,0.792323,-0.059590,0.941545,-0.331575
-0.533975,0.485618,0.683885,0.682365,-0.664815,-0.303971
-0.310794,0.451355,0.789329,0.829328,-0.208141,0.518549
0.051771,0.277948,-0.615179,0.684727,-0.695627,0.217373
0.359660,0.226095,-0.061634,-0.000406,-0.830271,0.557359
0.253878,-0.112046,0.645555,0.827753,0.336899,-0.448691
-0.018336,0.088454,0.818458,0.359838,0.094261,-0.928241
-0.230812,0.293122,0.710238,-0.141782,0.751463,0.644361
-0.435741,0.846435,0.675885,-0.795268,0.514084,-0.321352
-0.318177,0.294707,0.888162,0.980802,0.028319,-0.192937
0.188417,0.169153,0.571548,0.587127,0.740782,0.326381
0.038830,0.585411,0.677242,0.994763,0.080601,-0.062845
0.496806,-0.253689,0.361314,0.039376,-0.438634,0.897803
-0.531651,-0.440435,0.171928,0.611786,0.053485,-0.789213
0.318759,0.583075,0.449106,0.653413,0.680205,-0.332224
-0.760723,0.041183,0.661352,0.860372,-0.460914,0.217526
0.348543,-0.179826,0.683495,0.760900,0.218677,-0.610910
-0.027629,0.319632,-0.547533,0.979946,0.178788,-0.087978
0.053431,0.258607,0.598727,-0.457739,0.223024,-0.860660
-0.329295,0.508711,0.835175,0.750114,0.645014,0.145901
0.181781,0.340807,0.510265,0.307628,0.339289,-0.888959
-0.378660,0.609838,0.858238,-0.407042,0.489708,-0.771040
0.021157,0.416507,-0.223341,-0.351982,0.831315,0.430145
0.041235,0.245853,0.951566,0.972973,0.225184,-0.051154
0.625902,-0.024928,0.216822,-0.329838,-0.234263,0.914509
-0.017589,0.259607,-0.205626,-0.614149,0.758281,-0.218703
-0.230400,0.245853,0.722744,-0.505025,0.855421,-0.114912
0.120052,0.468279,-0.451055,0.833296,-0.529664,0.158348
0.044220,0.068528,0.604232,0.659979,0.621512,-0.422078
-0.147764,0.232430,-0.987993,-0.371008,-0.169670,0.912998
-0.532481,0.424259,0.697373,0.246505,0.105704,0.963360
-0.214636,0.024175,0.850113,0.747043,0.472451,0.467672
-0.328052,0.336307,0.737683,-0.060681,-0.683092,0.727807
0.016676,0.176740,-0.174064,0.113646,0.979502,-0.166315
0.648553,-0.340143,0.542809,0.000824,-0.463191,0.886258
0.211233,-0.146479,0.663628,0.430160,0.887464,0.165440
-0.654027,0.629179,0.588108,0.849678,-0.525665,0.041502
0.093669,0.407002,0.778725,0.109144,-0.977541,0.180282
-0.084046,0.155315,0.239854,0.736243,-0.045561,-0.675182
-0.383306,0.231763,0.727391,0.126622,0.874784,0.467675
0.007383,0.341810,0.831292,-0.449034,0.835477,0.316774
-0.349373,0.426094,0.744154,-0.001933,-0.029241,0.999571
0.619347,-0.305461,0.432093,0.550576,0.498242,-0.669791
-0.403385,0.779408,0.782905,0.288518,0.926422,0.241866
-0.353356,-0.024928,0.744435,-0.444853,0.862509,-0.241212
0.352029,0.368737,0.632878,-0.111473,0.566824,0.816263
-0.574048,0.320632,0.170899,-0.378062,0.505285,0.775730
-0.308054,0.410836,0.907405,-0.755201,0.624918,-0.197859
-0.380985,0.607169,0.518295,0.779569,-0.626215,-0.011267
-0.351946,-0.189830,0.554348,-0.142559,0.487634,0.861330
-0.052766,0.213338,0.532501,-0.008453,-0.841842,0.539658
-0.529162,0.515797,0.699697,0.660759,-0.742006,0.113246
0.327138,0.110380,0.686224,0.281220,0.953475,0.108631
-0.012445,0.471864,0.969249,0.963283,-0.184539,0.195017
0.591222,0.303543,0.565762,-0.435366,-0.155005,0.886809
-0.166433,0.207919,0.911256,-0.677214,-0.376765,-0.632004
-0.149423,0.806252,0.554301,-0.765223,-0.598365,-0.237473
0.273210,0.216506,0.536618,-0.279023,-0.148168,-0.948785
0.140794,0.179157,0.653383,0.059881,0.684943,0.726131
-0.126276,0.335556,-0.567026,0.887197,-0.088948,-0.452736
0.316934,-0.010256,0.501688,0.830022,-0.277412,-0.483845
-0.582178,0.560315,0.736669,0.096253,-0.848764,0.519937
-0.062724,0.401166,0.946498,-0.525339,-0.834983,-0.163775
0.056832,0.036097,0.866456,-0.411491,-0.796866,0.442356
0.325644,0.014588,0.766547,-0.404194,0.914636,0.008294
0.046378,-0.382911,0.604856,0.321706,0.832748,0.450596
-0.372520,-0.537891,0.545163,0.638300,0.011155,0.769707
-0.257031,-0.262276,0.561334,0.106504,0.180573,0.977778
-0.123703,0.327468,0.937656,-0.494385,-0.720007,0.487004
-0.066124,0.268362,0.124243,-0.361255,0.930189,-0.065137
-0.237535,0.314213,0.594954,-0.251502,0.506291,0.824874
0.828010,0.202001,0.296849,-0.439909,0.333772,-0.833712
0.085704,0.362985,-0.445816,0.946663,0.317509,0.054933
-0.001578,-0.308628,0.603390,0.972169,-0.109298,-0.207224
0.374346,-0.661943,0.490960,0.570934,0.303287,-0.762923
0.152411,0.616005,0.687362,0.743173,0.055528,-0.666792
-0.294283,-0.706794,0.191202,0.818569,0.429226,-0.381720
0.144528,-0.343728,-0.034735,0.250904,0.230006,-0.940290
-0.007966,0.366318,0.219021,0.862900,-0.483397,-0.147417
-0.364805,-0.004335,0.726331,0.157748,-0.916505,0.367606
0.194724,-0.100625,0.612107,0.767551,0.540840,-0.344032
0.245500,0.070362,0.794616,-0.013904,-0.858937,0.511893
0.095411,0.159648,0.493735,-0.606795,-0.576044,0.547698
-0.425122,0.443600,0.792401,-0.739571,-0.466604,-0.485093
0.055338,0.262858,-0.401202,-0.439568,0.898204,-0.003153
-0.158467,0.279284,0.750189,0.660497,0.495906,-0.563756
-0.169086,-0.225846,0.316419,-0.619527,-0.781856,0.069919
0.416660,-0.007421,0.496511,0.012758,0.170510,0.985273
-0.044137,0.335223,0.228783,-0.079202,-0.976427,0.200793
-0.183604,-0.110548,0.408438,0.013492,-0.504954,0.863041
0.037832,0.339642,0.843252,-0.558794,0.826759,-0.064944
0.559611,-0.212422,0.208106,0.102446,-0.439814,0.892226
0.242345,0.590245,0.606961,-0.399567,-0.264317,0.877771
0.220692,-0.015423,0.487654,-0.371340,0.214844,0.903299
-0.280013,0.363901,0.029121,0.246860,0.919473,-0.305988
0.356176,0.451437,-0.968251,-0.321051,0.058131,0.945276
0.413257,-0.310796,0.200434,-0.288596,-0.338117,0.895762
-0.352110,0.445684,0.813437,0.202881,-0.552231,0.808629
-0.215299,0.366318,0.589496,0.116609,0.716601,0.687666
-0.251141,-0.546480,0.604903,0.059171,0.978489,0.197631
-0.048535,0.343560,0.513695,0.852693,-0.520330,0.046593
0.032439,-0.522720,0.618953,0.285872,-0.758592,0.585505
-0.269310,0.469279,-0.210445,0.778835,0.520770,-0.349592
-0.239692,0.022259,0.866518,0.945145,0.173959,-0.276476
0.014685,0.010920,0.862744,-0.179093,-0.848562,0.497864
-0.126524,-0.267613,0.616785,-0.482790,0.667618,-0.566746
0.616610,0.032263,0.489759,-0.492246,0.603486,-0.627295
-0.260849,-0.499458,0.530942,0.234390,-0.967733,-0.092493
0.137558,-0.190914,0.594486,0.565810,-0.067255,-0.821788
-0.017754,0.354147,-0.532985,0.992479,0.093523,0.078984
0.926242,0.222009,0.283829,-0.475315,0.332925,-0.814393
-0.601510,0.687454,0.478703,0.456757,-0.178071,-0.871587
0.543351,0.461524,0.542933,-0.056499,0.076929,0.995434
-0.231063,0.090622,0.803379,0.936810,0.328588,-0.120073
0.615200,0.337141,0.583617,0.546954,0.197363,-0.813566
-0.861029,-0.442435,0.441340,-0.367559,-0.394088,0.842374
-0.747448,-0.280535,0.437115,0.482477,-0.236684,0.843325
-0.126608,0.089953,0.864569,-0.041759,0.261465,0.964309
-0.001494,-0.298876,0.427369,0.905828,-0.209804,-0.368047
0.058159,0.759065,0.776246,0.228603,-0.965824,0.122163
-0.701982,0.692038,0.453550,0.259111,-0.560736,0.786408
-0.544842,0.056522,0.378888,-0.131446,0.402021,0.906146
-0.112502,0.285369,0.785836,0.904354,0.192950,-0.380675
-0.467104,0.766402,0.671675,0.482718,0.706848,-0.517058
0.806521,0.211588,0.286246,-0.382864,0.412336,-0.826676
-0.063056,0.541058,0.682871,0.088318,0.945334,0.313917
-0.014022,0.693122,0.809211,0.749787,0.592284,-0.294990
-0.170745,0.288621,0.896988,-0.397660,-0.909477,0.121320
-0.442047,0.153730,0.469877,-0.762524,-0.083309,-0.641574
-0.145524,0.036181,0.827160,-0.045103,-0.998706,-0.023510
-0.314030,-0.167988,-0.067404,0.556763,-0.240017,0.795240
-0.091097,0.621175,0.782453,0.792729,-0.592939,-0.141440
0.204928,0.150479,0.616863,-0.437150,-0.438421,0.785294
0.637516,0.416255,0.543776,0.992256,0.097216,-0.077313
-0.371277,0.440601,0.832851,0.366028,0.914669,-0.171477
-0.059820,0.491703,0.935224,-0.678492,-0.715025,0.168488
-0.203019,0.342558,0.847026,-0.525872,0.174886,0.832390
-0.074753,0.300459,0.014354,0.156105,0.970032,-0.186198
0.184518,0.276948,-0.222327,0.363265,0.927607,-0.087087
0.694100,0.296538,0.580452,0.259401,0.279381,-0.924477
-0.162946,0.349061,0.936924,-0.265215,0.823300,0.501834
-0.218950,0.617341,0.751593,0.989394,-0.106275,0.099025
-0.576453,0.426928,0.258021,-0.692112,-0.647625,-0.318688
-0.326806,0.363400,0.781657,0.546571,0.734422,-0.402348
-0.098149,0.254938,-0.993560,-0.143122,-0.057583,0.988029
-0.298681,0.104544,0.619327,-0.462813,0.874408,-0.145652
0.148595,-0.097293,0.710815,0.028420,0.942882,0.331912
-0.408279,0.451520,0.689171,0.842999,0.154062,0.515381
0.075667,0.457858,0.745854,-0.150099,0.825603,0.543921
-0.465195,-0.021760,0.754571,-0.186506,0.765350,-0.615999
-0.547498,0.682452,0.650467,0.442838,-0.851643,0.280353
-0.685307,0.595913,0.575212,0.020802,-0.557433,0.829961
-0.071849,0.352147,0.924075,0.741873,-0.072435,-0.666617
0.320418,0.348727,0.640378,-0.614195,0.222233,0.757217
-0.232557,0.181075,0.762243,0.794934,-0.588506,0.147445
-0.536960,0.353648,0.522708,0.985747,-0.162383,-0.043981
-0.288060,0.604584,0.735469,0.624641,0.775492,-0.091849
0.483032,-0.025595,0.206624,-0.544802,-0.048438,0.837164
0.485772,0.394915,-0.021823,-0.672469,0.713700,0.196003
-0.490914,0.150563,0.716164,0.182510,0.501944,0.845424
0.113996,-0.322052,0.462891,0.442536,0.148322,-0.884399
-0.664646,0.238933,0.539768,-0.043936,-0.715940,0.696778
-0.286237,0.738475,0.756629,0.550897,0.572100,-0.607630
0.016263,0.106126,0.838340,0.235358,-0.740426,-0.629584
0.048454,-0.547897,0.619187,0.450944,-0.631302,-0.630958
-0.021820,0.351312,-0.231605,0.941862,-0.006760,0.335931
-0.314113,0.512296,0.816478,0.423552,-0.812127,0.401315
-0.245166,0.005002,-0.380244,0.374667,0.223227,-0.899886
-0.498796,-0.367903,0.522942,-0.224509,-0.046250,-0.973374
0.229984,0.024592,0.575321,-0.552307,-0.736827,-0.389926
-0.067287,0.164485,0.227863,0.816868,-0.441053,-0.371750
-0.069444,0.154481,0.880116,-0.245937,-0.837372,0.488183
-0.435824,-0.139725,0.712265,0.772880,0.509213,0.378628
-0.771094,0.493456,0.534435,0.515713,0.360138,-0.777394
0.248817,0.022175,0.719797,0.926970,-0.372151,0.047217
-0.302165,0.564485,0.699899,-0.347852,0.829524,-0.436909
-0.360575,-0.567736,0.190376,0.773875,0.332808,-0.538847
0.308221,0.660358,0.730915,-0.683731,-0.598936,-0.416877
-0.188749,0.238348,0.843860,0.646599,-0.188156,0.739261
0.213805,0.197333,0.370841,0.477257,-0.273271,-0.835194
0.152990,0.173405,-0.124617,0.680270,0.590736,0.433894
-0.105035,-0.059358,-0.414472,0.254970,-0.864211,-0.433739
-0.756409,0.087704,0.679066,0.994251,0.051417,-0.093924
-0.343482,0.734890,0.756739,0.574092,0.328880,-0.749837
0.094252,-0.483786,0.617783,-0.523148,0.731396,0.437465
-0.046130,0.499209,0.558683,0.439762,0.558646,0.703224
0.606735,-0.339225,0.444522,0.481444,0.448564,-0.752995
0.686218,-0.040183,0.226584,-0.264897,-0.598997,0.755667
0.240024,-0.101625,0.648705,0.952489,0.052951,-0.299936
0.592880,-0.210255,0.521648,0.231127,0.566911,0.790691
-0.033850,0.311631,0.939886,-0.250285,-0.923027,-0.292196
0.130258,0.404000,0.832103,0.873435,-0.410018,-0.262671
-0.870985,0.383242,0.559322,-0.129940,0.991169,0.026463
0.064714,-0.125136,0.630570,0.765599,0.245516,-0.594626
-0.127023,0.130471,0.524221,0.661493,0.526430,-0.534134
-0.124367,0.280866,0.940073,0.852482,0.478270,0.211028
-0.386957,0.400415,0.833148,0.334513,0.915617,-0.223037
0.432008,0.200249,-0.208542,0.720554,0.621340,0.307796
0.121878,0.346728,0.758485,0.311421,0.002407,-0.950269
0.051771,0.028261,0.692648,-0.507944,-0.742607,0.436495
-0.119721,0.406419,0.683089,-0.190372,-0.889912,0.414505
-0.063468,0.232847,0.645150,0.660574,0.711551,0.239453
-0.218867,0.081201,-0.375675,-0.089000,-0.170556,0.981320
0.230316,0.221258,-0.381866,0.442930,-0.435413,-0.783727
0.223761,0.492622,0.616536,-0.465589,-0.432555,-0.772090
0.899775,0.402084,0.282737,-0.052963,0.520180,0.852413
-0.417986,-0.538974,0.552024,0.935961,0.070426,0.344989
0.090185,0.526968,0.817382,0.985707,0.049892,-0.160913
0.459470,0.352231,0.440826,0.888799,-0.215740,-0.404341
-0.515887,-0.078618,0.704640,0.954531,0.035089,0.296040
-0.687545,-0.167487,0.403417,-0.230256,0.903870,0.360557
-0.027378,0.366570,0.793524,0.777198,-0.133695,-0.614889
-0.151664,0.186494,0.519246,0.950907,-0.308600,-0.023265
-0.425869,0.593247,0.702831,-0.710070,0.094110,-0.697813
-0.516801,0.025009,0.789049,0.833240,0.494234,0.247879
-0.121298,0.249937,-0.564016,0.315780,0.781347,-0.538312
-0.275866,-0.289954,0.219645,0.709810,0.589909,-0.384939
0.333609,0.129220,-0.083465,-0.301767,0.875765,-0.376792
-0.081058,-0.040600,0.799637,-0.256983,0.728861,0.634603
-0.688376,0.109461,0.577193,0.262998,0.206861,0.942359
0.068198,-0.535641,0.610423,0.800535,0.350026,-0.486442
0.488509,0.086620,0.209992,0.385684,-0.116836,-0.915203
-0.480128,0.782158,0.662490,0.343732,-0.560957,0.753111
0.536631,0.178824,0.523316,0.251053,-0.838626,0.483403
0.198292,-0.149647,0.655395,0.997429,-0.012551,0.070548
0.143949,0.417591,-0.578191,-0.051031,0.978598,0.199353
0.556957,0.437764,0.016459,0.817739,-0.572859,-0.055988
-0.184934,0.003834,0.784573,0.092600,0.576508,0.811827
-0.728947,-0.043936,-0.022213,0.079203,-0.064960,0.994740
0.683813,0.066360,0.485034,-0.766363,0.547760,-0.335629
-0.022567,0.193247,0.740895,-0.580667,-0.768907,-0.267597
-0.086367,0.566319,0.880786,0.981361,-0.059282,-0.182800
-0.531651,0.725967,0.434776,0.195449,0.425055,0.883815
0.056417,0.278116,0.884419,-0.261616,-0.804272,0.533577
-0.266571,0.146060,0.741519,-0.274789,0.452056,0.848608
0.094500,0.334973,0.860140,0.408365,-0.705297,-0.579478
0.006472,-0.004335,0.832555,0.207075,0.695327,0.688215
-0.674769,-0.156399,0.655036,0.754157,0.120531,0.645538
-0.094832,0.177989,0.812626,0.778399,-0.500732,-0.378632
0.095495,0.726051,0.774578,-0.342392,0.904714,-0.253496
-0.004894,0.342224,-0.011204,0.771960,-0.631371,0.073811
0.390773,-0.025511,0.609674,0.129637,0.568992,0.812060
0.020658,-0.495873,0.596950,-0.706842,0.567264,0.422596
0.495560,0.573072,0.482352,0.610981,0.649567,-0.452510
-0.024061,0.236849,0.073579,0.873945,-0.392519,0.286617
-0.370447,0.066943,0.679129,0.719975,-0.421733,0.551160
-0.631212,0.074364,0.735531,0.183055,0.973183,-0.139307
-0.373351,0.170405,0.730900,-0.106071,0.708704,0.697486
0.361486,-0.208837,0.481869,-0.731183,-0.632723,0.255015
0.369535,0.522552,0.601940,0.506764,-0.701578,0.500977
0.285905,-0.135890,0.484161,-0.394093,-0.548929,0.737135
0.472745,0.499957,0.005294,-0.704239,0.701284,0.110668
-0.566581,0.544811,0.479826,0.018625,-0.222182,0.974827
-0.565171,-0.194498,0.650327,-0.480634,-0.163435,-0.861557
-0.566830,0.154313,0.707743,0.954960,-0.264075,-0.135333
0.841533,0.318632,0.290830,0.145133,0.178489,0.973180
-0.221272,0.392579,0.900076,0.912267,-0.360102,-0.195180
0.229736,-0.099709,0.661726,0.783317,0.277640,0.556175
0.494732,0.129802,0.510545,0.010572,-0.593561,0.804719
0.134406,0.334806,-0.872787,0.992134,0.114664,0.050231
-0.241766,0.211504,0.936331,0.692400,0.110360,-0.713024
0.190243,-0.349730,-0.031881,0.080473,-0.398078,0.913815
0.159877,0.161065,0.550247,0.398070,0.720237,-0.568154
0.176968,0.046770,0.723805,0.273145,0.668757,-0.691488
-0.172405,-0.271030,0.241461,-0.210083,0.340527,0.916464
-0.149755,0.328219,0.944050,0.460222,-0.135014,-0.877478
-0.071933,0.076949,-0.849614,-0.791453,0.602020,-0.105708
-0.434497,0.892872,0.683932,0.792327,-0.609750,-0.020582
0.125197,0.427094,-0.856398,0.878730,0.477311,-0.002720
0.106114,-0.486371,0.476769,-0.640059,0.468142,0.609235
-0.188169,0.085203,0.144686,-0.557316,0.814226,-0.162589
0.234879,-0.477117,0.480028,0.017859,0.672706,0.739694
0.087281,0.434263,-0.649391,-0.385008,0.908785,0.160870
0.356923,0.722884,0.630726,0.170771,-0.185697,0.967654
0.127187,0.367402,-0.845186,0.911907,0.327088,0.247868
-0.596532,0.887119,0.500300,-0.476045,-0.593805,0.648673
0.716667,-0.240683,0.536181,-0.524206,0.487532,0.698227
-0.714179,-0.251023,0.450666,-0.375224,0.926043,0.040644
-0.213226,0.434098,0.809975,-0.474359,0.680449,-0.558545
-0.113831,0.128886,0.858004,0.248088,0.697514,0.672255
-0.445283,-0.473115,0.552134,0.806978,-0.217124,-0.549220
-0.658590,-0.339810,0.451180,-0.528963,-0.697273,0.483744
-0.199120,0.421092,0.650234,0.766932,0.641712,0.004552
0.005892,0.328552,-0.475740,-0.737369,0.421076,0.528187
-0.447937,-0.146227,0.507208,-0.304557,0.630881,0.713606
0.119057,0.422842,0.076744,-0.699465,0.682451,0.212153
-0.043972,0.396998,-0.639224,0.987217,-0.106655,-0.118439
-0.193562,0.359064,0.690060,0.492639,0.866934,-0.075711
0.619679,0.371154,0.571704,-0.483697,0.189406,0.854496
-0.245748,0.439517,0.665593,0.171852,0.871925,0.458491
0.089023,0.409836,-0.927879,0.106005,0.987600,-0.115797
0.586908,0.022175,0.485252,0.473004,-0.548629,0.689401
-0.502199,0.346560,0.532096,0.965866,-0.124947,0.226919
-0.094168,0.087785,-0.971885,0.390333,-0.233957,-0.890452
-0.296524,0.171321,0.885293,0.843271,0.464244,-0.270870
-0.031029,0.305209,-0.097110,0.886621,-0.431951,-0.165294
-0.054012,0.123302,0.894244,0.855805,-0.194024,-0.479534
0.030781,0.147729,0.842363,0.991319,-0.112240,0.068480
-0.665312,0.238933,0.406036,-0.550137,-0.609276,0.571080
0.271219,0.123884,0.691074,-0.281951,-0.858193,-0.428962
-0.055505,0.486536,0.845591,0.293048,-0.014144,0.955993
0.384468,-0.116633,0.668759,0.056198,0.989881,-0.130294
0.031112,0.187828,0.382147,-0.494359,-0.027010,0.868838
0.246412,0.353147,0.785852,0.681880,0.262931,-0.682574
-0.819877,-0.037850,0.636838,-0.019406,0.841431,0.540016
-0.031113,0.652687,0.797578,0.918539,0.314553,-0.239465
-0.257945,0.594163,0.470813,0.165479,0.154418,-0.974049
-0.159214,0.499957,0.755850,0.985020,0.142625,0.096922
0.039906,0.540557,0.675449,0.248191,0.908406,0.336452
-0.352857,0.635598,0.783185,0.365953,0.194291,0.910126
-0.209407,0.004501,0.768340,0.874727,0.483545,0.032200
-0.783040,-0.005752,0.638133,-0.312798,0.644364,0.697820
-0.550319,0.078865,0.723415,-0.750575,-0.622595,-0.221389
-0.009209,-0.280535,0.597574,0.906532,0.042290,-0.420014
-0.095743,0.354732,0.960626,0.761152,0.497294,-0.416350
-0.733178,0.020175,0.619561,0.386548,-0.836776,-0.387798
-0.093254,0.217256,0.924745,0.763728,-0.258437,0.591549
0.313450,-0.346646,0.346344,-0.683648,-0.639828,0.351063
0.240522,0.318383,0.783248,0.878588,0.391003,-0.274226
-0.090102,-0.391747,0.645805,-0.439749,0.820394,0.365479
-0.241598,0.052354,0.747772,-0.239902,0.740729,0.627508
-0.322575,0.377657,-0.088237,-0.264534,-0.963217,0.047281
-0.291463,0.306044,0.589075,-0.607308,0.321307,0.726594
-0.090517,0.386827,-0.107838,0.418373,0.903857,0.089475
-0.451423,0.427010,0.591196,0.910241,-0.392453,-0.132067
0.194805,-0.033932,0.131603,0.815113,0.570104,-0.102822
0.082220,0.217256,0.860093,0.985669,0.093028,-0.140719
-0.129180,0.203085,-0.315686,0.635004,-0.763576,0.117144
0.079483,0.647103,0.733566,-0.534544,0.738440,-0.411058
-0.030864,0.596331,0.878712,0.994784,0.073636,-0.070594
0.323489,-0.250521,0.502218,0.615716,0.703101,-0.355730
0.075333,0.279782,-0.431033,-0.364919,0.928553,0.067999
0.246743,-0.148812,0.635170,0.858673,0.330854,0.391429
-0.074837,0.328137,0.781782,-0.728666,-0.049778,0.683058
0.049282,0.282118,0.915716,0.659450,-0.748112,-0.073856
0.032854,0.292539,-0.355029,0.982613,0.177025,0.055976
-0.312536,0.465526,0.867251,-0.473465,0.774276,0.419914
-0.157388,-0.446020,0.637260,-0.457459,0.888814,0.027210
-0.071350,0.262360,0.417747,0.375376,0.838093,-0.395844
0.395918,-0.111548,0.510545,-0.353160,0.261605,0.898243
-0.316602,0.197081,0.876950,0.828897,0.551306,0.094820
0.160292,0.319716,-0.182594,-0.257230,0.479480,0.839007
-0.091679,0.534138,0.749363,0.181130,-0.971885,-0.150435
-0.332698,0.404252,0.696126,0.113475,0.141530,0.983409
-0.043889,0.132972,0.592724,0.120576,-0.830529,0.543767
0.612794,0.527887,0.281412,0.438546,0.597849,0.671010
-0.781214,0.005002,0.640425,0.244150,-0.741472,-0.624989
0.028208,0.411422,-0.872194,0.880578,0.461437,0.107970
0.366051,0.835264,0.622446,0.161901,0.095706,-0.982155
-0.444701,0.667945,0.468021,-0.609975,-0.081994,0.788167
0.117315,-0.016591,0.120984,-0.669265,-0.295410,0.681775
-0.285738,0.477283,0.856569,-0.428922,0.881670,0.196682
-0.260682,0.378991,0.843985,0.238101,0.799721,-0.551139
0.185680,0.165235,0.728997,-0.259993,-0.797175,-0.544899
-0.088360,0.641017,0.757393,-0.175522,0.870692,0.459442
-0.450345,0.819342,0.783903,-0.114294,-0.968906,-0.219449
-0.122956,0.521717,-0.483163,-0.558549,-0.818754,0.132908
0.000580,0.234682,0.933524,0.981600,0.058307,0.181827
-0.104871,0.470780,0.878790,0.779575,-0.221204,-0.585944
-0.410768,0.208087,0.674716,0.212225,-0.108622,0.971165
-0.388451,0.166403,0.559821,0.900495,-0.057292,0.431076
-0.053844,0.136389,0.902462,0.790198,0.545340,0.279628
-0.668880,0.530721,0.628246,-0.032782,0.928597,0.369639
0.289720,-0.009838,0.492004,0.626024,-0.287454,-0.724889
0.363147,0.592581,-0.252906,-0.578407,0.783078,0.228548
0.904422,0.381408,0.281723,0.086654,-0.472185,-0.877230
-0.005889,0.321466,-0.801711,0.947624,0.207368,-0.242914
-0.026218,0.118715,0.211973,0.951030,-0.241767,0.192590
0.162283,0.674781,0.703860,-0.856620,0.514868,-0.033364
-0.410188,0.370821,0.459959,0.349817,0.342547,-0.871946
0.266574,0.156982,0.724553,0.966690,0.157061,0.202093
