0.204853,-0.203725,0.562206,-0.442261,-0.176503,-0.879347
0.003701,-0.778899,0.573291,-0.601011,-0.493868,-0.628394
-0.446153,0.149671,0.550081,0.992504,-0.116482,0.036984
0.116023,-0.496901,0.657089,0.746297,-0.638630,-0.187596
-0.095239,0.379916,0.794635,-0.266718,-0.947844,0.174510
-0.111040,0.402947,0.806422,0.253046,-0.904634,0.342937
0.081999,0.557053,0.040669,-0.164899,-0.530614,0.831418
0.269414,0.750313,0.688045,0.836194,-0.543733,0.071649
0.710299,-0.055242,0.708593,0.741486,0.380289,-0.552792
0.126202,-0.492497,0.716933,0.915463,0.085490,0.393216
0.575272,-0.015884,0.687870,-0.325760,-0.424250,0.844921
0.112819,-0.164437,0.377443,-0.181051,0.336305,0.924186
0.367570,0.407689,0.389987,0.442022,0.406669,-0.799523
-0.265500,-0.152650,0.281924,-0.312839,0.928573,0.199710
0.311054,-0.644503,0.432704,-0.044752,0.352539,0.934726
0.229482,0.733312,0.655305,-0.618420,-0.674860,0.402642
0.179586,0.044201,0.288237,-0.602645,0.745181,0.285527
0.824543,0.534903,0.535954,-0.694374,-0.707894,-0.129350
0.865970,-0.159493,0.452319,0.804964,-0.569428,0.166688
-0.596056,0.251685,0.604274,-0.097620,0.981838,0.162680
-0.330627,-0.176493,0.626417,-0.165264,-0.982250,-0.088728
-0.655989,-0.230821,0.801488,-0.314439,-0.154815,0.936568
0.169905,-0.089111,0.873174,-0.546849,0.596720,0.587266
0.405295,-0.149196,-0.974478,-0.198831,-0.013885,0.979935
0.551355,0.480171,0.331752,0.657328,0.053132,-0.751729
-0.647092,-0.243557,0.586944,0.989430,-0.143220,-0.022742
0.550574,-0.290160,0.644572,0.213798,-0.556908,-0.802586
-0.388354,-0.196680,0.652642,-0.453153,0.265027,-0.851125
-0.525873,-0.133954,0.834851,-0.879374,0.182147,0.439914
0.450495,0.576562,0.414631,0.262399,-0.291112,0.920000
0.528721,-0.582253,0.711148,0.039957,0.877485,0.477937
-0.766886,-0.075495,0.276936,0.964386,0.227504,-0.134917
-0.187415,0.298086,0.489912,0.633836,0.501851,0.588556
0.257812,-0.781743,-0.747308,0.926267,0.358553,-0.116057
0.324649,0.641322,0.663132,-0.335297,0.737473,-0.586268
-0.325147,0.428620,0.685071,0.683682,0.389326,0.617255
-0.146273,0.163083,0.849220,0.366353,0.929924,-0.032037
0.325931,0.256291,0.154950,-0.373761,0.847467,-0.376965
0.410848,0.673701,0.420511,0.320057,-0.313269,-0.894106
-0.458608,0.283930,0.606032,0.683830,0.616616,0.390079
0.519539,-0.311228,0.652831,0.107055,0.364999,0.924832
0.425723,-0.402269,-0.975870,0.201447,-0.053280,-0.978049
-0.485513,0.255954,0.606505,0.556585,0.431896,0.709704
0.136735,0.008570,0.831187,-0.053215,0.760736,0.646876
0.024985,-0.011819,0.771316,-0.378998,-0.771709,0.510712
0.191829,0.089585,-0.443829,-0.579268,0.815063,-0.011004
0.213110,0.208875,0.720367,-0.617701,-0.406302,-0.673323
0.142999,0.036953,0.963204,0.752810,-0.519325,0.404448
0.076944,0.780660,-0.073058,0.556961,0.271806,-0.784803
0.233468,0.788451,0.288210,-0.466420,0.461640,-0.754547
0.076375,-0.008297,-0.373914,-0.547689,0.824763,0.140720
-0.257172,0.130365,0.842353,0.433832,-0.808427,0.397788
0.398177,-0.203386,-0.975046,-0.226329,0.030042,0.973587
-0.750516,-0.292329,0.800447,-0.368735,0.700483,0.611030
0.098512,0.451246,0.737318,0.724000,0.091519,-0.683702
0.160082,0.285150,0.779765,0.920016,0.151722,0.361320
-0.105631,-0.674648,0.570196,-0.486773,0.173115,0.856203
0.211403,0.591532,-0.976763,-0.560157,0.136758,0.817020
0.359742,-0.272006,0.629337,0.458683,0.633279,0.623352
-0.070254,-0.822455,0.572913,0.439063,-0.691110,-0.574100
-0.481315,-0.133886,0.176579,-0.272107,0.961815,-0.029492
0.099935,-0.829908,0.586971,0.474686,0.638106,0.606213
-0.019502,-0.769687,0.568262,-0.185902,0.841218,0.507732
-0.329633,-0.027061,0.556015,0.375076,0.840716,0.390531
0.167628,0.031940,-0.184122,0.301677,0.952449,0.042801
0.212256,-0.127992,0.897628,-0.546801,0.703170,0.454489
-0.331483,0.206096,-0.026272,0.223101,-0.373595,0.900363
-0.042780,0.320847,0.433177,-0.120408,-0.398058,0.909424
0.406149,-0.012429,0.721259,-0.295719,0.901218,-0.316792
0.512277,0.454158,0.406412,-0.213797,-0.681470,0.699921
-0.714855,-0.137206,-0.028787,0.506479,0.359038,0.783946
0.224499,0.645657,0.555556,0.957334,0.277228,-0.081582
0.145063,-0.078407,0.883826,0.992348,-0.074369,-0.098566
-0.395829,-0.017037,0.388960,-0.020395,-0.470417,0.882208
0.446294,0.181236,-0.974045,-0.290429,0.073418,0.954076
-0.648871,-0.488570,0.480531,0.458718,0.614390,-0.641952
-0.455760,-0.267266,0.737724,0.588671,-0.646355,0.485481
0.060218,0.179272,0.317004,0.532381,0.785972,-0.314354
-0.425154,-0.253581,0.747430,0.814509,-0.566165,0.126618
0.181793,0.462760,0.824185,0.277333,0.898497,-0.340280
-0.277102,0.499272,0.669120,0.396406,-0.074942,0.915012
0.005624,0.319493,0.753202,-0.540990,0.139672,-0.829350
0.294612,-0.498052,-0.970842,0.204393,0.117629,-0.971796
0.044772,0.480847,-0.991254,-0.080491,-0.042544,-0.995847
0.766388,0.154411,0.710120,-0.378610,0.293868,0.877665
-0.124992,-0.884369,0.593203,0.443945,-0.673349,0.591197
0.142571,0.030923,-0.609141,-0.705767,0.701903,0.096047
0.162858,0.124606,0.464106,0.983841,-0.163699,-0.072517
-0.005339,0.181304,0.896615,0.670019,0.619738,0.408656
0.730514,-0.208738,0.267284,0.779291,0.076639,-0.621958
-0.274752,0.216325,0.196545,-0.124541,0.647971,0.751414
0.042565,0.688875,0.436178,-0.193489,0.613941,0.765270
0.044559,-0.182185,0.878270,-0.745794,-0.448703,-0.492400
0.136237,0.847045,-0.990105,0.201284,0.099725,-0.974443
-0.225425,-0.781677,0.585228,0.275376,0.844622,0.459109
-0.407146,-0.397190,0.462876,-0.177998,-0.931835,-0.316228
0.350203,0.017171,0.660536,0.152458,0.984632,-0.085187
0.098653,0.580628,-0.989551,-0.049010,0.083703,0.995285
0.190335,0.415817,0.460200,-0.068211,0.193256,0.978774
-0.155170,0.260221,0.489858,0.158514,0.030766,0.986877
-0.601608,-0.488502,0.487371,0.124292,0.967179,0.221623
-0.361165,0.446572,0.736656,0.182121,-0.972167,0.147390
-0.460959,-0.303775,0.591973,-0.497980,0.381202,-0.778910
0.159869,0.074887,0.884975,0.959454,0.186792,0.211087
-0.278027,-0.048602,0.625714,0.405199,-0.651046,0.641835
-0.080290,-0.100152,0.694264,-0.343006,0.473892,-0.811032
0.409210,0.103202,0.726342,0.180070,0.769609,-0.612598
-0.097587,0.654259,0.576076,-0.340808,-0.585744,0.735359
-0.517689,0.191940,0.459294,0.957174,-0.261276,0.124713
-0.357250,0.149737,0.596502,0.180952,-0.841629,0.508838
0.093529,0.352279,0.681246,0.177877,0.873855,0.452478
0.576553,0.285486,0.826402,-0.584925,0.809499,-0.050743
-0.686668,-0.269025,0.791620,-0.459977,-0.277726,-0.843380
0.115951,0.298562,0.013173,-0.692751,-0.381644,0.611918
0.165706,0.156511,0.846584,-0.188764,0.025517,0.981691
0.270268,0.095681,0.757541,-0.281777,0.959205,0.022985
0.235603,0.432074,0.408439,-0.308243,-0.056396,0.949635
-0.026336,0.209687,0.484316,0.028342,-0.098054,0.994777
0.374189,-0.809450,0.666917,0.091996,-0.914238,0.394595
-0.309987,0.172431,0.333455,0.429171,0.046530,0.902024
-0.073387,-0.011819,0.190921,0.852270,0.257511,-0.455328
-0.228129,-0.243691,0.701442,-0.202207,-0.973943,0.102697
-0.000497,-0.571075,0.374644,0.038504,-0.295048,0.954706
-0.545021,-0.288060,0.770032,0.338288,-0.507909,0.792205
-0.036728,0.784861,0.206129,0.941058,-0.289239,0.175361
0.169335,-0.102726,0.893032,0.911329,0.375008,0.169848
0.141149,0.026385,0.565451,0.798829,0.462984,-0.384081
0.278809,-0.435190,0.688181,-0.661981,-0.616597,-0.426133
0.099866,-0.288467,0.871106,0.979605,-0.078707,0.184876
0.290839,0.447453,0.618347,-0.177768,-0.053680,0.982607
0.289485,-0.136189,0.549256,-0.672971,-0.382026,0.633376
0.090612,0.759119,-0.070179,0.505876,0.363305,-0.782368
-0.263862,-0.339001,0.506364,-0.693687,-0.094979,0.713987
-0.412983,-0.407892,0.859751,-0.274505,0.900451,-0.337394
0.310484,0.026180,0.715906,0.488120,0.845535,-0.216355
-0.248059,0.070822,0.823523,0.821217,-0.242172,0.516677
0.074809,0.699916,0.282830,-0.027327,-0.459511,0.887752
-0.456973,0.511601,0.167603,-0.452127,0.425512,0.783913
-0.104278,-0.228383,0.357490,0.667106,0.453780,-0.590808
0.243078,0.222558,-0.057391,0.840363,-0.219145,-0.495747
-0.076019,0.502997,0.248062,0.211269,0.243279,-0.946668
-0.782191,-0.016223,0.410426,-0.495948,0.546742,0.674617
-0.093814,-0.376528,0.343337,-0.948642,0.309303,0.066402
0.455191,-0.497374,-0.976060,-0.280918,-0.027904,0.959326
-0.441170,0.394887,0.751918,0.208464,0.977835,-0.019543
-0.622820,-0.422863,0.840217,-0.551816,-0.146207,0.821050
0.069541,-0.915868,0.594001,0.216464,0.511711,0.831442
0.076873,0.230484,0.832390,0.846935,-0.453641,-0.277329
-0.106485,-0.778628,0.573561,0.003453,0.660887,0.750477
-0.165350,0.124606,0.849193,-0.444621,0.895588,0.015289
0.823118,-0.047721,0.658063,0.943016,0.287585,-0.167376
0.503310,-0.035799,0.683612,-0.235986,-0.404150,0.883727
-0.258453,0.374768,0.767937,-0.364227,-0.896083,0.253721
0.604312,0.269027,0.804530,0.569937,0.710382,-0.412953
0.109048,0.071498,0.062852,0.881466,0.348344,-0.318864
0.014877,0.841288,0.603193,0.137364,-0.809836,0.570348
0.154104,0.152245,0.892897,0.829247,-0.529338,0.179304
-0.576197,-0.650805,0.519882,0.902496,0.294173,0.314584
0.231476,0.326606,0.719867,0.824118,-0.559028,-0.091197
0.533989,-0.227366,-0.971328,-0.236305,-0.033412,0.971104
-0.231049,0.036207,0.695507,-0.325007,0.945225,0.030331
0.225781,0.720983,0.578063,-0.304980,0.244971,-0.920313
0.371556,0.829432,0.602747,-0.099005,-0.395476,0.913125
-0.081856,-0.483962,0.784834,0.504820,0.859914,0.075529
-0.044843,0.444064,0.429852,-0.017829,-0.362859,0.931674
-0.205851,0.564506,-0.036330,0.012603,-0.971700,0.235881
-0.369493,-0.394140,0.871336,-0.524852,0.812677,-0.253153
0.071036,0.005452,-0.988334,-0.487321,0.059272,0.871209
0.198235,0.297003,0.805341,0.994326,-0.106315,-0.003624
0.090968,0.453073,-0.989456,-0.204546,0.102169,0.973510
0.163001,0.555158,0.681719,0.776105,0.133377,-0.616337
-0.643178,-0.649653,-0.031788,0.019846,0.896959,0.441668
0.114029,0.133954,0.441558,0.836126,0.341001,0.429664
0.196384,-0.232311,0.837243,0.877338,-0.463119,-0.125695
-0.459534,0.471093,0.475732,-0.241905,0.827256,0.507079
0.820557,0.347807,0.536076,-0.807813,0.566747,-0.161978
0.550358,-0.099745,0.726261,0.009351,0.910877,0.412572
-0.529147,-0.647689,0.640854,-0.262491,-0.929045,0.260719
0.531069,0.414464,0.324817,-0.186636,-0.266377,0.945627
0.030037,0.014868,0.622469,0.174674,0.780255,-0.600576
-0.291977,-0.194309,0.622713,-0.113520,0.915397,0.386215
0.218734,0.729856,0.569979,-0.703531,-0.209558,0.679065
0.601821,0.217815,0.572237,-0.014432,-0.877949,0.478536
-0.635062,-0.264961,0.788051,0.587776,-0.798691,0.128889
0.025554,0.070076,-0.985671,0.289548,-0.086778,-0.953222
0.151328,0.003218,0.556529,-0.892208,0.079906,0.444500
-0.648374,-0.505368,0.823333,-0.051772,-0.817843,0.573108
-0.112534,-0.668281,0.549756,0.336749,0.189242,0.922382
-0.083422,0.808367,0.079006,0.819430,0.279560,0.500381
0.283792,0.498459,0.607654,-0.695665,-0.159473,0.700442
-0.099935,0.125081,0.571399,-0.516809,-0.506151,0.690449
0.119796,-0.017984,-0.974167,-0.484182,0.136535,0.864249
0.322727,0.939984,0.605707,0.303271,-0.616406,0.726684
-0.001423,0.518646,0.549608,0.073143,-0.680431,0.729152
-0.113744,-0.695581,0.562585,-0.454432,0.187268,0.870875
-0.465583,-0.033767,0.879054,0.328579,-0.877485,0.349364
-0.294256,-0.768670,0.620604,0.472946,-0.546612,0.691041
-0.433767,0.158205,0.586566,-0.595817,-0.783017,-0.178568
0.434977,0.786488,0.003873,0.882744,-0.069158,-0.464737
0.838565,-0.261777,0.494319,0.813594,-0.277746,-0.510806
-0.424157,-0.085791,0.108854,0.155108,0.874576,0.459411
0.446294,0.000644,0.722665,-0.283828,0.932480,0.223435
0.123995,-0.515733,0.007104,-0.395816,-0.010598,0.918269
-0.302725,-0.130907,0.091307,0.303794,0.785870,0.538626
0.361377,-0.343946,0.749093,0.455427,0.088495,-0.885864
0.163998,-0.310550,-0.988172,0.053398,-0.000636,0.998573
0.140580,0.806877,0.295334,-0.027132,-0.310595,0.950155
-0.141505,-0.884437,0.593784,-0.544196,0.531169,-0.649393
-0.440742,-0.718746,0.643274,0.472165,0.851624,-0.227590
0.091322,-0.175478,0.517367,0.763459,0.010415,-0.645772
-0.163071,-0.678849,0.561084,0.130460,-0.260375,0.956653
-0.036018,-0.374834,0.586809,0.193225,-0.495993,0.846555
0.744536,-0.273362,0.275341,0.762337,0.073370,-0.643008
0.191686,0.059848,-0.315260,0.647601,-0.761334,0.031355
-0.599260,0.118441,0.583132,-0.073336,-0.378965,0.922501
0.007900,0.650804,0.365736,0.009278,-0.369662,0.929120
0.310841,-0.466146,0.401275,-0.693144,0.581445,0.425997
-0.801196,-0.083149,0.798947,-0.792651,0.598457,-0.116417
-0.408641,0.208670,0.614548,-0.284417,0.510508,-0.811473
0.188199,0.120746,0.519652,0.961302,0.150850,0.230528
0.198235,0.048333,0.824212,-0.317543,-0.930731,-0.181401
0.392199,0.036953,0.678853,0.357125,0.802241,-0.478404
0.348422,0.314819,0.760678,-0.407211,0.091463,0.908743
-0.333903,0.156919,0.582767,-0.058649,-0.997529,-0.038689
-0.714498,-0.118509,0.184608,0.944540,0.056156,-0.323558
0.194961,-0.703709,0.622091,0.415748,0.656402,0.629516
-0.572283,-0.284201,0.855479,-0.506947,0.087758,0.857499
-0.475122,0.218493,0.543389,0.639821,0.143037,0.755095
0.001210,0.436885,-0.989591,0.027049,-0.112700,0.993261
-0.458752,0.376530,0.735818,0.647511,-0.594163,0.477180
0.400740,-0.006062,0.731844,0.092213,-0.949931,0.298544
0.342444,0.023811,0.879311,-0.097141,-0.975799,0.195908
-0.807743,0.052261,0.645802,0.190106,0.870731,0.453527
-0.035021,0.766030,-0.994255,-0.108362,-0.160902,0.981004
-0.321730,-0.021846,0.430703,0.586365,0.705335,-0.398345
-0.754643,-0.281354,0.794026,0.083477,0.908588,0.409268
0.163358,-0.334395,0.786510,0.991765,-0.060772,-0.112733
0.299452,0.969382,0.617238,-0.242492,0.614702,-0.750559
0.445084,0.144997,0.766301,0.266209,-0.875089,-0.404168
0.136665,-0.265097,0.834756,0.451545,-0.249139,-0.856759
0.745461,0.014666,0.706944,0.569011,0.063283,-0.819891
0.138301,0.029161,0.966232,0.973514,-0.076025,0.215615
0.228129,-0.057545,-0.909010,0.985678,-0.141096,0.092365
-0.719338,-0.070550,0.801894,-0.147021,0.523587,0.839191
0.061428,0.669703,0.769572,-0.492326,-0.856558,0.154673
0.454550,-0.581438,0.585025,0.773905,0.419549,-0.474393
0.239518,-0.128197,0.605302,0.808912,0.489972,0.324944
-0.363869,0.588756,0.442086,0.432316,-0.475451,0.766191
0.558331,0.022660,0.719569,0.238578,0.933376,0.268122
0.112462,0.797529,-0.074248,0.556961,0.271806,-0.784803
0.378175,0.020018,0.602774,-0.259020,0.537733,0.802341
0.256387,-0.385471,0.673054,-0.797779,-0.170881,-0.578229
0.068760,-0.061133,0.903711,0.541007,-0.152196,0.827132
-0.555270,0.241254,0.608749,-0.320548,-0.498924,0.805185
-0.177948,-0.193428,0.725517,-0.160272,0.743820,0.648880
0.199232,0.066758,0.488020,-0.646911,0.554513,0.523471
-0.134387,-0.658594,0.380700,-0.039571,0.152464,0.987516
-0.646167,-0.230347,0.773533,-0.546496,0.815885,0.188877
-0.719979,-0.246469,0.755689,0.835433,0.257382,-0.485598
-0.868033,-0.102929,0.523775,0.945522,0.246740,-0.212384
0.128193,-0.264014,0.729302,0.223740,0.440495,0.869428
-0.220798,0.062626,0.811573,0.772811,0.024172,0.634176
-0.772723,-0.166199,0.766639,0.863008,0.501243,-0.063036
-0.534912,0.566877,0.282370,0.120419,-0.115613,0.985968
-0.576410,-0.133819,0.594879,0.231190,0.354202,0.906141
0.007972,-0.409653,0.504958,-0.089704,0.559962,0.823648
-0.470354,-0.491212,0.295104,0.922459,-0.364862,-0.126275
-0.510570,-0.387366,0.859048,0.497466,0.859305,-0.118837
-0.436045,0.528399,0.704551,-0.459488,-0.886237,-0.058773
-0.015731,-0.589364,0.726382,-0.087915,0.856265,0.508999
0.204000,-0.453615,0.192733,0.966039,-0.050437,0.253427
0.103780,0.752345,-0.992322,-0.014581,0.048021,0.998740
-0.029681,0.175954,0.772533,0.285875,0.555252,0.781006
0.008754,0.143980,0.210563,-0.534128,-0.279073,0.798013
0.226280,-0.214971,0.521923,-0.661043,0.096852,0.744071
-0.022422,-0.096020,0.759610,0.114101,0.648823,0.752336
0.361377,-0.188552,0.813871,-0.191703,0.981354,0.013929
0.103780,-0.894056,0.484911,0.075826,-0.425247,0.901896
0.712576,-0.108213,0.664835,0.088652,0.909179,0.406858
0.336038,0.581575,-0.973586,-0.292354,-0.117491,0.949065
-0.828029,-0.086875,0.254253,0.984364,0.171416,-0.040560
0.196241,-0.390008,0.682787,0.112020,0.965543,0.234902
0.178092,0.449755,0.744240,0.926957,0.199049,-0.318011
0.266425,-0.027874,0.929287,0.769262,0.456295,0.447249
0.178305,0.155902,0.877486,-0.698529,0.692673,-0.179615
-0.231830,0.304116,-0.097647,0.133655,0.456092,-0.879839
0.181793,-0.397256,0.297524,-0.701265,-0.398894,0.590856
-0.231120,0.463641,-0.081290,0.018707,-0.706259,0.707706
0.298739,0.604403,0.648870,-0.290882,-0.520193,-0.802986
-0.304504,-0.240710,-0.041250,-0.629368,0.760978,-0.157506
0.242650,0.102253,0.849261,0.952327,0.137394,-0.272389
0.387288,0.428620,-0.972680,0.399575,-0.039230,-0.915861
-0.715495,-0.289551,0.792256,0.142799,0.843396,0.517969
-0.510783,0.419138,0.526546,-0.486331,-0.550492,-0.678558
-0.568938,-0.106180,0.116802,-0.267471,0.962475,0.045844
-0.131611,-0.553667,0.510135,0.920650,0.390349,0.005502
0.502811,-0.388788,0.660874,-0.415301,-0.733234,-0.538417
-0.028471,-0.475021,0.385013,0.525084,-0.074572,-0.847777
0.180868,0.068857,0.954742,0.947956,-0.260174,0.183546
0.184710,-0.604809,0.465120,0.931698,-0.357155,-0.066178
0.289985,-0.407079,0.805138,0.807450,0.587872,-0.049297
-0.903267,0.184285,0.630337,0.760247,-0.074105,0.645393
0.547013,0.437495,0.393083,-0.171830,-0.677892,0.714799
0.423090,0.475834,0.192003,-0.707839,0.580990,-0.401765
0.771727,-0.063099,0.639340,0.396786,-0.902227,-0.168963
0.790163,0.483557,0.368453,-0.433246,0.475319,0.765748
0.800271,-0.262387,0.281330,-0.629518,0.246427,0.736873
0.057442,0.049755,0.411494,0.837486,0.513561,0.186741
-0.427076,0.428417,0.684166,0.564284,-0.506250,0.652146
0.373407,-0.076443,0.429406,-0.555634,-0.090482,0.826489
-0.362231,-0.256020,0.359018,0.208537,-0.597498,0.774280
-0.264147,0.105775,0.811559,-0.337795,0.076320,-0.938120
0.024557,0.359187,0.181702,-0.671380,-0.720739,-0.172581
-0.188625,0.312584,0.813844,0.369633,-0.928364,0.038886
0.112393,0.048128,0.541240,-0.762092,0.640008,0.098011
-0.309703,0.305470,0.737670,-0.624678,-0.726769,-0.285630
0.547654,-0.061743,0.692628,0.165570,0.986087,0.014813
0.211118,-0.441964,-0.983792,0.354578,-0.067585,-0.932580
0.307211,-0.594445,0.733925,-0.584128,-0.773538,0.245832
0.078582,0.743607,-0.078695,0.538949,0.500407,-0.677589
0.098300,0.397189,0.351948,0.695015,0.125371,-0.707981
-0.146488,-0.270720,0.338659,0.502444,-0.019001,0.864401
-0.028899,-0.025505,0.645247,-0.402724,0.846574,0.348032
0.829027,-0.050026,0.642611,-0.616257,0.711373,0.337898
0.155955,-0.374090,0.562788,-0.615214,0.378953,-0.691308
0.162502,0.102116,0.930423,0.727555,0.334128,0.599185
0.415118,0.384251,0.631175,-0.250395,-0.157902,0.955180
-0.296391,-0.162405,0.699765,0.995318,-0.057636,0.077583
0.475265,0.410331,0.319572,0.080013,-0.349020,0.933693
-0.466011,0.433091,0.279572,0.099235,-0.114232,0.988485
-0.660401,0.564776,0.279356,0.138740,-0.102036,0.985058
0.320450,-0.539847,0.522261,-0.651193,-0.699855,0.293515
0.089402,0.118714,0.479111,-0.137830,0.835416,0.532056
-0.642750,-0.218018,0.199330,0.156631,-0.072010,0.985029
-0.582603,0.018933,0.502862,0.246794,0.322485,0.913836
0.028115,0.534293,0.155693,0.771303,0.579866,-0.262388
0.226706,0.131922,0.751174,0.332268,0.264156,0.905439
-0.459962,0.188688,0.560355,0.946515,0.269858,0.176880
0.203431,-0.731617,0.454765,0.520430,-0.759998,-0.389302
-0.324721,-0.332158,0.348190,-0.155384,-0.192909,0.968835
0.171614,0.290770,0.610750,0.761952,-0.070382,-0.643798
-0.049114,0.637868,0.576184,0.487880,0.455400,-0.744704
0.127696,-0.410805,0.684355,0.444560,0.833552,0.327959
0.678767,-0.168094,0.254496,-0.525965,0.247403,0.813728
0.221297,0.389196,0.408210,0.171236,-0.138893,-0.975391
0.232402,-0.400102,0.690884,-0.175507,-0.886072,-0.429037
-0.426792,-0.619916,0.658725,-0.351653,-0.168512,0.920839
0.106484,0.003896,0.979669,0.861075,0.508002,-0.021998
-0.708305,0.238002,0.104325,-0.920682,0.070836,0.383832
-0.139867,-0.390415,0.519854,-0.343968,-0.718898,-0.604046
0.105772,-0.029298,-0.370535,-0.627034,0.775433,0.074381
0.085344,-0.024556,0.759677,-0.502807,0.480668,0.718432
-0.440742,0.559153,0.444127,-0.280959,0.747401,-0.602042
0.212185,0.551364,-0.982481,0.355805,0.183034,-0.916461
0.538544,0.449551,0.411859,-0.310399,-0.562282,0.766480
0.157236,0.443252,-0.987401,0.198608,-0.069420,-0.977617
0.339027,-0.047045,0.423323,0.406668,0.566440,0.716775
0.737063,0.037156,0.710850,-0.442949,-0.058416,0.894642
-0.265641,0.320847,0.252523,0.986992,0.140260,0.078569
0.032244,0.779577,0.593352,-0.016328,-0.487596,0.872916
-0.077088,-0.055647,0.753162,-0.232995,0.612782,0.755123
-0.213182,0.191669,0.839217,0.493991,-0.869362,-0.013550
0.578404,-0.647824,0.674622,0.477039,-0.819291,-0.318112
-0.727525,0.368468,0.648735,0.766839,-0.530604,0.361133
0.201936,-0.133683,0.873323,0.836275,-0.486243,-0.253399
0.111537,0.224048,-0.985495,-0.079270,-0.031289,0.996362
0.406649,0.346790,0.325317,0.319590,0.131158,-0.938435
-0.702327,0.107334,0.335861,0.924098,0.273284,-0.267132
0.224642,0.507942,0.688045,0.979498,-0.097442,0.176319
0.144566,0.628112,-0.082615,0.384505,0.405234,-0.829422
-0.837212,-0.088163,0.592284,-0.016308,-0.926606,0.375680
-0.650935,0.454429,0.494292,-0.210626,-0.510254,-0.833833
0.126058,-0.497171,0.632473,-0.726800,0.147695,-0.670781
0.446509,0.676953,0.669796,-0.118589,-0.849908,0.513413
-0.277243,0.024353,0.391826,-0.525669,-0.449454,-0.722263
-0.632855,-0.077663,0.199316,-0.106430,-0.334812,-0.936255
-0.343939,-0.326130,0.082845,0.848127,-0.338017,0.407951
0.026051,0.281898,0.222607,0.916905,-0.060319,-0.394520
0.110042,0.462829,0.509838,0.892284,-0.446891,-0.064166
-0.136735,0.016832,0.056404,-0.704431,0.665082,-0.247877
0.212613,-0.235631,-0.986915,-0.037410,-0.059467,0.997529
0.292405,0.892431,0.599543,0.284498,-0.737743,0.612207
0.373976,-0.011549,0.677001,0.514767,0.475107,-0.713645
0.174603,-0.303912,0.837122,0.288599,-0.081926,-0.953939
0.373976,0.471499,-0.041737,0.892735,0.220186,-0.393118
-0.386503,0.341170,0.727045,-0.141739,0.844250,-0.516868
-0.025695,-0.290431,0.721232,0.912802,0.389410,0.123096
-0.003558,0.656359,0.051510,-0.088550,-0.597730,0.796792
0.216670,0.085115,0.309880,0.681567,-0.729336,0.059450
-0.445440,-0.194716,0.626809,-0.396520,0.843205,-0.363012
-0.612356,-0.644572,0.522058,0.976291,0.214838,-0.026457
-0.106057,0.277087,0.746822,-0.003803,-0.997723,0.067343
0.200442,0.131651,0.866010,0.455470,-0.747430,0.483627
0.203928,0.511601,0.645437,-0.193526,-0.768018,0.610488
0.074383,0.118171,0.253902,0.980095,0.160148,0.117327
0.006406,0.022455,0.486262,0.908212,0.087046,-0.409358
-0.026123,0.748552,0.585877,-0.325022,-0.201016,0.924096
0.704675,0.065878,0.709201,-0.263560,-0.761318,0.592395
0.162786,-0.002608,0.711486,-0.610401,0.425130,0.668338
0.212684,0.036614,0.939899,0.928822,0.280716,0.241843
-0.282298,0.337171,0.706862,0.593652,0.770340,-0.232709
0.869956,0.555360,0.365979,0.644194,0.237198,-0.727153
0.037156,-0.292734,0.703550,-0.425142,0.900219,-0.094128
-0.130116,0.258867,0.784564,-0.612105,0.372198,-0.697708
0.283364,-0.346180,0.007361,0.478632,0.261767,-0.838087
-0.057158,0.392245,-0.994687,-0.100294,-0.105564,0.989342
-0.053313,-0.240983,0.493008,-0.198895,0.698905,0.687002
-0.372910,0.119119,0.423133,0.988242,0.152527,-0.010676
-0.549718,-0.715833,0.358044,-0.465834,-0.631381,0.619965
-0.477541,-0.379238,0.866983,0.403028,0.563155,-0.721405
-0.658694,-0.676139,0.654575,0.310165,-0.935242,0.170643
-0.115454,0.249314,0.724355,0.415021,-0.120538,0.901792
-0.288560,0.283049,0.682341,0.107638,0.692341,0.713497
0.650152,-0.099069,0.691871,0.341889,0.377213,-0.860710
-0.489074,-0.395292,0.848112,-0.494753,-0.833322,-0.246563
0.370203,0.821711,0.708228,-0.730881,0.613228,-0.299607
-0.004342,0.568772,-0.991240,-0.050917,0.391148,0.918918
0.090968,0.676072,-0.991227,-0.309058,0.132559,0.941760
-0.397465,-0.279797,0.645410,0.723822,-0.089024,0.684220
-0.642322,-0.439527,0.347257,0.478568,-0.419785,-0.771202
0.210905,0.875226,-0.043589,-0.693117,-0.240884,0.679384
-0.722257,-0.196138,0.810870,-0.530843,-0.683726,0.500723
0.836002,0.035258,0.626998,-0.208191,0.581075,0.786771
-0.004911,0.718883,-0.104785,0.899773,0.052992,-0.433129
0.214036,-0.272413,0.652061,-0.335633,-0.538751,-0.772721
0.661329,0.065402,0.703213,0.075292,-0.930396,0.358739
-0.808668,0.129687,0.613494,0.925985,-0.375669,-0.037737
0.210334,0.384522,-0.982075,-0.100440,0.056673,0.993328
0.200726,0.034853,-0.347635,-0.653543,0.755874,-0.039204
0.088974,0.067029,0.034748,0.729261,0.668095,0.147743
0.814221,0.178120,0.560476,0.362003,0.802833,-0.473722
-0.401238,-0.344758,0.900832,0.011445,-0.880453,0.473996
0.053882,0.520475,0.148651,0.808138,0.572240,-0.139476
-0.086626,0.240644,0.097958,0.903186,0.240110,0.355812
0.284505,-0.201083,0.396625,-0.648801,0.215757,0.729730
0.304363,0.328638,0.623916,-0.372966,-0.104080,0.921989
-0.355754,-0.343404,0.870281,0.209137,0.898057,-0.386982
-0.524451,0.142084,0.331752,0.196426,-0.422207,0.884962
0.823687,0.344488,0.560233,0.958883,-0.274529,-0.071953
0.237241,-0.009856,-0.967219,-0.334356,0.021209,-0.942208
0.846037,0.476443,0.526897,0.869325,0.486333,-0.088061
0.195174,0.402203,0.603504,0.845946,-0.243654,-0.474350
0.176310,-0.209551,0.719326,0.203185,0.649856,0.732396
-0.046125,0.296596,-0.098648,-0.057595,0.392824,-0.917808
0.368780,0.258799,0.622645,-0.360395,-0.192893,0.912638
0.154317,0.770229,0.582984,0.451123,0.699191,-0.554635
-0.248700,-0.834243,0.603355,-0.155130,-0.823487,0.545714
-0.242366,0.401388,0.673933,-0.462520,-0.844896,-0.268748
0.485585,0.349432,0.327967,0.140122,-0.379121,0.914677
-0.765391,-0.237460,0.799298,0.311458,0.157002,-0.937200
-0.078654,0.027400,0.896249,-0.434206,0.896725,0.085725
0.182575,0.009924,0.886341,0.905960,0.307079,0.291442
0.028258,-0.046706,0.446087,0.969287,0.182719,0.164612
0.255890,0.956919,-0.037425,0.389965,-0.835966,0.386120
-0.592213,0.468451,0.537414,0.679733,0.165454,0.714554
0.317247,0.663946,-0.982886,-0.383649,0.270230,0.883057
0.088333,0.676477,-0.992038,-0.287465,0.130669,0.948836
-0.669157,-0.097645,0.588107,0.152644,0.280737,0.947569
-0.123141,0.012837,0.655413,0.858323,0.361455,-0.364186
0.447504,0.355462,0.633987,-0.030748,-0.459711,0.887536
-0.613922,-0.279119,0.826375,-0.519190,0.272075,0.810196
0.009538,0.039188,0.346216,-0.592887,0.713628,-0.373122
0.148552,-0.146012,0.796365,0.588545,0.649740,0.481095
0.108407,-0.017645,0.868200,0.798109,0.078391,0.597392
0.205353,-0.037629,0.771776,-0.069333,-0.833917,0.547517
-0.710512,-0.220592,0.804962,0.350974,0.532419,-0.770290
-0.183429,0.154616,-0.111219,0.136387,0.389881,-0.910709
-0.757063,-0.281151,0.627282,0.943629,0.204284,0.260445
0.127268,0.426114,0.568141,0.760914,0.528013,0.377110
0.192826,0.031872,0.207629,0.654723,0.707148,-0.266984
-0.771656,0.181440,0.592811,0.350313,0.936302,-0.024889
0.198663,-0.364674,0.757028,-0.498239,-0.838807,0.219456
-0.090897,-0.416969,0.802205,-0.224658,-0.956197,-0.187658
-0.409069,0.096698,0.411711,0.919681,-0.146643,-0.364256
0.234252,-0.379577,0.738197,-0.462237,-0.541708,0.702061
0.096234,0.114853,0.799515,0.999273,0.034152,0.016937
0.454694,-0.120068,0.812208,0.382483,-0.822353,-0.421240
0.494910,-0.016832,0.686261,-0.675988,-0.459880,0.575805
0.353192,-0.027332,0.717798,-0.568957,-0.822064,0.022341
0.348922,0.627842,0.547918,0.857334,-0.500721,-0.119401
0.219803,-0.245384,0.728437,0.874580,0.401304,0.272149
0.106769,-0.555970,0.741158,-0.536947,0.722523,0.435487
-0.383302,-0.753972,0.406236,0.498455,0.588098,0.636932
0.171115,0.052531,-0.145041,0.777376,-0.594539,0.205452
-0.288632,-0.321320,0.617941,0.725583,0.097428,0.681203
-0.319951,-0.173581,0.745321,-0.620622,0.669217,-0.408629
0.493131,-0.471838,-0.973167,-0.236596,-0.009308,0.971563
-0.181578,0.382084,-0.213158,0.529254,0.835131,0.149820
-0.554773,0.331280,0.596326,-0.591656,-0.602272,0.535921
-0.634280,0.108688,0.375874,0.999682,-0.019750,-0.015688
0.155883,0.193362,0.763665,0.499749,-0.552380,0.667179
0.562175,0.463438,0.327832,0.621960,0.191948,-0.759158
0.255178,-0.710618,0.622686,0.632238,0.539996,0.555589
-0.530785,-0.184080,0.836189,0.867909,0.108855,-0.484648
-0.420599,0.380389,0.732830,0.456942,-0.690443,0.560796
0.002492,0.616732,-0.992525,-0.146826,0.156420,0.976716
-0.012456,-0.580153,0.667322,0.934681,-0.169354,0.312556
0.286996,0.007621,0.418618,0.448715,0.893523,0.016476
0.071749,-0.411007,0.681408,-0.503045,-0.633609,-0.587780
0.216742,0.267942,0.407615,0.370188,-0.071443,0.926205
0.193465,0.517765,-0.985374,0.286586,0.034047,-0.957449
-0.143569,0.289824,0.793432,-0.464755,0.690635,-0.554100
0.382092,0.877258,0.606572,0.276771,-0.362442,0.889963
-0.671577,0.085589,0.165480,0.742670,-0.662191,0.099725
-0.262509,-0.107537,0.626106,-0.582296,0.124105,-0.803448
0.136166,0.196817,0.524410,0.931313,0.126789,0.341438
-0.101645,0.341643,0.689654,-0.464785,0.447035,-0.764287
0.107125,0.250195,0.842177,0.924408,-0.099340,0.368242
-0.164568,-0.252837,0.741685,0.722984,0.678427,-0.130503
0.207986,0.082134,-0.335888,0.675935,-0.724330,0.135858
0.178946,0.022794,0.967462,0.999545,0.029967,0.003304
0.082497,-0.652429,-0.754703,0.051945,-0.028631,0.998239
0.157449,0.070889,0.671810,0.960979,0.170297,0.217988
-0.047050,-0.731483,0.574062,-0.132606,0.372149,0.918652
0.216314,0.567350,0.268136,0.293133,-0.286191,0.912233
0.580111,0.563083,0.417618,-0.155559,-0.379149,0.912166
0.632855,0.000915,0.727166,0.140900,-0.943410,-0.300209
-0.668873,0.326808,0.624051,-0.649262,0.567499,-0.506363
0.150402,0.001254,-0.266757,-0.470406,0.876952,-0.098359
-0.418036,0.284945,0.524234,-0.694514,-0.582751,-0.421961
-0.370347,-0.182592,0.576414,0.786347,-0.605574,0.122225
0.132536,0.066554,0.974532,-0.258994,0.934009,-0.246066
-0.722755,0.056393,0.497793,0.181721,-0.726631,0.662560
0.209196,-0.074004,0.798082,0.946292,-0.010383,0.323147
0.454409,0.065878,0.467283,-0.515092,-0.711755,0.477583
-0.018080,-0.112887,0.736751,0.997714,-0.017536,-0.065259
0.484375,-0.374903,0.657657,0.329178,0.734921,0.592902
-0.813864,-0.073462,0.414860,-0.726064,-0.240547,-0.644180
-0.350204,-0.187808,0.617319,-0.033469,0.739868,0.671919
-0.165562,0.713938,0.438868,0.546121,0.456247,0.702560
-0.032245,0.230279,0.751945,-0.421759,-0.886561,0.190076
0.361805,-0.241591,-0.975451,0.358767,0.174386,-0.916993
-0.470425,-0.153260,0.581199,-0.280982,0.955198,0.092984
0.108904,0.120271,0.390487,-0.235625,-0.917750,0.319712
-0.034736,-0.815952,0.589229,0.039098,-0.148159,-0.988190
-0.341660,-0.116748,0.658779,0.145192,-0.190795,0.970833
0.097728,0.465605,0.729045,-0.513420,-0.345345,0.785580
-0.102286,-0.096901,0.662645,0.629746,0.285620,0.722386
0.927183,0.495344,0.542119,0.672572,0.692584,0.260718
0.328138,0.753091,0.691993,-0.048306,-0.983759,0.172875
0.517189,0.229535,0.527127,-0.176162,0.979124,-0.101410
0.564667,-0.033767,0.730451,-0.173529,-0.583105,0.793647
0.074453,-0.102116,-0.839231,0.572600,0.819834,0.001140
-0.330843,-0.010873,0.641881,-0.572092,0.616528,-0.540928
-0.004911,-0.990245,0.603896,-0.004262,0.498934,0.866630
-0.618762,-0.292734,0.610168,-0.744584,0.343848,-0.572157
0.673641,-0.541202,0.374266,0.179613,0.710362,0.680533
0.109261,0.119322,0.448480,-0.587532,0.413668,-0.695474
-0.067975,0.256630,0.757122,0.641171,0.744477,-0.186155
0.019076,0.725455,-0.992768,-0.262313,-0.120861,0.957384
-0.172468,0.562337,0.445073,-0.084148,-0.222257,0.971350
-0.549007,-0.314004,0.853181,0.505526,-0.105952,-0.856281
-0.369065,0.304590,0.719421,0.015295,0.989343,0.144801
-0.096021,0.080576,0.376740,-0.403722,0.758365,-0.511753
-0.179015,0.227300,0.737846,0.203463,0.974272,-0.096941
-0.059790,0.366843,0.402829,-0.174856,-0.868347,0.464111
0.208129,-0.409246,0.525005,-0.594984,-0.614423,0.518149
-0.430991,0.525013,0.448304,-0.656193,0.226226,-0.719883
0.070254,0.023811,-0.087603,0.292201,-0.956008,-0.025849
0.068547,-0.599864,0.269542,-0.122008,0.327382,0.936982
0.117020,-0.123862,0.867226,0.723004,-0.619496,-0.305761
-0.716562,0.289214,0.389109,0.333813,-0.683572,0.649075
0.510357,0.393801,0.322438,-0.137997,-0.327268,0.934801
-0.370844,0.403625,0.711837,0.749203,0.645909,-0.146616
0.351129,0.464251,0.633527,0.318788,-0.656398,0.683751
0.348850,-0.329043,-0.978344,-0.286960,-0.109534,0.951660
-0.704819,0.186317,0.382174,0.921224,0.229444,0.314170
-0.770090,0.022794,0.605478,0.111069,-0.638950,0.761188
0.733575,0.302828,0.593420,0.447833,0.297907,-0.843028
0.134315,0.468451,0.865929,-0.056005,-0.940826,0.334229
0.452061,0.066961,0.677880,0.324073,0.477348,-0.816772
0.016870,0.082879,0.653115,0.849538,0.276103,-0.449501
-0.581821,0.004437,0.170293,0.343187,0.911023,0.228602
-0.638123,-0.461811,0.486398,0.647652,0.392070,-0.653321
0.108763,-0.261372,0.817575,0.813440,0.561858,0.150433
0.184141,0.625402,0.692074,0.704258,-0.692263,0.157456
-0.171471,-0.177645,0.717650,-0.206163,0.797043,0.567644
-0.197310,0.727960,0.268068,-0.100964,-0.709921,0.697007
-0.144422,0.312584,0.417888,0.620057,0.696416,-0.361295
0.512136,0.165318,0.391812,0.257589,-0.960396,0.106239
-0.134743,0.157258,0.823496,-0.081772,-0.737803,0.670044
0.043277,0.099001,0.887300,0.483217,-0.837525,0.255055
-0.470994,-0.302082,0.577171,0.296108,-0.882013,-0.366570
0.168054,-0.485928,0.781117,0.834051,0.543153,0.096662
-0.752223,-0.026927,0.615021,-0.681393,0.453154,-0.574765
0.172040,-0.264961,0.781982,0.924950,0.339890,-0.170126
-0.450139,-0.019813,0.877459,-0.632278,0.758265,-0.158930
0.162360,-0.024487,0.970477,0.499999,-0.859214,0.108409
0.053597,-0.128670,0.884259,0.958965,-0.104215,0.263677
0.210334,-0.342726,0.837865,0.855990,0.506932,0.101495
-0.494198,0.598780,0.375347,-0.802203,0.595107,-0.048143
-0.081927,-0.278307,0.770600,0.972435,0.142310,0.184712
0.194605,0.119256,0.836216,0.840936,-0.519942,0.149954
-0.584454,0.349976,0.619144,0.578744,-0.081653,0.811411
-0.117374,-0.043252,0.355611,0.087462,-0.270928,0.958618
-0.475193,0.009856,0.465958,0.710545,-0.525612,0.467821
-0.008685,-0.210500,0.320140,-0.695936,0.089528,-0.712501
0.637982,0.694429,0.432353,-0.517383,-0.097531,0.850178
-0.089756,-0.003218,0.627066,0.019741,0.993303,0.113840
-0.003986,-0.124403,0.719367,-0.483059,-0.456877,-0.746939
0.608939,-0.048197,0.696481,0.405996,0.523780,-0.748880
-0.039576,-0.382151,0.376050,-0.269196,0.118562,0.955760
0.452843,0.173920,0.556610,-0.182050,0.961744,-0.204708
-0.650081,0.571821,0.286358,0.133738,-0.098823,0.986077
0.212541,-0.511940,0.010510,0.196836,0.047249,-0.979297
0.751726,-0.118239,0.487033,-0.272764,-0.404541,0.872895
0.533917,-0.638002,0.596001,0.699440,0.500663,-0.510020
0.264859,-0.093107,0.604518,0.721292,0.598022,0.349440
-0.370347,0.302287,0.716271,0.183859,0.894856,0.406730
-0.275536,0.463641,0.433731,0.098566,-0.523419,0.846355
0.638764,-0.042506,0.740076,-0.420802,0.833939,0.357033
0.578902,0.571753,0.342336,0.667433,0.054886,-0.742644
0.549220,0.177037,0.563599,0.165603,-0.943709,0.286336
0.089187,-0.520000,-0.734547,-0.128503,-0.132875,0.982767
0.134387,0.226825,0.845435,0.592350,0.335624,0.732447
-0.719269,-0.187198,0.799312,-0.701025,-0.713107,-0.006453
0.302656,0.771585,0.704632,0.693019,0.449598,-0.563548
0.824328,-0.309737,0.496631,-0.759915,0.242680,0.603022
-0.592213,0.507671,0.529682,0.819466,-0.085186,0.566762
-0.133674,0.758036,0.261769,-0.100964,-0.709921,0.697007
-0.690013,-0.278917,0.551406,0.826928,0.279766,-0.487771
-0.701971,-0.257984,0.701658,0.928269,-0.141881,0.343782
0.118799,0.051719,0.856331,0.828787,-0.554755,0.073211
0.087336,-0.549874,0.740549,-0.413923,0.747300,0.519817
-0.424513,-0.217545,0.355990,-0.143822,-0.633341,0.760391
-0.330627,0.266927,0.190029,0.016211,0.291978,0.956288
-0.131113,-0.589569,0.367074,-0.055924,0.163234,0.985001
0.365791,0.086130,-0.975559,-0.099250,0.294219,0.950571
0.562317,-0.280744,-0.967327,-0.235643,-0.089989,0.967664
0.316677,-0.440812,0.689573,0.543259,0.583231,0.603913
-0.506725,-0.157460,0.189353,-0.557191,0.631350,-0.539384
0.128550,-0.021167,0.895614,0.869944,0.392521,0.298536
-0.312476,-0.180762,0.122831,0.173498,0.924091,0.340520
0.872232,-0.152516,0.458848,-0.719754,0.685053,-0.112499
-0.121219,-0.630889,0.559232,0.579954,-0.238828,-0.778855
0.100576,0.044064,-0.040980,0.157421,0.969349,0.188628
-0.029469,0.108146,0.777129,-0.681031,-0.676024,0.281404
-0.895366,-0.046367,0.630107,0.041902,-0.791451,0.609795
0.131895,0.258120,0.806436,0.028667,0.676398,0.735978
0.530357,0.241998,0.527033,-0.157898,0.983177,-0.091818
0.762331,-0.115394,0.703807,0.794711,0.308970,-0.522467
0.231546,0.200202,0.885259,0.479933,0.819672,-0.312733
-0.063207,-0.905234,0.484532,0.000971,-0.153526,0.988144
0.464660,0.162203,0.747552,-0.455754,0.842469,-0.287287
0.138017,-0.403015,0.509892,-0.384834,0.306716,0.870533
-0.047050,0.603930,-0.995458,0.079285,0.230491,0.969839
0.361449,0.009721,0.727491,0.635397,0.362851,-0.681623
-0.311338,0.460389,0.473177,0.545625,0.826307,-0.139675
-0.053882,0.429027,-0.989564,-0.034755,-0.113767,0.992899
0.098584,0.032211,-0.601544,-0.705767,0.701903,0.096047
-0.348779,-0.343404,0.891802,-0.792611,0.592362,0.144480
0.749162,-0.255276,0.477300,0.400528,-0.434917,-0.806489
0.153320,-0.095749,0.865956,-0.650147,0.552297,0.521802
0.120506,0.271059,0.124899,-0.652883,-0.171414,0.737808
0.190191,0.404235,0.823807,-0.501370,0.851848,-0.151604
0.161648,0.575479,0.282154,0.342032,-0.162200,0.925584
0.014093,0.614429,0.753080,0.110915,0.901486,-0.418355
0.040073,0.110110,0.915823,0.309824,0.946656,0.088604
0.121646,-0.251346,0.867213,0.851637,-0.285593,0.439490
0.253967,0.637122,0.658522,0.102507,0.711381,-0.695291
-0.241938,0.119458,0.261296,-0.066704,-0.174835,0.982336
-0.521103,0.567418,0.371022,-0.743059,0.637989,-0.202073
-0.630935,0.244979,0.600003,-0.412927,0.910596,-0.017498
0.566231,-0.207113,-0.965745,-0.212407,-0.054036,0.975686
-0.731368,-0.202845,0.139526,0.466470,-0.690499,0.552826
0.103280,-0.078678,0.754486,0.299575,0.431534,0.850901
-0.629438,0.333244,0.633460,0.817450,-0.327433,0.473881
0.269627,0.056664,0.729221,0.347582,0.329377,-0.877894
0.301446,0.864726,0.708458,-0.926945,0.082110,0.366101
0.414621,0.378154,0.313949,-0.273849,-0.103625,0.956174
0.155883,0.037833,0.913850,0.802430,-0.575464,-0.157946
0.070467,-0.776527,0.519462,-0.639080,0.260527,-0.723673
-0.369278,-0.139169,0.645531,-0.128604,-0.086128,0.987949
-0.016088,0.005250,0.536779,-0.426335,0.863349,0.269939
0.111609,0.413041,0.756095,-0.332631,-0.568647,0.752328
0.137804,0.264624,0.842056,0.877440,0.010565,0.479569
-0.675279,-0.066215,0.798271,-0.428315,0.534824,0.728361
-0.729232,-0.077526,0.791350,-0.718158,0.360329,0.595326
0.890383,0.528333,0.371454,-0.099237,0.511290,0.853660
0.040145,-0.064048,-0.985522,-0.768478,-0.228724,0.597600
0.169763,0.618291,0.271502,0.351357,-0.118818,0.928671
0.270909,0.888367,0.592663,0.069372,-0.997591,0.000024
0.954159,0.453888,0.372901,0.241523,0.604551,0.759069
-0.648230,-0.230211,0.620158,0.753632,0.273583,0.597655
0.074596,-0.042776,-0.754338,-0.727912,-0.685352,-0.020908
0.658837,0.022726,0.631635,-0.401140,-0.052408,0.914516
0.260445,0.050026,0.790147,0.567080,0.060953,0.821405
-0.656131,-0.193294,0.790620,-0.509370,-0.602741,0.614204
0.550430,0.791635,0.419294,0.195663,-0.543213,-0.816478
-0.557049,-0.074072,0.832336,-0.058269,-0.974503,0.216676
-0.009964,0.310686,0.880947,0.546442,-0.115647,0.829474
0.034949,-0.498730,0.386297,-0.242288,-0.102705,0.964753
-0.096021,-0.140526,0.724855,0.224168,-0.670056,-0.707653
-0.676204,-0.106317,0.559841,0.609629,0.105526,-0.785632
0.580824,-0.203115,0.457888,-0.358758,0.360469,0.861019
-0.304720,0.449619,0.423201,0.201360,-0.681282,0.703782
-0.529431,0.223370,0.614751,-0.445570,0.354341,-0.822137
-0.470141,-0.098865,0.505431,0.959387,0.027878,0.280713
-0.396967,-0.299577,0.486789,-0.310540,-0.534531,0.786029
0.229695,0.646672,0.673527,0.976564,-0.184027,-0.111608
-0.591288,-0.087484,0.854506,0.456491,0.436273,-0.775423
-0.526586,0.434650,0.495022,0.380444,0.923421,-0.050560
-0.032670,0.102185,0.817696,0.626098,-0.490640,0.606031
0.020571,0.578323,0.566208,0.220483,0.817163,-0.532570
0.425938,0.802405,0.683922,0.179394,0.654191,-0.734746
0.272616,0.806943,0.578293,0.415066,-0.233292,0.879372
-0.080433,0.339543,0.424458,-0.023359,-0.650834,0.758861
-0.000925,0.414598,0.433691,-0.196333,-0.378566,0.904511
0.040429,-0.572497,0.745537,-0.249297,0.771943,0.584770
0.535412,0.291109,0.819792,-0.403399,0.912045,0.073784
0.146273,-0.414937,0.587972,0.778828,0.405343,0.478669
0.246280,0.081051,0.761556,0.095011,0.852573,0.513899
-0.754502,-0.237121,0.630878,-0.385090,-0.814718,-0.433521
0.092960,0.291719,0.737021,0.708226,-0.278608,0.648685
0.067621,-0.113294,0.477340,0.977539,0.022111,-0.209589
0.230123,-0.430787,0.682679,0.340058,0.940002,-0.027503
0.096092,0.210160,0.435137,0.235513,0.759641,0.606201
0.133461,0.064387,0.354962,0.979589,0.102930,0.172659
-0.015660,0.456461,0.848788,0.073422,0.988100,-0.135155
-0.043206,0.398341,0.082953,0.894856,0.322442,0.308649
0.194746,-0.060253,0.793797,0.916947,-0.114925,0.382100
0.109189,-0.089450,-0.856425,0.505987,0.860180,0.063782
-0.124136,-0.031667,0.880947,0.931872,-0.302121,0.200844
0.094098,0.076104,0.663416,-0.442585,-0.773412,0.453820
0.198804,0.371380,0.745767,-0.279460,-0.723440,0.631297
0.547511,0.012837,0.618847,-0.498934,-0.515110,0.696940
0.879422,0.100694,0.448777,-0.018395,-0.935783,0.352095
-0.654139,-0.097645,0.847206,-0.655656,-0.600138,0.458202
-0.097231,0.273294,0.109719,0.672949,0.739555,0.014062
-0.432985,0.431803,0.491237,-0.742664,0.663866,-0.087929
-0.711225,0.220118,0.368467,-0.693069,0.462831,-0.552668
0.056374,0.837765,0.290197,0.254692,0.332471,-0.908072
0.203787,-0.190381,0.794675,0.567483,0.771013,-0.288966
-0.314755,0.133073,0.332320,0.419497,0.041820,0.906793
0.272831,0.425707,0.412765,0.283884,-0.140944,-0.948443
-0.466083,0.307232,0.557083,0.976646,-0.197073,-0.085584
-0.009325,-0.148993,0.315557,-0.698454,0.424764,-0.575967
-0.146345,-0.482201,0.483734,-0.185874,0.938671,0.290427
0.559612,0.547639,0.323425,-0.604829,0.396756,0.690483
-0.326500,0.306961,0.748633,0.642160,0.626056,-0.442362
0.819631,-0.094530,0.657089,0.893034,0.232809,-0.385084
-0.663177,-0.127858,0.203155,0.035059,0.213875,0.976232
-0.033383,0.750247,0.369102,0.143639,-0.355968,0.923393
-0.556054,-0.250736,0.601922,-0.593148,0.687204,-0.419436
0.114741,0.023541,0.139283,-0.126972,0.787461,0.603144
0.296534,0.099408,0.878987,-0.334567,-0.847743,0.411580
-0.330984,-0.517492,0.401802,-0.684407,0.029141,-0.728518
0.141646,0.259204,-0.125751,-0.495547,0.316007,-0.809057
0.137591,0.111940,0.473055,-0.331574,0.891220,0.309493
-0.191757,0.272684,0.740657,-0.438879,-0.531497,0.724497
-0.753861,-0.136935,0.298078,-0.711004,-0.602147,0.363170
-0.020428,-0.482134,0.775493,-0.461323,-0.750371,-0.473418
-0.165278,0.324911,0.186258,0.084456,0.324062,0.942258
-0.045982,-0.762439,0.580618,-0.049462,0.758949,0.649268
0.025767,0.020491,0.042034,-0.301140,0.953134,0.029161
0.422024,0.761627,0.676569,-0.211228,-0.607792,0.765488
0.216955,0.115258,0.576035,0.838686,0.464672,-0.284052
0.297744,0.017037,0.910214,0.888226,-0.119235,0.443663
-0.090113,0.125825,0.627093,-0.136933,-0.384761,0.912803
-0.093529,0.723964,0.266257,-0.094077,-0.685170,0.722282
-0.009610,0.241322,0.777426,-0.505059,-0.791417,0.344347
0.191970,-0.359797,0.776088,0.993485,-0.021746,-0.111866
0.735923,-0.064319,0.701861,0.705725,0.370498,-0.603890
0.732793,0.044742,0.382566,-0.262352,0.885196,-0.384186
0.793152,0.085318,0.721638,0.352682,0.433253,-0.829402
0.077372,0.047248,-0.202560,0.734565,0.672550,-0.089945
0.203146,-0.367519,0.743118,-0.642905,-0.614789,0.456845
-0.225212,-0.552379,0.539402,0.142186,0.538878,0.830297
0.073174,0.040678,-0.280005,0.996193,-0.059796,0.063438
-0.448288,-0.362574,0.870917,-0.397852,0.913043,0.089813
0.568082,0.269432,0.829187,-0.584925,0.809499,-0.050743
0.341947,0.060931,0.722300,-0.354590,-0.239347,0.903869
0.261798,-0.052329,0.770262,0.608886,0.557967,-0.563853
0.572567,0.478204,0.329183,0.657328,0.053132,-0.751729
0.097728,-0.040678,0.876770,0.512179,0.556455,0.654240
0.470566,-0.015139,0.882272,-0.275881,0.943889,-0.181559
-0.154460,0.344556,-0.083480,0.364067,0.628013,-0.687790
-0.419958,-0.064861,0.650830,0.463620,-0.470248,0.750949
-0.557690,0.165521,0.585971,0.710085,-0.105762,-0.696127
0.033739,-0.418933,0.389757,0.042261,-0.003270,0.999101
0.066411,-0.369687,0.506201,-0.367836,0.479005,0.797026
0.152038,-0.100831,-0.886233,0.916679,0.333768,0.219771
0.354544,-0.040610,0.655440,0.432812,0.894222,-0.114197
0.062425,-0.010329,-0.603355,-0.705767,0.701903,0.096047
-0.177805,0.374022,0.808274,-0.087713,-0.995546,-0.034575
0.356750,0.592550,0.429298,0.324324,0.017360,-0.945787
-0.161007,-0.228449,0.748498,0.907475,0.393743,0.146476
0.228557,0.862626,0.586485,0.378376,-0.703890,-0.601141
0.148480,-0.009924,0.462957,0.898411,-0.405002,0.169794
-0.764397,0.287655,0.400396,0.271805,0.145583,-0.951277
0.190335,-0.145944,0.820887,0.939438,0.322013,-0.117318
-0.545091,-0.138628,0.851207,0.669954,-0.465768,0.578119
-0.125987,-0.032955,0.562369,0.248479,-0.423301,0.871249
-0.713716,-0.039863,0.795581,-0.039268,0.471821,0.880820
0.445440,-0.426046,0.664997,0.415829,-0.722315,-0.552582
0.181507,-0.003286,0.807950,0.936444,0.290115,-0.197248
0.084988,0.155563,-0.987428,-0.262955,0.061498,0.962846
0.169407,-0.516275,0.012822,0.412461,0.065854,-0.908592
-0.148337,0.269839,0.485424,0.755588,0.430195,0.493983
0.087480,0.321932,0.800231,0.326740,-0.897629,0.295809
0.101501,0.314411,0.739819,-0.695403,0.196049,-0.691360
0.819345,-0.076172,0.723990,0.849600,-0.013846,-0.527246
-0.708021,0.217747,0.560990,0.931142,-0.114381,0.346253
0.133889,0.067571,-0.296618,0.491494,-0.852716,0.176941
-0.124136,0.011753,0.871593,0.796881,0.509887,0.324031
0.150759,-0.321186,0.840447,0.339277,0.863217,0.373828
0.248700,-0.613073,0.721164,0.199268,0.962588,0.183623
-0.849169,-0.107061,0.551798,0.299364,0.949548,-0.093491
0.145988,-0.186451,0.770802,0.999408,-0.009644,0.033016
0.157521,-0.033023,0.891518,0.966228,0.204318,0.157028
0.627659,-0.012498,0.674054,0.639197,0.361165,-0.678960
0.095239,-0.060458,0.941670,0.938436,-0.344955,-0.018564
0.098940,-0.348281,0.594285,0.675998,0.666944,0.313389
0.127055,-0.530026,0.399882,-0.463106,0.584862,0.665935
0.263149,0.399966,0.721246,0.920528,-0.249498,-0.300632
0.195530,-0.123522,0.878784,0.504333,-0.630154,-0.590384
-0.474055,-0.088907,0.563950,0.497600,-0.861505,-0.101009
0.153463,-0.639832,0.188137,0.949113,-0.171357,0.264236
-0.075022,0.389061,0.335010,0.050846,-0.434552,0.899210
0.165421,-0.117629,0.256227,0.966228,-0.160194,-0.201845
0.929105,-0.046977,0.679570,-0.700700,-0.300249,0.647202
-0.479038,-0.241998,0.653845,0.528074,-0.191233,0.827386
0.562744,-0.341236,-0.970571,0.329486,-0.008789,-0.944119
-0.536052,-0.117019,0.198208,-0.409139,-0.280471,-0.868298
-0.186633,0.519119,0.435840,-0.052434,-0.471356,0.880383
0.207773,0.190449,0.806990,0.984299,0.134018,0.114870
0.631004,0.050229,0.705565,-0.158671,0.538709,0.827415
0.548723,-0.081049,0.685490,-0.339525,-0.532924,0.775058
0.192754,-0.241998,0.836054,0.993144,-0.112889,-0.030352
0.407502,0.726062,0.007820,0.882744,-0.069158,-0.464737
-0.648515,-0.167350,0.422714,-0.271889,-0.646313,-0.712991
0.216171,0.785131,-0.987983,-0.294527,-0.176686,0.939168
-0.265926,-0.703505,0.623267,0.276928,-0.460260,0.843488
0.205779,0.223507,0.790917,0.962453,0.264068,-0.062874
0.082425,0.023607,-0.157843,0.937783,-0.304191,-0.167426
0.050467,-0.307366,0.624281,-0.174027,0.650613,0.739201
0.295822,-0.246062,0.535698,-0.667924,-0.159964,0.726835
-0.603031,-0.046096,0.407953,-0.283192,-0.341933,-0.896038
-0.712363,0.490263,0.284479,0.126101,-0.103045,0.986651
0.669870,-0.548449,-0.967868,-0.138777,-0.087682,0.986434
0.754573,0.762032,0.374523,-0.352563,-0.440270,0.825749
-0.189409,0.397258,-0.103311,-0.192092,-0.614252,0.765372
0.010036,-0.508417,0.656616,0.894185,0.096888,0.437088
0.220941,0.051651,-0.028395,0.564411,-0.824675,-0.036755
0.218662,0.373819,0.713648,0.849407,-0.246256,-0.466762
0.033098,0.223777,0.858953,-0.343422,-0.937939,-0.048285
0.169548,0.120339,0.471717,0.714263,-0.687871,-0.129081
0.060360,-0.037832,-0.511933,0.059925,-0.998114,-0.013347
-0.264929,0.272008,0.196788,0.586816,0.206120,-0.783046
0.216812,-0.218696,0.092024,-0.679900,-0.517243,-0.519804
-0.448360,0.221136,0.598313,0.482998,0.710432,-0.511858
-0.571783,-0.090873,0.406858,0.036337,0.344294,0.938159
