-0.526055,-0.060577,0.459757,-0.316435,0.921580,0.224855
-0.010125,-0.658811,0.608060,-0.427398,0.771594,0.471141
-0.342539,0.817541,0.539611,0.157655,0.209833,0.964943
-0.157957,0.076207,0.743195,0.945976,-0.262764,-0.189960
-0.473662,-0.369209,0.121256,-0.538008,0.141213,-0.831027
-0.739593,-0.413347,0.314262,-0.173919,0.267700,-0.947676
-0.070236,-0.386864,0.602381,0.878655,0.396481,0.266023
0.278109,-0.153304,0.696762,0.161471,-0.166780,0.972683
-0.430615,-0.319809,0.684592,-0.192701,0.674711,0.712482
0.699022,-0.163508,0.681658,0.096988,0.990936,-0.092948
0.130417,0.428248,0.059470,0.933927,-0.357451,-0.002974
0.334892,0.008341,0.666212,-0.295677,0.899611,-0.321365
0.031436,-0.770894,0.289672,-0.366642,-0.342425,-0.865054
0.782215,-0.103661,0.618140,-0.093417,-0.994264,0.052079
-0.023932,-0.091189,0.824501,-0.502832,-0.766713,-0.399138
-0.197040,0.043732,0.896788,0.672410,0.733655,-0.098056
-0.204192,-0.120019,0.291294,0.558765,-0.507019,0.656287
0.533418,-0.012877,0.783965,-0.315535,0.812314,0.490493
-0.062094,-0.370262,0.645632,0.101178,-0.919681,0.379408
-0.351317,-0.172578,0.474064,0.165808,-0.647077,0.744177
-0.200015,-0.538792,0.664807,-0.002374,0.136687,0.990611
-0.764020,0.044785,0.432795,0.242331,-0.104001,0.964603
-0.782641,0.271218,0.477622,0.019992,-0.851737,0.523587
0.451500,0.671040,0.573188,-0.340705,0.914162,-0.219610
0.035826,-0.641399,0.585452,-0.150992,-0.986518,0.063122
-0.644718,-0.201328,0.202063,0.407511,-0.902304,0.140652
0.100325,0.104309,0.211502,-0.742343,0.389860,0.544918
0.542197,0.050048,0.264005,0.251895,0.897828,0.361185
-0.225786,-0.549968,0.309830,-0.049680,-0.771474,0.634319
0.210775,0.079851,0.800754,-0.647169,0.729885,-0.220092
0.036038,0.356495,0.262539,0.862850,0.446461,-0.236987
-0.171269,0.058147,0.511683,-0.145250,0.284576,0.947586
0.064147,0.649174,0.552390,-0.158326,-0.853278,0.496840
0.190951,-0.612731,0.540922,-0.635527,0.712124,-0.298304
-0.312661,0.657434,0.442781,-0.187559,-0.729710,0.657529
0.033205,0.060009,0.529782,-0.388670,0.646282,-0.656700
0.028108,-0.178166,0.646849,-0.161705,-0.445619,0.880497
-0.529525,0.368399,0.640108,0.078993,0.816356,0.572121
-0.375815,-0.158325,0.307443,0.200526,0.310076,0.929324
-0.363069,-0.219711,0.452938,-0.428045,0.719851,-0.546435
-0.042693,-0.477649,0.669878,-0.601838,0.547514,0.581394
0.029878,0.215015,0.882746,0.724055,0.591224,-0.355244
0.101671,-0.031017,0.467558,-0.299048,-0.943494,0.142793
0.089848,0.518141,0.719776,0.251896,-0.873535,0.416515
0.174951,0.221817,0.803859,-0.735178,0.670741,-0.098082
0.032639,-0.057418,0.866675,-0.601121,0.782181,0.163847
0.411923,0.204810,0.455357,-0.138989,-0.016475,0.990157
-0.042693,-0.285148,0.318100,0.189845,-0.651796,0.734249
-0.291065,0.579689,0.644867,0.245215,0.969447,0.006474
0.409444,-0.414561,0.556946,0.762063,0.442341,0.472858
0.565775,-0.325477,0.511995,0.405239,0.682549,-0.608201
-0.172613,-0.025186,0.512385,0.105553,-0.003252,0.994408
-0.049562,-0.308876,0.542966,-0.689545,0.360137,0.628354
0.054871,-0.015954,0.677227,0.969802,-0.215381,0.114438
-0.132824,-0.009638,0.873712,-0.491414,0.550279,0.675059
-0.014585,-0.063735,0.790050,0.017735,-0.977751,0.209016
0.082342,-0.205216,0.454358,0.762615,-0.061226,-0.643948
0.106697,0.286119,-0.418706,-0.538035,0.841858,0.042358
-0.136292,-0.245303,0.845892,0.307967,-0.216442,0.926450
-0.306500,-0.544947,0.302560,-0.161941,-0.842385,0.513967
-0.405479,-0.200924,0.526536,0.192395,0.843438,0.501594
0.054588,-0.503077,0.465358,0.871072,-0.279551,-0.403838
-0.373691,-0.312682,0.299767,0.053545,0.190953,0.980138
-0.701218,0.465014,0.654432,-0.421586,-0.892177,0.162126
0.514303,-0.062196,0.793093,0.056420,0.989578,0.132484
-0.599406,0.086086,0.267766,0.548387,-0.185758,-0.815332
0.233715,-0.183431,0.698338,-0.556256,0.576598,-0.598427
-0.239876,-0.532799,0.309019,0.020803,-0.769901,0.637824
-0.459006,-0.314545,0.121568,0.037599,0.221102,0.974526
-0.438545,0.766278,0.462050,-0.295133,-0.880450,0.371085
0.767914,0.218497,0.460537,-0.367863,-0.611319,0.700690
0.423817,-0.502349,0.551516,0.785625,0.333253,0.521283
-0.360308,0.153223,0.661890,0.793440,0.043733,0.607075
-0.061668,-0.411565,0.603676,0.783144,0.528001,0.328482
0.127796,-0.652737,0.485174,-0.312291,0.710854,-0.630207
-0.696475,-0.097668,0.539611,-0.330589,-0.943724,-0.009817
-0.826678,-0.043003,0.433341,0.046523,-0.667536,0.743122
0.167162,0.303045,-0.508936,0.982971,0.160180,0.090061
-0.054164,0.760447,0.666586,-0.016882,-0.151127,0.988370
0.314925,0.278507,0.595516,0.402743,0.254366,0.879259
0.096289,0.291950,-0.194464,0.977951,0.181508,0.103280
0.232157,-0.941124,0.441736,0.024814,-0.995000,0.096743
0.377513,-0.629576,0.432748,0.705040,0.390328,-0.592083
-0.181111,0.297376,0.434527,0.109026,-0.410562,0.905291
0.083334,0.041141,0.810318,-0.633327,-0.761438,-0.138237
-0.114203,0.043975,0.851634,-0.560804,0.827072,-0.038097
0.404985,0.150308,0.406115,0.397501,0.736153,-0.547788
-0.139053,-0.680110,0.553576,-0.198424,0.918158,-0.342948
-0.729326,0.403952,0.660969,0.827575,0.343088,-0.444309
0.348556,0.257937,0.604175,-0.271655,0.545006,-0.793204
-0.695200,0.380872,0.665385,0.528405,0.824359,-0.203031
-0.525914,0.118723,0.706123,0.118503,-0.964005,-0.238015
-0.277683,-0.221412,0.716920,0.343367,-0.257411,0.903238
0.309402,-0.001782,0.698338,-0.777720,0.389288,-0.493566
-0.409728,0.441124,0.688383,0.967239,0.186263,-0.172497
0.056288,0.196064,0.323420,0.200693,0.979554,0.014038
-0.201005,0.466473,0.719136,-0.759470,-0.600491,0.250231
0.552748,-0.171607,0.537864,0.340897,0.761648,-0.551073
0.029169,-0.815679,0.469758,0.981123,-0.080772,0.175708
0.073774,0.080337,0.897646,0.725123,-0.533027,0.435980
-0.353016,0.252106,0.665556,0.565409,-0.227342,0.792861
-0.118451,0.024458,0.393024,0.482841,-0.794298,0.368722
-0.537171,0.137593,0.371367,0.498406,0.275247,0.822089
-0.008284,0.066650,0.774760,-0.097189,0.777243,0.621649
-0.579722,0.416585,0.627330,0.910675,0.140822,0.388381
0.573350,-0.256721,0.318974,-0.342364,0.534918,-0.772431
0.180614,-0.182297,0.820429,0.561713,-0.022534,-0.827025
0.082696,0.269436,-0.123753,0.474483,0.757437,0.448504
0.053241,0.042355,0.892497,0.672208,-0.388345,0.630338
0.005311,0.081066,0.767832,-0.029261,0.820925,0.570285
0.364556,-0.413589,0.628172,0.916713,0.336915,0.214768
-0.023294,-0.077259,0.894573,-0.716897,-0.670695,-0.190334
-0.667020,0.477972,0.491477,0.495431,0.153420,0.854992
0.578024,0.053207,0.775602,-0.357426,0.930223,0.083258
-0.025276,0.021785,0.828495,0.795286,-0.541905,0.271771
0.169569,0.261014,-0.905619,-0.310090,0.948180,-0.069271
-0.030658,0.817865,0.713550,0.222476,0.974921,-0.005710
-0.346007,0.104632,0.707746,0.062465,0.840830,0.537684
-0.049419,-0.722951,0.577323,-0.079254,-0.891650,0.445735
0.311669,-0.312925,0.699555,0.403593,0.908172,-0.111068
-0.253540,-0.262309,0.745723,-0.585794,-0.078317,-0.806667
0.391389,0.466067,0.509873,-0.277917,0.885588,0.372152
-0.078023,-0.303369,0.801955,-0.569695,0.695090,-0.438517
-0.238318,0.366780,0.601960,0.786124,-0.057675,0.615372
0.160012,0.287982,-0.706529,-0.434762,0.892704,0.118584
-0.163480,0.330175,0.786696,0.363092,0.857688,0.364055
0.062517,0.238500,0.910378,0.742225,0.670121,-0.006240
-0.640895,0.366051,0.512463,-0.166884,0.463330,0.870330
-0.230954,-0.534014,0.307240,0.001845,-0.610587,0.791947
0.270462,-0.421445,0.705998,0.382490,-0.221499,0.897017
-0.679129,0.289520,0.591600,0.874299,0.288698,-0.390199
-0.079369,-0.446955,0.682984,-0.520556,-0.257112,0.814196
-0.398401,-0.115970,0.736283,0.795366,0.409847,0.446563
-0.780729,-0.141966,0.457869,0.783919,-0.494715,-0.375137
0.541065,-0.609168,-0.028842,0.875135,0.209505,-0.436172
0.008001,0.102931,0.402573,0.783328,-0.609243,0.123371
-0.619019,0.229996,0.567509,-0.521011,0.850881,0.067447
0.058341,0.256236,0.895618,-0.756503,-0.612858,0.228270
-0.364061,-0.278021,0.108525,0.040430,0.181445,0.982570
-0.820518,-0.114189,0.505597,-0.416501,-0.897852,0.142792
-0.109673,-0.295352,0.647176,-0.061137,-0.189530,0.979970
-0.282852,0.429624,0.858140,-0.711021,-0.630298,0.311727
-0.122982,0.023729,0.752822,0.766084,-0.641620,0.037949
0.069386,0.209913,-0.986098,0.253934,-0.179265,-0.950464
-0.447749,0.874231,0.448616,-0.379392,-0.832817,0.403085
-0.899958,0.314059,0.500246,-0.077794,-0.993088,0.087888
-0.921057,0.085682,0.456262,0.073465,0.964671,-0.253006
-0.359105,0.564788,0.655539,0.975368,0.032765,-0.218137
-0.506939,0.318513,0.615596,-0.242968,0.898064,-0.366671
-0.434085,0.778264,0.530297,0.687297,0.326118,0.649053
-0.028817,0.222627,0.896086,0.038567,0.153749,0.987357
-0.636505,-0.047214,0.452611,-0.070185,0.360758,0.930015
-0.684580,-0.298672,0.312670,0.172357,0.193532,0.965836
0.076536,0.164318,0.948261,-0.736792,0.471149,-0.484929
-0.893869,-0.109491,0.267672,0.222557,0.225565,0.948467
0.490016,-0.272271,0.507766,0.371817,0.604532,-0.704481
-0.036464,0.144477,0.894573,-0.015289,0.624083,0.781208
-0.526904,0.494574,0.610354,0.858592,0.311156,0.407432
-0.264868,0.531017,0.656554,0.665145,0.564876,0.488361
0.276622,-0.861030,0.475843,0.964172,-0.161708,-0.210292
-0.281225,-0.120019,0.545135,-0.558754,0.705237,-0.436389
-0.339280,0.290654,0.365953,0.079973,-0.572433,0.816042
-0.332768,-0.278507,0.118557,-0.031020,0.338314,0.940522
0.095369,-0.627875,0.489761,-0.379923,0.164892,0.910203
0.330289,0.576693,0.550830,-0.619057,0.547551,-0.562990
-0.202139,0.060415,0.775228,0.388035,-0.081424,0.918041
-0.583618,-0.232102,0.315182,0.101478,0.094438,0.990345
0.011683,-0.664156,0.586201,0.454449,-0.827785,0.329011
-0.102875,0.822805,0.720665,0.755152,0.637113,-0.154377
-0.510195,-0.027454,0.447789,-0.044105,0.720011,0.692560
0.078023,0.093618,0.988282,0.746827,0.614014,-0.255414
-0.009062,-0.099125,0.691738,0.498622,-0.840818,-0.210714
-0.425518,-0.064869,0.519624,-0.404023,0.152435,-0.901958
-0.254532,0.488257,0.785541,0.977798,-0.021998,-0.208391
-0.437129,-0.210641,0.544370,0.265543,-0.706477,-0.656031
0.603159,0.799320,0.501572,0.287608,0.607028,-0.740809
-0.467007,0.248300,0.568227,0.346588,0.928508,0.133228
-0.040781,-0.473032,0.665759,-0.561771,0.756853,0.334046
0.052818,0.237852,0.024613,0.975184,0.213376,-0.059052
-0.470901,0.759799,0.463642,0.005127,-0.871363,0.490613
-0.257222,-0.319647,0.681923,-0.748110,0.389529,0.537213
0.199023,0.217363,0.858546,0.972280,0.208141,0.106533
0.015788,0.173307,0.957561,-0.095743,0.337971,0.936274
-0.151728,-0.255183,0.703174,0.930588,-0.365551,0.019457
0.319244,0.335358,0.532184,0.283893,-0.932921,-0.221502
-0.101317,-0.053936,0.877581,-0.023187,-0.536758,0.843417
-0.702492,-0.584386,0.299143,-0.102981,0.884127,-0.455757
0.553737,-0.100259,0.811395,0.797790,0.595331,-0.095452
0.126169,0.096453,0.964566,-0.125555,0.926795,0.353960
0.005380,-0.733884,0.438007,0.339236,0.796851,0.499947
1.000000,-0.430434,0.466185,0.748400,-0.166863,-0.641915
0.342184,-0.022595,0.004080,0.151544,-0.316527,0.936400
0.508637,-0.406300,0.472957,-0.479538,0.829052,-0.287603
0.146417,0.206106,0.040668,-0.458543,0.527552,-0.715141
-0.225503,-0.591513,0.293354,0.334764,0.768749,-0.544939
0.083545,-0.335196,0.260089,0.054004,0.435418,0.898607
0.117531,0.313816,-0.460787,-0.700153,0.706065,0.106105
0.509063,0.211532,0.456043,0.044391,-0.243704,0.968833
0.322714,-0.487285,0.728700,0.895621,0.439702,0.067272
-0.127373,0.062602,0.382742,-0.355256,0.856646,-0.374099
0.107123,0.277859,-0.362146,0.788681,0.614537,0.018067
-0.464670,0.099530,0.428146,-0.554413,0.509050,-0.658403
0.111371,0.382167,0.739872,0.935433,-0.042234,-0.350973
0.337368,0.289926,-0.134222,0.430746,-0.758768,0.488599
0.163339,0.303126,-0.665197,-0.308254,0.947033,-0.090041
-0.553171,0.299158,0.485096,0.167508,-0.468623,0.867372
-0.268479,-0.106333,0.313778,-0.037655,0.132637,0.990449
-0.096574,0.949627,-0.090581,0.328569,0.064609,0.942267
-0.135586,-0.656868,0.691660,0.929440,0.055544,0.364769
0.229610,0.039602,0.266112,0.967970,0.222586,0.116147
-0.210352,0.373259,0.702035,0.282326,0.948217,0.145521
0.169214,0.103499,0.580334,0.805916,-0.558884,-0.195315
-0.183304,0.195255,0.348634,-0.112242,-0.646963,0.754215
-0.065350,0.008179,0.852726,-0.544290,0.653498,-0.526011
0.111371,-0.194444,0.839401,0.820407,-0.238350,-0.519733
-0.010548,-0.786362,0.555916,0.194041,0.236461,0.952068
-0.140328,0.294218,0.661843,0.754074,0.650388,-0.091475
-0.081493,0.026725,0.562485,-0.546870,0.720408,-0.426552
0.105707,-0.437399,0.471272,-0.336444,0.481151,0.809505
0.803597,0.251539,0.456527,0.504405,0.669016,-0.545887
-0.106273,-0.659864,0.598184,-0.077775,0.707427,0.702494
-0.321085,-0.288305,0.299189,-0.060359,0.584468,0.809169
-0.154489,-0.004535,0.506830,0.140811,0.027080,0.989666
0.229610,0.692258,-0.108415,-0.392202,-0.439462,-0.808116
0.035684,0.113622,0.864709,0.383189,-0.585797,0.714149
0.491857,-0.540087,0.670190,0.885315,-0.456823,0.086772
-0.060676,-0.336330,0.722178,0.853884,0.490407,0.174306
0.269187,-0.294218,0.672812,0.848640,0.230664,0.476031
-0.009488,-0.082038,0.846079,-0.075820,-0.751499,0.655363
0.111796,0.037334,0.350741,-0.586195,0.020052,-0.809921
0.084963,0.309443,0.097915,0.974441,-0.222292,0.032428
-0.513877,0.346210,0.621650,-0.369696,-0.929042,0.014306
0.137638,-0.092809,0.690692,0.069596,0.084157,0.994019
-0.467290,0.168449,0.706295,0.316111,-0.647902,0.693034
0.223662,-0.318918,0.683312,0.625502,0.581529,-0.520164
-0.068535,-0.299320,0.723598,0.434594,0.879297,0.194847
0.686775,-0.361597,0.416412,0.412320,0.108345,-0.904574
-0.265860,0.068999,0.412449,-0.181844,-0.194299,0.963940
-0.097495,-0.020084,0.820803,-0.634910,0.657048,-0.406420
0.695412,0.626175,0.476233,-0.196925,-0.531270,0.823998
-0.546942,-0.315598,0.309940,-0.024694,0.136873,0.990281
0.037736,-0.684645,0.579320,0.374034,-0.121953,0.919362
0.184156,-0.016521,0.904652,-0.700871,-0.618483,-0.355328
-0.028180,-0.231940,0.578915,0.651845,-0.722014,0.231935
0.053950,0.195821,0.859981,-0.625704,0.166892,-0.761999
0.116044,-0.886702,0.452002,-0.070291,0.886356,0.457639
-0.009345,-0.723680,0.570864,-0.545854,-0.447256,0.708523
0.487538,-0.262148,0.409875,0.439905,0.729051,0.524375
0.136506,0.297943,0.920848,-0.604954,-0.223375,-0.764286
-0.655268,0.813168,0.452330,-0.709983,-0.687928,-0.150593
0.484708,-0.446955,0.446432,-0.513195,0.850846,-0.112663
0.081209,0.118642,0.671860,0.623129,0.771153,-0.130513
-0.097778,-0.813573,0.567213,0.651585,0.518939,0.553298
0.398116,0.167234,0.786399,0.379469,0.594754,-0.708711
0.222033,0.667395,-0.112893,-0.440218,-0.484751,-0.755794
0.512462,-0.290168,-0.020104,0.968094,0.229821,0.099877
-0.767560,-0.473680,0.317460,0.078804,-0.385486,0.919343
0.067614,-0.008179,0.873743,0.957793,-0.233642,0.167464
-0.017134,0.238905,0.889190,-0.219147,0.973118,-0.070822
-0.257576,-0.090541,0.742743,0.943586,-0.327648,0.047872
-0.209855,0.653304,0.767130,0.438967,0.898385,-0.014586
-0.644152,-0.406381,0.315416,-0.039633,-0.195949,0.979813
0.171764,-0.198575,0.178159,0.375255,0.265302,0.888143
0.366468,-0.025591,0.264895,-0.056787,0.001054,0.998386
0.211910,0.266359,0.031822,0.230519,0.270519,0.934709
-0.154844,-0.089002,0.835454,0.629063,-0.740698,-0.235893
0.027400,-0.738581,0.252943,-0.738380,-0.672235,-0.053815
-0.035189,-0.071914,0.891671,-0.670989,-0.588220,-0.451410
0.089211,0.001700,0.826841,0.875032,0.252548,0.412963
0.609814,-0.164642,0.539877,0.490144,0.610007,-0.622616
0.008921,0.156139,0.562813,-0.130319,-0.955278,0.265446
0.313155,-0.812845,0.517299,0.862152,0.264897,-0.431884
-0.188404,-0.248461,0.675027,0.394906,0.847151,0.355506
-0.661712,0.279074,0.379091,0.524849,0.010476,0.851131
-0.174526,-0.286282,0.699414,0.381078,0.923397,-0.046008
0.031790,-0.016116,0.785042,0.778742,-0.554560,0.293299
-0.054447,-0.069728,0.824829,0.863345,0.091964,-0.496163
-0.385232,0.094105,0.629202,0.995482,0.075152,0.058039
0.376310,-0.434969,0.434324,-0.294553,-0.184119,0.937731
-0.717220,0.524619,0.478480,0.204366,0.601180,-0.772540
-0.086024,0.638160,0.651467,0.716041,0.671303,-0.191411
-1.000000,0.033366,0.463408,0.913174,-0.354419,-0.201245
0.257788,0.148688,0.780267,-0.069459,-0.997575,0.004392
0.525489,-0.516764,0.661390,0.980825,-0.137987,-0.137630
-0.171552,-0.630304,0.687197,0.902855,0.113623,0.414661
-0.033703,-0.431163,0.556369,0.993821,0.092499,0.061357
0.156188,0.279478,-0.245813,-0.463080,-0.885413,-0.040013
-0.069881,0.067137,0.717685,0.375536,0.665190,0.645364
0.228547,-0.168206,0.501276,0.964498,-0.033965,-0.261895
0.370999,-0.847101,0.523416,0.486137,0.830441,-0.272101
-0.386647,0.158892,0.669488,0.911764,0.030718,0.409563
0.015859,-0.106657,0.763167,0.827033,-0.412082,0.382367
-0.061314,0.245707,0.867502,0.100192,0.143034,0.984633
0.439605,0.396339,0.842350,0.856441,-0.119060,0.502329
-0.223238,-0.181973,0.313872,0.207336,-0.470706,0.857582
-0.022160,-0.619938,0.605158,0.930152,-0.267660,0.251349
0.233575,-0.798672,0.501432,-0.576458,0.318231,0.752612
-0.179270,-0.708131,0.526567,-0.114801,0.762571,0.636637
0.095865,0.076693,0.879282,-0.780697,-0.544465,-0.306707
0.079297,-0.135569,0.174243,0.520927,0.213698,0.826419
0.161356,-0.096696,0.512088,-0.405136,-0.706384,-0.580419
-0.691661,0.553531,0.486422,0.169091,-0.828845,0.533315
-0.636010,0.476109,0.480711,0.943892,0.235040,0.232000
-0.287454,-0.144963,0.769252,0.350307,-0.936585,0.009662
-0.593034,0.290654,0.568320,-0.173378,0.983261,0.056014
-0.021665,-0.156705,0.704532,0.598586,0.319865,0.734426
0.100891,-0.091431,0.398844,0.987290,0.075729,0.139726
-0.332271,-0.082767,0.742727,0.171948,0.550367,0.817025
-0.048570,0.734532,0.690131,0.974785,0.050261,-0.217412
0.386930,0.349369,0.807135,0.954778,-0.202846,-0.217375
0.072431,0.237609,-0.073949,0.588661,0.796384,0.138748
-0.213042,-0.674603,0.707590,0.829366,0.545863,0.119101
-0.675730,0.150064,0.262414,-0.219932,-0.043753,0.974533
0.237752,-0.640185,0.434418,0.232211,0.623956,0.746162
-0.629213,0.375850,0.655649,-0.717113,-0.585574,-0.377958
-0.113495,0.364593,0.513134,0.704404,0.561324,0.434432
-0.358115,-0.027535,0.712318,0.689179,0.717849,-0.098614
-0.392524,-0.476109,0.310314,-0.365750,-0.278359,0.888112
0.079792,-0.223599,0.682345,-0.438180,-0.031571,-0.898333
-0.769189,-0.232750,0.466528,0.194060,0.903338,-0.382519
-0.547013,-0.431811,0.307943,-0.192997,-0.156335,0.968665
0.263310,0.184726,0.029934,0.115993,-0.258924,0.958908
0.195553,0.212018,0.536896,-0.688976,0.721000,0.073965
-0.510267,-0.410835,0.314745,-0.464746,0.321375,-0.825063
-0.330996,-0.235585,0.531155,-0.292581,0.823648,0.485799
-0.091121,-0.087464,0.855613,0.964103,0.080283,0.253099
0.639126,0.052640,0.702238,-0.552748,-0.728719,0.404274
0.525417,0.102527,0.232394,-0.306659,-0.859951,-0.407977
0.146417,0.299482,-0.680582,-0.047118,0.998830,0.010927
0.062023,0.224166,0.039873,0.776686,0.485515,-0.401291
-0.099335,0.369777,0.709103,-0.715295,0.433218,-0.548338
-0.118451,-0.081147,0.771155,0.959448,-0.157945,0.233479
0.003610,-0.875445,0.522495,0.981599,-0.179023,0.066439
0.505098,0.600664,0.522230,0.525533,0.561454,0.639206
0.221821,-0.624069,0.501541,-0.154799,0.702143,-0.695005
0.058198,0.471493,0.808602,0.808062,0.589070,-0.005668
-0.741646,-0.058147,0.429300,-0.148528,0.432746,0.889196
-0.153569,-0.382977,0.530577,0.775214,-0.398373,-0.490247
0.008001,-0.740039,0.471022,0.972232,0.104120,0.209579
-0.139267,-0.477406,0.669613,0.862099,-0.214550,-0.459079
0.571086,-0.365970,0.187724,0.784588,0.292610,-0.546627
-0.440880,-0.278263,0.121662,0.004184,0.264556,0.964361
-0.500567,0.230077,0.554574,-0.630597,-0.702696,0.329493
0.835882,-0.484532,0.411357,-0.052243,-0.907451,0.416897
0.027471,-0.338921,0.582878,0.609950,-0.290519,-0.737265
0.083191,0.207240,-0.197117,0.978428,-0.204855,0.026688
-0.002761,0.956592,0.681908,-0.246156,-0.423495,0.871814
-0.121921,-0.006641,0.892575,0.745896,0.321699,0.583222
0.047790,0.545999,-0.088553,0.010435,0.178291,0.983923
0.364839,-0.608924,0.446370,0.440373,-0.625972,-0.643608
0.056145,-0.161078,0.805356,0.882774,-0.464768,-0.068561
-0.245824,0.161321,0.622680,0.546504,0.710296,0.443636
0.087298,0.142209,0.707871,0.755451,0.403173,0.516474
0.057915,-0.175332,0.810240,0.834938,-0.104907,-0.540252
0.089280,0.016035,0.889549,-0.762606,-0.488007,0.424594
-0.103512,0.228944,0.827481,0.588680,0.705531,0.394565
0.068818,0.244979,-0.988626,-0.223988,0.074609,0.971732
-0.447749,0.818999,0.527613,-0.691074,0.721564,-0.041978
-0.718778,-0.492306,0.313996,0.164889,-0.541808,0.824170
-0.210775,-0.507531,0.309004,-0.037492,-0.128803,0.990961
0.537666,0.506236,0.499060,0.021246,0.989098,0.145715
-0.284198,0.385811,0.696933,-0.457364,0.598638,-0.657610
-0.289720,0.071347,0.733100,0.043995,-0.757630,0.651200
-0.580714,0.349773,0.491149,-0.718344,0.290695,-0.632043
0.246390,-0.203838,0.768831,0.706896,0.494083,0.506143
0.443075,-0.152251,0.754523,0.832403,0.278305,-0.479221
-0.101812,0.770166,0.682766,0.649133,0.674265,-0.352125
-0.377797,0.155896,0.629748,0.788312,0.248778,-0.562737
0.039223,-0.227567,0.322921,0.434251,-0.572599,0.695382
-0.549420,0.736557,0.457198,0.065306,0.991797,0.109883
0.089848,0.139132,0.736939,-0.696149,0.197345,0.690240
0.118168,-0.817379,0.452595,0.068409,-0.023559,-0.997379
0.367389,0.360463,0.788521,0.780280,0.267082,-0.565535
-0.320731,-0.250729,0.306804,0.725178,0.526949,0.443218
-0.268410,0.313330,0.679692,0.151594,0.048093,0.987272
0.059261,0.048833,0.777287,0.821827,-0.482641,0.302750
-0.488884,0.368643,0.707590,-0.675719,0.590132,-0.441755
-0.075192,-0.591351,0.680941,0.999164,-0.006633,-0.040336
-0.357973,-0.469226,0.733896,0.284973,-0.851986,0.439216
0.057561,0.099693,0.655617,0.859999,0.428394,0.277273
0.060819,0.210884,-0.052277,0.441868,0.893211,0.083226
0.393090,0.076288,0.738670,0.879145,0.471363,0.070153
0.454547,-0.384029,0.486983,-0.209211,-0.948703,0.237053
0.156471,0.112973,-0.977860,-0.396490,0.248041,0.883896
-0.738459,0.543165,0.480462,-0.153750,-0.908719,0.388059
-0.647762,-0.060009,0.394537,0.492327,-0.015662,0.870269
-0.441094,-0.259395,0.118027,-0.016335,0.229763,0.973109
-0.564005,0.771218,0.586388,0.972283,0.218397,-0.083479
0.342325,-0.480888,0.675480,0.703841,0.293477,0.646900
0.018126,-0.705620,0.277939,0.683391,0.717628,0.134116
0.097492,-0.654924,0.288439,0.063825,0.334047,-0.940393
0.172330,-0.820052,0.442531,0.264646,0.866496,-0.423258
0.245610,0.451409,0.597638,0.934911,-0.280180,-0.217810
-0.036109,-0.131196,0.841757,-0.423171,0.331600,-0.843189
-0.464952,0.372692,0.634507,-0.077997,-0.996899,-0.010481
0.237609,-0.426627,0.649423,-0.671122,-0.248181,-0.698571
0.287171,0.162941,0.787257,0.093735,-0.910311,0.403172
0.150241,0.419501,0.026751,-0.760691,0.236483,-0.604504
-0.075049,0.267655,0.857454,0.142041,0.677633,-0.721552
0.499787,-0.340460,0.491259,0.468135,-0.751110,0.465492
0.142523,-0.642533,0.290202,-0.278060,-0.066470,-0.958261
0.091972,0.492388,0.733693,0.958035,0.265440,-0.108220
-0.427570,0.342242,0.681440,-0.201083,0.622659,-0.756216
0.552322,-0.197765,0.522807,0.373937,0.597263,-0.709541
0.712405,-0.094024,0.665728,0.098876,-0.983004,0.154681
-0.210209,0.312278,0.763806,0.774225,0.598965,-0.204490
0.237185,-0.230806,0.574109,-0.477912,-0.850795,-0.218513
0.699731,-0.397798,0.430439,-0.480656,-0.199538,0.853905
-0.264940,-0.261905,0.430767,0.581995,-0.776607,0.241169
-0.788516,0.119534,0.439863,-0.493345,0.409479,-0.767423
0.092041,0.071347,0.814562,0.089053,-0.967402,0.237073
0.117248,-0.103175,0.448975,-0.790417,0.446962,0.418885
-0.636364,-0.406381,0.303699,-0.468629,0.118088,-0.875467
-0.060182,-0.074830,0.783965,0.114542,0.830447,-0.545195
0.046729,-0.677195,0.573344,0.722462,-0.610452,0.324649
0.545455,-0.367023,0.474158,0.265322,-0.925453,0.270445
0.708441,0.221655,-0.006498,-0.092960,-0.960306,-0.263004
-0.670773,-0.249838,0.438912,0.049170,0.998489,0.024541
0.065067,-0.021542,0.926059,0.801672,0.350861,0.483961
-0.767348,0.307499,0.499840,-0.084056,-0.996448,-0.005087
-0.250709,0.197846,0.349571,-0.026881,-0.579522,0.814513
-0.123974,-0.099773,0.856908,0.981059,0.131193,0.142517
0.017489,0.096939,0.513430,0.219612,-0.724559,-0.653288
-0.015788,-0.019842,0.812627,0.703165,-0.184580,0.686651
-0.074978,-0.205459,0.823175,-0.468784,-0.799704,0.375120
-0.659588,-0.333496,0.602568,0.159485,-0.983892,0.080758
-0.164331,-0.107062,0.706591,-0.281769,-0.191624,0.940152
-0.014868,-0.691205,0.557024,-0.056729,0.058688,0.996663
-0.087015,-0.473599,0.568632,0.743247,-0.106095,-0.660552
0.448103,-0.726676,0.420142,0.821473,-0.018067,0.569961
-0.526975,0.796566,0.593550,0.993909,0.030547,-0.105890
-0.342962,0.461613,0.641793,0.699257,0.714543,-0.021637
0.104504,-0.025996,0.168439,-0.547344,-0.196662,-0.813473
-0.693854,-0.267736,0.649610,0.887258,-0.321840,0.330443
0.094519,-0.062844,0.838106,0.984832,0.160763,0.065277
0.076112,-0.334953,0.817230,0.751359,-0.075216,-0.655593
0.011045,0.272514,0.359260,-0.134401,-0.673509,0.726857
-0.145002,-0.029884,0.275614,0.453489,-0.872013,-0.184230
0.174808,-0.504373,0.546695,0.853843,-0.133739,0.503056
0.012106,0.121639,0.708916,-0.226242,-0.128468,-0.965562
0.131621,-0.642938,0.448102,-0.076047,0.905851,0.416713
-0.474654,0.791788,0.549254,-0.921021,0.389285,0.013309
-0.212193,-0.084629,0.575045,-0.258338,0.884593,-0.388275
-0.584962,0.121558,0.704423,0.158271,0.969793,0.185610
-0.173817,0.090460,0.779877,0.776945,-0.239946,0.582050
-0.740160,-0.235422,0.453204,0.310142,0.947252,-0.080782
-0.621425,0.232264,0.623850,0.585782,-0.189061,-0.788109
-0.141603,-0.023324,0.807432,0.961890,0.117197,-0.247046
0.496743,0.114998,0.238167,-0.293562,-0.858427,-0.420624
0.528676,-0.031179,0.575451,0.197027,0.846623,-0.494378
-0.343671,0.561386,0.533651,0.335361,0.233334,0.912737
-0.283349,-0.138160,0.304557,-0.066379,-0.295777,0.952948
0.436278,0.229349,0.010399,-0.274134,-0.925479,-0.261417
0.358964,-0.452786,0.653698,0.844433,0.522319,0.118812
-0.448881,-0.268059,0.303699,0.093309,0.171552,0.980746
0.197254,0.333739,0.585343,0.890077,-0.011836,-0.455656
0.332200,-0.337787,0.523431,0.440714,0.848933,0.291693
-0.016709,-0.508341,0.559552,0.067332,0.418858,0.905552
0.173464,0.192015,0.722163,0.891621,0.091856,0.443367
-0.284127,0.240282,0.663840,-0.634197,-0.352811,0.687982
-0.641533,0.440395,0.477388,-0.049425,0.943426,0.327879
-0.005948,-0.722060,0.264271,0.287156,0.900051,-0.327796
-0.370930,0.031503,0.803859,-0.439342,0.651045,-0.618966
-0.607902,-0.205863,0.630747,-0.167667,-0.352304,0.920744
0.057561,-0.238662,0.857657,0.961442,0.232377,-0.147073
-0.057915,-0.240363,0.541874,0.698038,-0.329265,-0.635867
0.264728,-0.348963,0.725611,0.624425,0.727447,0.284453
-0.000283,-0.114593,0.552967,0.226198,-0.189656,-0.955440
-0.045100,0.190881,0.516457,-0.501443,-0.048883,-0.863808
-0.051403,-0.833333,0.509358,0.931593,0.234013,0.278158
-0.322217,-0.197441,0.728217,-0.668404,-0.478284,0.569631
0.498017,0.102689,0.235452,-0.293562,-0.858427,-0.420624
-0.089280,-0.732751,0.603146,-0.230807,0.512450,0.827117
0.135231,-0.317136,0.846298,0.992525,-0.111881,0.048752
-0.325545,0.323210,0.689631,0.257337,0.695406,0.670960
0.609317,-0.202867,0.529813,0.483778,0.538083,-0.690235
0.438899,0.505831,0.654806,-0.330091,0.789906,0.516805
-0.109955,-0.099693,0.856377,0.318830,0.947343,-0.029819
0.078305,0.225300,-0.989203,0.244016,-0.158941,-0.956658
-0.089211,-0.907758,0.294197,0.671242,-0.077514,-0.737174
-0.471750,0.428328,0.573781,-0.578963,-0.804464,-0.132815
0.466724,-0.652575,0.651171,0.805721,0.408540,-0.428846
0.598557,-0.048186,0.280107,0.535309,0.678802,-0.502666
-0.505807,-0.130871,0.620230,-0.414444,0.804031,-0.426345
-0.476495,0.191448,0.612320,0.044443,0.868581,0.493550
0.065845,-0.100340,0.680878,-0.398903,0.496541,0.770923
-0.100822,-0.700842,0.460880,0.899260,0.150872,-0.410573
0.050623,0.207078,0.033756,0.899163,0.415528,-0.137264
-0.090980,-0.644639,0.243363,0.917322,-0.397531,-0.022119
0.240087,0.232021,0.859841,0.816700,0.541327,0.199914
-0.615620,0.542031,0.609418,-0.561161,-0.777118,-0.284930
-0.145710,-0.119614,0.841383,-0.536774,0.458928,0.707996
-0.541774,-0.298267,0.413386,0.205711,0.237097,-0.949457
0.326962,-0.366456,0.594299,0.689148,0.723074,-0.047317
0.098910,0.582523,0.523572,-0.182274,-0.806965,0.561768
-0.334961,-0.467444,0.672983,0.916130,-0.167034,0.364426
-0.379921,-0.386216,0.308052,0.091455,0.239690,0.966532
0.308341,0.009799,0.551033,-0.442778,-0.869723,0.218012
0.116965,0.261500,0.848872,0.675938,0.138993,0.723733
-0.196616,0.129657,0.408549,0.343118,0.879875,-0.328770
-0.270957,0.561629,0.632120,-0.615270,-0.727925,0.302602
0.055082,-0.153142,0.749358,0.804401,-0.475051,0.356743
0.094096,0.070294,0.866301,0.863383,0.208211,-0.459585
-0.006726,-0.650146,0.453797,0.943307,0.217067,0.251103
-0.533135,-0.071104,0.453313,-0.148593,0.572764,0.806140
0.483007,0.373825,-0.175304,0.307773,-0.604514,0.734737
-0.507860,0.323129,0.636192,0.050372,0.000109,0.998731
-0.343105,0.158973,0.538613,0.276229,0.954863,-0.109243
0.139408,-0.486232,0.576543,-0.185913,-0.344025,0.920371
0.699236,-0.164399,0.572252,0.353597,0.830404,-0.430579
-0.258639,0.471817,0.514288,-0.011187,-0.510624,0.859731
0.030941,-0.545109,0.407659,-0.895232,0.440863,-0.064807
-0.217785,0.291060,0.837436,0.576800,0.743314,-0.338800
-0.016992,-0.282961,0.828901,0.852994,-0.510725,0.107521
-0.035118,-0.654195,0.247420,0.140788,-0.971423,0.191090
-0.691661,0.260285,0.620074,0.297534,0.816198,-0.495271
-0.231520,0.290898,0.788334,0.978777,-0.204872,0.004878
-0.309616,-0.281827,0.300313,-0.264344,0.664703,0.698779
-0.064218,-0.670797,0.247467,-0.030299,-0.984693,0.171645
-0.059473,-0.393910,0.820819,0.745679,-0.663816,-0.057539
0.210847,-0.543894,0.665104,-0.493867,-0.385619,0.779355
-0.400171,0.043246,0.624162,0.923199,0.354050,-0.149508
0.102946,0.270489,0.843427,-0.425627,0.275927,-0.861804
0.255523,-0.650227,0.501276,-0.163826,-0.670219,0.723856
0.045171,-0.120911,0.326447,-0.798884,0.335780,-0.499036
0.314216,-0.273809,0.512010,0.568024,0.702877,0.428149
-0.040143,0.343700,-0.996115,-0.294021,0.119120,0.948347
-0.031010,-0.863784,0.303043,-0.136989,0.490213,0.860770
0.028817,-0.704972,0.594112,0.626115,-0.366776,0.688081
-0.524073,0.406868,0.591646,-0.664581,-0.472304,0.579017
0.301261,-0.472870,0.774104,-0.697137,0.371036,-0.613459
0.001415,0.432458,0.612226,0.831150,0.550008,-0.081737
-0.640329,0.228620,0.383678,-0.555369,-0.118623,-0.823100
0.249292,-0.382086,0.674247,0.829883,-0.397778,0.391237
0.342538,-0.395692,0.638954,0.860746,0.407701,0.304789
-0.024072,-0.539683,0.598527,0.880649,-0.268245,0.390516
-0.362432,-0.090622,0.769314,0.853376,0.382574,-0.354100
0.513736,-0.695173,0.438475,0.890898,-0.051197,-0.451308
-0.102166,-0.227486,0.663013,0.220365,0.215375,0.951343
0.293754,-0.662374,0.487654,0.498162,0.418083,-0.759632
0.187766,0.306446,-0.886553,-0.248003,0.967654,0.046264
0.725856,-0.335601,0.413261,-0.269646,0.085332,0.959171
-0.019684,-0.165614,0.906540,-0.665289,-0.716412,-0.210106
0.280728,0.252835,-0.868204,-0.288708,-0.955383,-0.062379
0.077033,0.074668,0.565247,0.984361,0.002310,-0.176149
0.509912,-0.302640,-0.022975,0.951942,0.259885,-0.162070
0.517276,-0.005588,0.811816,0.998064,0.035985,-0.050718
-0.025418,-0.194202,0.581598,-0.761897,0.593424,-0.259540
0.329652,-0.251052,0.623070,0.954869,0.013568,0.296716
-0.124752,-0.062115,0.876692,-0.607049,-0.460039,0.647963
0.273224,0.093213,0.284695,0.218633,0.621125,-0.752597
-0.740229,-0.256560,0.276472,-0.028510,0.568046,0.822503
-0.013098,0.008989,0.269107,-0.590477,0.733842,-0.335877
-0.344025,-0.239634,0.304572,0.692544,0.716474,-0.083946
-0.061951,-0.237366,0.697713,-0.069518,0.347875,0.934960
-0.018832,-0.061710,0.857235,-0.285270,0.650706,0.703706
-0.162277,0.194121,0.706045,0.964874,0.113417,0.236970
-0.412348,-0.206916,0.587075,-0.565655,0.732065,-0.379624
0.782710,-0.084791,0.618748,-0.093417,-0.994264,0.052079
-0.340555,-0.451490,0.669426,0.712479,0.017457,0.701476
-0.064218,-0.400065,0.303309,0.609229,-0.671267,0.422186
0.295029,-0.588678,0.502493,-0.413828,-0.030174,-0.909855
-0.743061,-0.103094,0.456933,-0.627144,0.778835,0.010261
0.103936,-0.516602,0.572533,0.541501,0.336604,-0.770373
0.088642,-0.076693,0.842054,0.956307,0.267409,-0.118189
0.083688,0.214285,0.288595,-0.448844,0.893543,-0.010931
-0.590413,0.337626,0.662873,0.649857,0.631098,0.423557
0.282285,-0.594995,0.694125,0.763855,-0.397056,-0.508794
0.064501,0.218821,-0.263506,-0.532595,0.844655,0.053866
0.070307,-0.664642,0.277720,-0.218486,0.225592,0.949406
-0.025490,-0.829932,0.294587,-0.070520,0.543386,0.836516
0.005380,0.038954,0.778660,-0.147457,0.759816,0.633195
-0.096149,0.030612,0.856892,0.348049,-0.927363,-0.137331
0.026125,0.611840,0.747564,0.941996,0.331689,-0.051253
-0.653285,-0.091189,0.628828,0.352783,0.771708,-0.529161
-0.076041,0.209346,0.809398,-0.515628,-0.796179,0.316585
-0.800341,0.014739,0.441736,-0.456653,-0.862338,0.218726
0.276054,0.101231,0.758018,-0.288136,-0.925160,0.247096
0.279807,-0.251295,0.633306,0.815630,0.481228,0.321195
0.036604,0.468821,0.479416,0.384195,0.598376,-0.703093
-0.385301,0.513362,0.437960,-0.626861,-0.213270,-0.749374
0.086095,-0.037334,0.238105,0.585800,0.165826,0.793310
-0.935218,-0.381762,0.356592,0.547516,0.070743,0.833799
-0.423463,0.022271,0.749951,-0.721625,0.146232,0.676664
0.184508,0.348801,-0.533495,-0.096343,0.993507,-0.060521
-0.360522,-0.478620,0.308239,0.483348,0.195225,0.853382
-0.190245,-0.693878,0.543933,0.033857,0.988577,0.146863
-0.392382,0.793569,0.537115,0.351415,-0.671635,-0.652238
-0.475858,-0.308957,0.310501,-0.258711,-0.012638,-0.965872
0.114415,-0.124717,0.403275,0.854020,-0.021026,0.519815
-0.056217,0.028506,0.690146,-0.236056,-0.930208,-0.281053
0.673180,-0.075478,0.593097,0.181044,0.816162,-0.548728
0.070590,-0.554584,0.566542,0.044039,-0.747240,0.663093
-0.322926,-0.256641,0.312951,0.289817,0.353560,-0.889383
-0.058058,-0.117752,0.905323,0.576533,0.782138,0.236369
0.031861,-0.847020,0.292808,-0.698600,0.032184,-0.714789
-0.361017,0.809524,0.487966,-0.501590,-0.860583,-0.088342
-0.028817,-0.104066,0.903575,0.695675,0.607913,0.382725
-0.607902,0.271461,0.646505,0.957498,-0.005403,0.288390
0.081704,0.323210,-0.989890,0.242745,-0.139143,-0.960059
0.513523,-0.189180,0.524492,0.412017,0.642025,-0.646565
-0.446191,0.083495,0.656132,0.276644,-0.959317,-0.056388
0.302110,-0.584224,0.501463,0.867796,-0.005649,0.496888
-0.295596,-0.219388,0.654962,0.808056,-0.586203,0.058405
0.320165,0.337868,0.658660,-0.088627,0.794696,-0.600502
-0.266072,-0.037334,0.714174,-0.226629,-0.957408,-0.178914
-0.504672,-0.135164,0.620839,-0.414444,0.804031,-0.426345
0.058695,-0.199223,0.812955,0.551110,-0.008466,-0.834389
-0.742284,0.353256,0.521075,0.141002,-0.921961,0.360703
0.036461,0.138970,0.595937,0.538842,0.841797,0.032052
0.060748,0.360626,0.761154,0.966363,-0.129622,0.222126
0.038374,-0.295108,0.769782,-0.724995,0.676107,0.131386
0.067614,0.162861,0.960837,0.540464,0.822699,0.176250
-0.085315,-0.442906,0.637549,-0.459359,0.781956,0.421348
-0.023932,0.118886,0.348978,0.066652,0.822627,-0.564661
-0.396913,-0.004050,0.767255,0.369619,0.804853,0.464321
-0.093316,0.695740,0.648440,0.888923,0.370076,-0.269925
-0.659445,0.256155,0.499216,0.254441,0.297807,-0.920093
0.122840,0.293813,-0.472582,0.962217,0.250710,0.106223
-0.078874,-0.071024,0.827044,0.350371,-0.935667,-0.042043
0.028886,-0.017574,0.735956,0.022989,0.591548,0.805942
0.106060,-0.647716,0.568414,0.728225,-0.455463,0.512096
0.463749,-0.338354,-0.041261,0.929194,0.124739,-0.347907
-0.015294,0.111273,0.130836,-0.680332,0.729887,0.066435
0.197254,-0.135325,0.835813,-0.888030,0.314877,-0.335046
-0.010834,0.003401,0.524570,0.900698,-0.359533,-0.243881
0.369867,-0.773567,0.435401,0.067682,0.192924,0.978877
0.042056,0.236071,0.674590,0.825214,-0.372626,-0.424466
-0.095371,-0.183511,0.653807,0.625437,0.511596,0.589151
-0.270179,0.690315,0.450567,0.000284,-0.693651,0.720311
0.353796,0.238581,0.596780,-0.200393,0.346520,-0.916388
0.007363,-0.046080,0.855535,-0.723147,0.145567,0.675180
-0.395214,0.395530,0.685294,-0.602081,-0.361482,0.711919
-0.143232,0.138484,0.625707,0.318381,-0.947925,-0.008453
0.002902,-0.786686,0.422747,0.498251,0.823722,0.270606
0.440102,-0.162132,0.758642,0.794786,0.335093,-0.505991
-0.334538,-0.100826,0.404695,0.063281,0.075341,0.995148
-0.110733,-0.171688,0.799973,0.984285,-0.020361,0.175411
0.195130,-0.043975,0.885570,0.683243,-0.696116,-0.220458
-0.407534,-0.191691,0.464141,0.221839,-0.734717,0.641077
0.014161,-0.868804,0.437164,0.090018,0.838589,0.537275
0.544535,0.511176,0.509919,-0.078143,-0.830785,-0.551080
-0.141320,-0.046648,0.884899,-0.075106,0.996772,-0.028364
0.085952,0.176142,0.268671,-0.723151,0.688406,-0.056122
0.010054,-0.044542,0.882527,0.300046,-0.923713,-0.238172
0.159232,-0.370910,0.703798,0.764392,-0.338214,-0.548923
0.071793,-0.463152,0.270793,0.051968,0.338610,0.939491
0.332131,0.086411,0.768019,-0.625022,-0.777924,0.064669
-0.121567,0.382329,0.711756,0.902717,0.429963,-0.015280
-0.029100,-0.684726,0.595828,-0.258025,0.920480,0.293497
0.304163,-0.826531,0.530281,0.983589,0.073844,-0.164617
0.203980,0.316974,0.618467,0.799126,-0.379995,0.465833
-0.212688,0.325883,0.830914,-0.393552,-0.907996,0.143734
0.095440,0.286119,0.079238,0.965288,-0.260291,0.021639
0.146277,0.285472,-0.542919,0.124034,-0.964422,0.233466
0.591405,0.578312,0.475235,-0.162861,0.267487,0.949698
-0.558625,0.747166,0.590741,0.995135,0.034818,-0.092163
-0.125177,-0.277940,0.286567,-0.692824,-0.660019,-0.290464
0.067897,-0.064788,0.928212,0.910693,0.311784,0.270978
-0.378434,0.802640,0.487545,-0.331778,-0.910400,0.247174
-0.302464,0.426547,0.709478,-0.003017,-0.701168,0.712990
0.061243,0.071672,0.846844,-0.138914,0.928819,-0.343509
0.126238,0.297214,-0.580600,-0.246300,0.968938,-0.022260
-0.597848,0.298105,0.493708,-0.537362,0.305384,-0.786119
0.077599,0.485423,0.498295,0.561682,0.650512,-0.511221
-0.043614,0.695578,0.277689,0.983450,0.122321,-0.133656
-0.205183,-0.344995,0.506971,0.898204,-0.439441,0.011002
-0.155693,-0.050454,0.872542,0.404674,-0.294864,0.865618
-0.391815,0.835763,0.459055,0.890865,-0.067513,-0.449223
-0.382825,-0.071104,0.727686,-0.591045,-0.653894,-0.472322
0.258142,0.397230,0.501900,-0.410779,0.541229,0.733711
-0.837015,-0.370749,0.335310,0.467293,0.026984,0.883691
0.010337,0.112892,0.259559,-0.503075,0.445210,-0.740745
-0.301189,-0.504049,0.666461,0.546065,0.437664,0.714328
-0.019399,-0.848640,0.575014,-0.408765,0.849523,0.333499
-0.168082,-0.175575,0.841180,0.081579,0.089477,0.992642
0.084537,0.403223,0.757035,0.897058,0.395538,0.197071
-0.553880,0.226352,0.579991,-0.007931,0.552972,0.833162
-0.595795,-0.143748,0.534447,-0.522466,0.852143,-0.029690
-0.120364,-0.710965,0.557398,0.129223,0.965384,0.226571
-0.153286,-0.667314,0.588682,-0.465544,0.855274,0.227542
-0.607830,-0.310415,0.610136,0.418776,-0.804855,0.420518
0.192368,0.296728,-0.657849,-0.080147,0.990575,-0.111073
-0.965591,0.002834,0.451409,-0.588303,-0.800399,0.115158
0.124043,-0.118967,0.459694,0.830145,-0.263492,-0.491357
0.045243,-0.099206,0.634070,0.337016,0.741255,0.580484
0.076536,0.077097,0.944361,0.974548,-0.203661,0.093692
-0.007152,0.276887,0.395973,0.654532,0.726755,0.208361
0.639549,0.321023,0.457604,-0.077556,0.085135,0.993346
-0.058269,-0.702786,0.258825,0.278482,0.951850,-0.128177
-0.337865,0.617671,0.442594,-0.030399,-0.735155,0.677217
-0.414544,0.151117,0.637066,0.855944,0.236762,-0.459677
0.058624,0.166829,0.028842,0.772621,0.626211,-0.104480
-0.109813,-0.104228,0.669098,-0.655422,0.752921,0.059432
-0.015151,-0.839812,0.433248,0.573512,-0.794238,-0.200674
0.363212,0.220198,-0.981448,0.353327,0.329996,0.875364
0.310394,0.377308,0.751699,-0.303367,0.884200,-0.355189
0.103724,-0.138889,0.452923,0.712117,-0.200928,-0.672694
-0.842892,0.384840,0.542607,-0.186404,-0.981560,0.042354
0.304093,-0.057337,0.534057,0.704151,0.205065,0.679794
-0.040074,-0.033285,0.844909,0.461031,0.040610,-0.886454
-0.821226,0.365403,0.486063,-0.465204,0.513635,-0.720946
-0.217219,-0.333738,0.662014,0.316342,0.861013,-0.398226
0.148400,0.288144,-0.675261,-0.097983,-0.993440,0.058965
0.005097,0.062439,0.822051,0.345897,0.840066,0.417904
-0.857759,-0.128603,0.450364,0.831873,0.384843,-0.399854
0.191871,-0.794218,0.452720,0.330973,0.564176,-0.756414
0.606838,-0.219550,0.506034,0.560244,0.580181,-0.591200
0.239026,-0.427114,0.674543,-0.456089,-0.758743,-0.465072
-0.443996,-0.332037,0.123784,-0.045560,0.289905,0.955970
0.489662,0.029884,0.269810,-0.168070,0.933071,0.318012
-0.714884,0.152980,0.426991,0.296267,0.557250,0.775692
-0.729680,0.363460,0.494520,-0.359748,0.870484,-0.335916
0.040640,-0.701895,0.285272,-0.176164,0.279272,0.943914
0.253328,0.247166,0.844270,0.617715,-0.727512,0.298588
0.252053,-0.839083,0.481975,0.976314,0.156353,0.149547
0.041701,0.396664,-0.180422,0.865248,0.432418,-0.253692
-0.413764,0.506559,0.505083,0.097921,-0.904358,0.415390
-0.209572,-0.173064,0.633087,-0.532330,0.837837,-0.121051
-0.636153,0.359086,0.666258,-0.696483,-0.655677,-0.291546
0.031930,-0.670797,0.282432,-0.557874,0.395990,0.729362
-0.332414,-0.088921,0.575342,-0.629100,0.774557,-0.065538
-0.007221,0.154033,0.136422,0.746383,-0.663885,-0.046571
0.077456,0.481050,0.799724,0.824404,0.559279,-0.086978
0.116398,0.154600,0.235936,0.996795,0.027522,0.075110
-0.426155,-0.303531,0.304541,0.300099,-0.131177,0.944846
0.591405,0.553288,0.643837,0.112623,0.987492,0.110339
0.146700,0.228458,0.126983,0.089549,-0.980491,0.174979
0.313579,-0.445254,0.755615,-0.724770,-0.643239,-0.246886
0.062660,0.114998,0.987783,0.957183,0.211281,-0.197894
0.569385,-0.730239,0.313185,-0.379688,-0.467158,-0.798499
0.370293,0.027211,0.290546,0.390021,0.657133,-0.645027
-0.271949,-0.083982,0.311828,0.033860,0.105057,0.993890
0.129708,0.415857,0.790144,-0.669239,-0.719527,0.185474
0.486760,-0.287739,-0.016750,0.950516,0.272297,-0.149578
-0.176295,0.388403,0.381946,0.500054,0.771536,-0.393292
-0.110450,-0.513120,0.598636,0.787982,0.127148,-0.602426
-0.562093,0.335520,0.635833,0.883447,-0.315465,-0.346415
-0.203483,0.547376,0.762402,0.529942,0.839431,0.120489
0.600043,0.567946,0.630887,-0.039252,-0.980716,0.191454
-0.787667,0.020975,0.445652,0.280117,0.936453,0.211166
0.063792,0.267168,0.128792,0.992301,-0.043391,-0.116001
0.427216,0.460398,0.488372,0.259066,-0.964173,-0.057055
-0.376948,0.163589,0.457011,0.451339,0.804099,-0.386935
0.062163,0.069566,0.899472,0.426080,-0.898402,0.106442
-0.725221,-0.159540,0.279078,0.503854,0.372842,0.779179
-0.364273,-0.257208,0.795464,0.813676,0.506258,-0.285715
0.040143,0.042517,0.725034,0.985693,0.164043,-0.038712
-0.789013,0.234046,0.490182,-0.533007,-0.840904,0.093721
-0.024427,0.180677,-0.990404,-0.078775,0.267561,0.960315
-0.784480,0.669339,0.533308,0.675736,0.630363,-0.382129
0.322146,-0.512066,0.681190,0.853457,-0.213083,0.475613
0.041418,0.169096,0.866706,0.856191,0.175666,0.485880
-0.387213,-0.331714,0.300609,0.073894,0.135413,0.988030
-0.450439,0.727648,0.664027,0.899712,0.064599,0.431677
0.098413,0.191448,-0.000289,0.568124,0.822943,-0.000120
0.014230,0.041141,0.472239,-0.020769,-0.327469,0.944634
-0.918650,-0.031098,0.479323,0.726973,0.677330,0.112847
0.067331,-0.131519,0.334514,-0.780177,0.357628,-0.513250
-0.004531,-0.671040,0.580740,0.217190,-0.271856,-0.937509
0.017983,0.160593,0.717529,0.768809,0.636946,-0.056861
-0.581280,0.249109,0.499044,0.404623,0.457804,0.791641
0.006797,0.049239,0.895072,0.997682,-0.054899,0.040202
-0.010763,-0.658325,0.399062,0.926699,-0.284741,-0.245259
-0.413692,-0.123259,0.535976,0.282013,0.678519,0.678292
-0.741646,0.255345,0.593082,-0.308638,-0.139463,0.940900
-0.069527,-0.338112,0.654541,0.793810,0.578119,0.188795
-0.085246,-0.783690,0.642121,-0.653645,-0.060574,-0.754373
-0.569599,-0.111354,0.520389,0.190278,0.967487,-0.166624
0.638700,0.153385,0.455170,-0.173795,0.553044,-0.814824
0.037099,-0.803450,0.461473,0.955165,0.060504,0.289827
-0.003894,-0.127794,0.884244,0.349433,0.782011,0.516097
0.464812,0.209750,0.007216,0.162382,0.930605,0.328034
-0.480672,-0.014901,0.524555,0.234890,0.193019,0.952665
0.195413,0.391885,0.689756,-0.169582,-0.503182,0.847378
-0.540853,0.695011,0.469727,0.245746,0.575816,-0.779773
0.069952,-0.260690,0.816153,0.001499,0.432843,0.901468
-0.537029,0.326692,0.634803,0.783666,0.494970,0.375329
0.052606,0.269436,0.036471,0.888573,-0.122899,-0.441967
0.352944,-0.591756,0.694187,-0.204743,0.924621,0.321181
-0.002195,0.024052,0.541983,0.813281,-0.528097,-0.244310
0.200650,0.315193,-0.907211,0.485004,-0.860314,0.156942
0.047790,0.123745,0.882777,0.851629,0.458907,-0.253241
-0.244618,-0.062602,0.757784,0.962490,-0.270502,-0.021019
-0.460421,0.345238,0.597201,-0.484953,-0.721944,-0.493576
0.087298,-0.025024,0.223423,0.768421,0.249041,0.589498
-0.475361,-0.035957,0.775508,-0.366873,-0.925434,-0.094738
-0.861018,-0.127065,0.506690,0.537001,0.822039,-0.189423
-0.172402,0.632248,0.673576,0.131517,0.554655,0.821621
0.140894,-0.035147,0.467745,0.987829,0.113731,-0.106110
0.544958,-0.183188,0.528487,0.306391,0.605932,-0.734146
-0.140825,0.123259,0.770531,0.407807,0.907385,-0.101714
0.553314,0.079284,0.737734,-0.005354,0.969311,0.245778
-0.729823,0.336330,0.407893,-0.738262,0.452898,-0.499853
0.287596,-0.385001,0.666664,-0.117422,0.892530,0.435435
0.184508,0.080256,0.964254,-0.843198,0.265103,-0.467694
0.050834,0.151846,0.149996,0.811313,-0.584150,-0.023242
0.107689,0.171363,0.511729,0.811449,-0.584412,0.003675
-0.657109,-0.103337,0.482646,-0.018711,-0.876141,-0.481691
0.015010,-0.130547,0.890422,-0.459891,-0.772326,-0.438194
-0.052961,-0.017168,0.276675,0.519957,-0.853432,-0.036024
0.342538,0.226676,0.592770,-0.175290,0.851899,0.493500
0.104504,-0.110706,0.871543,0.556974,0.679178,0.478015
-0.101034,-0.008341,0.683531,0.164124,-0.330886,0.929289
0.024781,-0.247247,0.562766,-0.122578,0.731711,0.670502
-0.135726,0.023971,0.856096,0.712304,-0.662233,0.232529
-0.555367,0.772109,0.472411,-0.066334,-0.943986,0.323250
-0.689820,0.048672,0.444170,0.846817,0.059757,-0.528517
0.641533,0.364351,-0.986410,-0.102816,0.217829,0.970556
0.208368,-0.296486,0.489870,0.783889,0.036404,-0.619833
0.306358,0.208779,0.791298,0.161203,-0.804304,0.571934
0.221963,-0.191286,0.649907,0.740041,0.610321,0.282574
0.013310,0.056446,0.446963,-0.189486,-0.463640,-0.865525
0.352378,-0.322805,0.592489,0.934909,0.179059,-0.306404
0.484141,-0.517493,0.532216,-0.426720,-0.812616,-0.396944
-0.097564,-0.176951,0.655165,0.943340,-0.078905,-0.322309
0.494264,-0.579932,0.424385,0.145315,0.288710,0.946324
-0.217219,0.111354,0.504053,-0.027610,0.608011,0.793448
-0.004814,0.094105,0.448991,-0.351232,0.752703,0.556844
-0.288517,-0.204810,0.411903,-0.660051,0.434466,0.612840
-0.189181,-0.558390,0.521497,-0.024726,0.341244,0.939650
-0.555012,0.467606,0.474002,0.404136,-0.054319,0.913084
0.473237,-0.224895,-0.012474,0.826010,0.185789,0.532156
0.201288,0.279397,-0.872292,-0.234131,-0.971914,-0.023765
0.062660,-0.881681,0.460568,0.712963,0.457324,0.531544
0.108398,0.238500,0.368684,-0.509387,-0.860487,0.009297
-0.098201,-0.647312,0.614988,0.868759,-0.432696,0.240899
0.496602,0.568918,0.647551,-0.132846,0.861451,0.490157
0.342962,-0.310900,0.604955,0.996394,0.083492,-0.015072
0.255098,0.163833,0.772856,-0.248265,-0.967840,-0.040632
-0.385018,-0.433026,0.313731,-0.315784,-0.116358,0.941670
0.077102,0.554746,0.733678,0.929785,0.354486,-0.099197
0.187906,-0.091270,0.726048,-0.717860,0.436839,-0.542078
-0.175872,-0.603580,0.704859,0.964926,-0.059554,0.255679
0.466370,-0.643829,0.666742,0.828702,0.494592,-0.261976
0.000637,-0.064383,0.875069,0.196200,0.532426,0.823424
0.307490,-0.535066,0.669722,-0.747740,0.529457,0.400701
-0.173039,-0.313897,0.775696,-0.118230,0.012622,0.992906
-0.187552,-0.283851,0.686043,-0.574212,-0.797512,0.185082
-0.435357,0.349044,0.695030,0.730873,-0.443761,0.518557
-0.433234,-0.449222,0.303293,-0.156449,-0.133419,0.978633
-0.584041,-0.335763,0.399796,0.489870,0.681317,-0.543907
-0.466158,0.693230,0.559864,-0.748359,0.587177,-0.308515
0.007647,-0.041545,0.853553,0.848509,0.062063,-0.525528
0.249151,0.235180,0.830742,0.464216,-0.832120,0.303448
-0.599263,-0.197036,0.306554,-0.158528,0.326145,0.931933
0.023435,0.350826,0.593690,0.431757,-0.511770,0.742750
-0.691235,-0.315354,0.645039,0.849774,-0.378434,0.366978
-0.518834,-0.198008,0.520951,-0.089577,-0.946559,0.309843
-0.029100,-0.735585,0.416054,0.979270,0.175756,-0.100701
-0.035046,-0.115323,0.910285,0.804189,0.508697,0.307422
-0.443572,0.229187,0.359915,0.243140,-0.422602,0.873092
