0.207931,-0.326012,0.412009,0.686281,-0.671477,-0.279530
-0.673098,-0.336684,0.638612,0.969671,0.012947,0.244071
0.135717,-0.185022,0.885496,0.346411,0.696404,-0.628507
0.728230,0.238341,0.382244,0.775579,0.614151,0.145927
0.189146,-0.376992,0.806747,0.980347,0.080401,0.180156
0.139732,0.541753,-0.738469,0.931953,-0.348575,0.099798
0.092769,0.157416,0.590513,0.813737,-0.221488,0.537378
-0.177607,0.144892,0.663392,0.281668,0.743030,0.607099
-0.359469,-0.389032,0.504359,-0.771066,0.527336,-0.356894
0.244479,0.343917,0.848386,0.468453,0.881819,0.054293
-0.307843,-0.280501,0.891308,0.357196,-0.182816,0.915963
-0.605751,0.777161,0.678953,0.056310,-0.509268,0.858764
-0.201020,0.470310,0.718719,0.185378,-0.708929,0.680481
-0.272792,-0.201473,0.670959,0.110517,0.115144,0.987182
-0.681504,-0.421004,0.650545,0.345987,0.159181,0.924638
-0.266565,0.062645,0.811407,0.405343,0.877555,0.256113
0.103217,0.212367,-0.373822,-0.104048,0.992413,-0.065509
-0.296512,0.377611,0.486939,-0.203569,-0.006375,0.979040
-0.564674,-0.612401,0.569007,0.724646,0.305520,0.617694
0.062583,0.208663,0.314763,-0.528483,0.848840,-0.013257
0.278986,-0.193180,0.771745,-0.727200,0.684036,-0.057222
-0.415621,0.748848,0.699205,0.722425,0.689808,0.047614
0.075822,0.397454,-0.963848,-0.199487,0.309302,0.929805
-0.051113,0.357456,0.166895,-0.584206,0.523070,-0.620566
-0.413510,-0.181318,0.863165,-0.025067,-0.473586,0.880391
-0.111247,0.674538,0.770978,0.128169,-0.880475,0.456438
0.007010,-0.270402,0.286546,0.354681,0.607797,0.710481
0.300799,0.170382,0.853622,-0.815415,0.409476,0.409179
0.111384,-0.276797,0.883092,0.562010,0.666023,0.490467
0.043357,-0.348636,0.888137,0.349609,0.910275,0.221749
0.094709,-0.244427,0.813561,0.721231,0.649897,0.239705
-0.719108,0.629776,0.671490,0.182321,-0.600116,0.778858
0.292225,0.220304,0.796200,0.318040,0.446878,0.836152
-0.197481,0.356178,0.781067,0.363838,0.865660,-0.343883
0.500222,0.316927,0.414325,-0.353472,0.784290,0.509850
0.303624,0.015061,0.869271,-0.689523,0.179765,0.701600
0.118872,0.210735,-0.395785,0.495789,0.841634,-0.214114
0.096990,0.248529,-0.211101,-0.781173,0.179160,-0.598056
-0.110565,0.496594,0.795905,0.226899,0.437149,0.870297
0.110669,0.292143,-0.611251,0.946414,0.290568,0.140964
0.125099,0.151860,0.242784,0.199288,0.978973,-0.043543
0.221849,0.095898,0.324616,0.943756,0.201994,-0.261769
-0.244035,-0.072523,0.887635,-0.755185,-0.109904,-0.646233
-0.461289,0.259818,0.897636,0.376459,-0.159177,-0.912656
-0.313764,0.647990,0.698851,0.992776,0.111353,-0.044680
-0.224570,0.490156,0.660324,0.989531,0.119008,0.081642
-0.820247,-0.019072,0.589318,0.772086,-0.366547,0.519159
0.121900,0.368791,0.842014,-0.279958,0.702281,-0.654542
-0.145481,0.483187,0.599141,0.083277,0.646561,0.758304
0.488244,-0.096867,0.743425,-0.651390,0.624205,-0.431346
-0.549192,0.494169,0.460640,0.865182,-0.266803,0.424589
0.082390,0.155653,-0.328687,0.989430,-0.143936,-0.017626
-0.114206,-0.695132,0.608168,0.903107,-0.108391,0.415510
0.285419,0.494874,0.678186,0.362479,-0.124492,0.923640
-0.134354,-0.146569,0.224508,-0.686909,0.500735,0.526708
0.372367,0.053251,0.839078,-0.311991,-0.072482,0.947316
0.161375,0.582413,0.833119,0.894445,-0.428223,-0.128813
-0.344358,0.178365,0.326253,0.064979,-0.075596,0.995019
0.639613,-0.126591,0.732024,0.834809,-0.169038,-0.523946
-0.550654,-0.138938,0.559863,-0.727930,0.428208,-0.535496
-0.814361,0.025161,0.563167,0.656340,-0.038143,0.753500
0.023311,-0.026482,0.252445,-0.076554,0.258540,0.962962
-0.270272,0.004916,0.471230,-0.405414,0.766868,-0.497547
0.211503,-0.021279,0.830155,-0.447770,-0.571423,0.687734
0.345619,0.065027,0.718719,0.747418,-0.640996,-0.174615
-0.512913,0.026880,0.797970,-0.058718,-0.161428,0.985136
-0.408847,0.064938,0.504078,0.364948,0.756020,0.543365
0.264523,-0.315913,0.523946,0.882720,-0.469870,0.005341
0.024026,0.242486,0.868726,0.887059,0.410857,0.210530
-0.772127,0.826774,0.692582,-0.696850,-0.502178,0.512072
-0.062616,0.539150,-0.983274,0.229768,-0.073205,-0.970488
-0.509715,0.575401,0.447999,0.712750,-0.214482,0.667821
0.367910,0.437851,0.796422,-0.431364,0.205326,-0.878502
-0.911076,-0.046417,0.611192,-0.570567,0.723288,-0.388984
0.171108,-0.298934,0.322005,0.987798,0.151251,-0.037113
-0.360524,0.092544,0.227458,0.972688,-0.230901,-0.023714
0.242097,0.361822,0.678629,0.166641,0.985613,0.028240
0.112065,0.368659,-0.953302,-0.212986,0.295516,0.931293
-0.136190,-0.263743,0.714250,-0.650751,0.607649,-0.455286
0.462004,0.034772,0.555423,0.103075,0.993839,0.040732
0.268777,0.282972,0.799209,0.172239,-0.187255,0.967093
-0.485348,-0.635113,0.542871,-0.454836,-0.298046,-0.839222
-0.068403,-0.495181,0.797425,0.899110,-0.437582,0.011082
0.408814,-0.015589,0.921250,-0.347676,0.849678,0.396444
-0.061766,-0.133514,0.770049,0.981277,-0.160864,-0.105919
0.316658,-0.443011,0.683939,0.184346,0.197868,0.962738
0.484397,0.156358,0.749517,0.207049,-0.970116,-0.126511
-0.522408,0.668364,0.516409,0.777180,-0.404211,0.482291
-0.400749,0.578268,0.733292,-0.079506,0.740276,0.667585
-0.493584,-0.049854,0.657300,0.616140,-0.672497,0.410023
-0.438284,-0.137923,0.775978,0.642760,-0.103242,0.759079
0.081233,-0.102821,0.874640,0.907941,-0.397294,0.133417
-0.045023,-0.505544,0.760786,0.822592,0.017677,0.568357
0.494743,-0.240855,0.858062,-0.400368,0.260838,0.878447
-0.431273,0.458049,0.280543,0.233739,-0.814956,0.530295
0.116556,0.135145,-0.313790,-0.672201,0.558711,-0.485786
-0.295864,0.326321,0.606295,-0.704144,-0.152825,0.693416
-0.337927,0.057794,0.967078,0.789214,-0.200894,0.580330
0.391290,0.016649,0.796657,0.975060,0.174538,-0.137092
-0.335171,-0.005888,0.514610,-0.302060,0.949929,-0.079970
-0.212455,-0.010738,0.880393,0.090800,0.892380,0.442056
-0.032261,-0.068112,0.799475,0.607347,-0.792514,-0.055239
0.145346,0.441027,0.940042,0.844060,-0.525189,-0.108354
0.169542,-0.317412,0.801230,0.817279,0.230775,0.528013
-0.495727,0.781702,0.528445,-0.148122,-0.472429,0.868833
0.291442,0.080507,0.871882,-0.004344,-0.419350,0.907814
0.177778,-0.575929,0.641489,-0.156011,0.985315,0.069384
-0.648017,-0.324381,0.650117,-0.578899,-0.196361,0.791403
0.081845,0.205707,-0.655811,0.953132,-0.276627,0.122546
0.090966,0.152213,-0.562208,0.994284,0.106471,-0.007914
-0.062173,0.172500,0.599835,-0.872806,0.389257,-0.294428
0.077762,0.158783,-0.212414,0.950249,0.200792,-0.238138
0.013273,0.477806,0.534065,0.051442,0.824265,0.563862
0.048733,-0.172850,0.497426,0.249759,0.443521,0.860761
-0.519923,0.797271,0.645220,-0.692585,0.705989,-0.148001
-0.589551,0.844723,0.686933,0.100817,-0.133084,0.985964
-0.766444,-0.387929,0.621665,0.614078,0.315124,0.723605
-0.274221,-0.144450,0.860274,0.998601,0.052830,0.002378
-0.532959,-0.119843,0.575276,0.731317,-0.358048,0.580497
-0.881095,0.542105,0.686889,-0.722132,0.315174,0.615785
0.596734,0.317237,0.795271,-0.101096,0.957228,0.271098
-0.064045,0.178586,0.553004,0.048433,0.811277,0.582653
0.252613,0.077726,0.811953,-0.253242,0.840246,0.479433
-0.077419,0.048753,0.718867,0.893212,0.449634,-0.001304
0.093620,-0.178718,0.790286,0.996957,0.077651,-0.006920
0.254858,0.481026,-0.953464,0.198949,-0.156935,-0.967363
0.075141,-0.608256,0.541278,0.716539,0.554073,-0.423763
-0.067177,-0.270534,0.709486,-0.237282,-0.450694,-0.860565
-0.021303,0.150272,0.931487,-0.115740,0.884278,0.452390
-0.231001,-0.032126,0.751715,0.864243,0.171407,0.472974
-0.071497,0.496462,0.202855,0.669148,-0.200086,0.715686
-0.448663,-0.093427,0.639055,0.137678,0.535593,0.833177
0.103013,-0.330068,0.865024,-0.550672,0.771841,0.317840
-0.659927,-0.442039,0.687612,0.686664,-0.495257,-0.532177
-0.244581,-0.378535,0.882458,0.268596,-0.912471,0.308632
-0.633316,0.518335,0.577975,0.889123,-0.456595,-0.031344
-0.145550,0.470089,0.238506,0.657880,-0.292479,0.694010
-0.594349,0.076006,0.527944,0.183791,-0.486351,0.854215
-0.908592,-0.416242,0.642196,0.010661,0.369322,0.929240
-0.311247,-0.768163,0.662743,-0.079579,-0.106526,0.991120
-0.115638,0.182952,-0.957402,0.214997,-0.327871,-0.919933
-0.002927,0.476350,0.610853,0.539410,0.775031,0.329185
-0.645055,0.172632,0.689662,0.956505,0.275435,0.096090
0.189314,-0.125619,0.768441,-0.605897,-0.052777,-0.793791
0.079089,0.119006,-0.913978,0.891291,0.438679,-0.114719
-0.868878,0.094485,0.602785,0.430852,-0.802559,-0.412631
0.473881,0.334480,0.379574,-0.218194,0.550631,0.805727
-0.385195,0.249410,0.809269,0.537908,0.583373,-0.608549
0.367432,-0.154813,0.513474,-0.082480,-0.707124,0.702262
-0.467211,-0.004741,0.788457,0.077168,-0.001500,0.997017
-0.314548,0.068335,0.888018,-0.895847,0.407988,-0.176081
-0.171040,0.448876,0.635574,0.202878,0.974194,-0.098928
0.441655,-0.149699,0.536661,-0.350751,0.766226,0.538397
-0.007588,-0.135850,0.488620,0.121942,-0.329322,-0.936310
-0.341024,0.022821,0.980383,0.776002,-0.123955,0.618431
-0.017252,0.070141,0.967093,0.934639,0.105564,0.339566
-0.089875,-0.325702,0.243108,-0.098082,0.216418,0.971362
0.136431,0.186788,-0.302595,0.305177,-0.744648,0.593605
0.298724,-0.211793,0.880304,0.731156,0.559084,-0.390943
-0.284430,0.102468,0.580453,0.366753,-0.349949,0.861991
0.130509,0.132413,0.245896,0.128179,0.986869,-0.098286
-0.655027,0.213602,0.629585,-0.417080,0.649228,0.636040
-0.349804,0.463253,0.741419,0.820520,-0.481433,0.308172
0.067790,-0.011444,0.823576,0.751721,-0.623147,0.215876
0.028348,0.452494,0.541735,-0.037797,0.879004,0.475313
-0.143304,0.089723,0.510347,0.160438,0.748594,0.643325
0.592412,-0.088488,0.694293,0.817582,0.393593,0.420291
0.104407,0.345726,0.947947,-0.201692,-0.963421,0.176467
0.087495,0.347930,-0.812219,0.998005,0.024572,0.058156
0.556372,-0.097219,0.669912,-0.222179,-0.491603,-0.841999
-0.237909,0.438777,0.660295,0.849673,0.462344,-0.253563
0.074187,-0.070494,0.478207,0.983314,0.172626,0.057390
-0.405206,0.100484,0.830715,0.771352,-0.546287,0.326476
-0.331835,0.518731,0.762084,0.782143,0.579466,-0.229065
0.266054,0.137132,0.458472,0.703449,0.550080,-0.450080
0.039340,-0.513571,0.552237,-0.104300,0.927441,0.359129
-0.027667,0.270092,0.925129,-0.335192,-0.016413,-0.942007
-0.841687,-0.434500,0.632801,0.005588,0.436769,0.899556
-0.020214,0.606140,-0.979852,-0.164782,0.152708,0.974437
0.054415,-0.210910,0.552488,0.955209,-0.035936,0.293743
-0.446928,0.215850,0.881042,-0.083010,0.971951,0.220045
0.058329,0.286940,0.583713,0.985994,-0.128131,0.106762
0.389757,0.056249,0.786524,-0.416149,0.626833,0.658711
0.486337,-0.115036,0.721153,0.797678,-0.520330,0.304904
0.535988,0.318074,0.747039,0.929062,0.367845,-0.039163
-0.510531,0.586647,0.496571,0.773357,-0.608613,0.177508
-0.310703,-0.762120,0.658126,0.393143,0.331145,-0.857777
0.000035,-0.313665,0.875629,0.363876,0.010955,0.931383
-0.741534,0.643094,0.684883,0.458147,-0.065928,0.886428
0.111180,0.438556,0.528194,-0.181324,0.983416,0.003707
-0.311145,-0.763181,0.660147,-0.079579,-0.106526,0.991120
-0.693618,0.696941,0.635308,0.958148,-0.135300,0.252282
-0.027293,0.090076,0.917636,0.265105,0.641738,0.719647
-0.079700,0.607771,-0.981769,-0.253464,0.108695,0.961219
-0.446791,0.603317,0.404590,0.828296,-0.303072,0.471247
-0.077589,0.238651,0.965249,-0.004513,0.810603,0.585579
0.533674,0.123945,0.796127,0.852723,0.516260,-0.079623
0.091851,0.117022,0.009824,0.933788,0.334245,0.127747
-0.259451,0.218054,0.321769,-0.315095,-0.027704,0.948656
0.020181,-0.204472,0.896234,0.009928,-0.534265,0.845259
0.102332,0.144585,0.008275,0.921501,0.013509,0.388140
-0.431205,-0.031774,0.541779,0.475137,0.751285,0.458057
-0.095695,0.232519,0.968420,0.052295,0.807547,0.587480
0.361070,-0.119092,0.917858,0.831300,-0.522121,-0.190605
0.096954,0.085489,0.026166,0.991818,0.121492,0.039206
0.347798,0.309167,0.801982,-0.253280,0.262852,-0.930998
0.308491,-0.286676,0.612726,-0.102878,0.729380,0.676329
0.302945,0.153228,0.496394,0.188677,0.868803,0.457802
-0.027156,-0.584219,0.588079,0.010425,0.699584,0.714474
-0.572264,0.525037,0.490125,0.890906,-0.380756,0.247613
-0.667176,0.066174,0.528062,-0.121978,0.632965,-0.764511
0.151133,-0.367509,0.418794,-0.553192,0.832222,0.037221
0.079326,0.191948,-0.472042,0.823752,-0.537380,0.180707
-0.906346,-0.492183,0.648155,-0.017124,-0.125056,0.992002
0.278034,0.558158,-0.957683,-0.196284,0.056210,0.978935
-0.263875,-0.014706,0.785654,0.952514,0.213078,0.217518
-0.036378,0.046239,0.993377,0.452910,-0.379162,0.806913
0.289571,0.319487,0.722761,-0.329041,-0.593978,-0.734113
-0.472688,-0.043372,0.632034,0.141373,0.946895,0.288795
0.212966,-0.248527,0.300279,0.966476,-0.125170,-0.224181
0.103931,0.484907,0.530967,0.164393,0.925343,0.341635
-0.337960,0.714451,0.699647,0.564740,0.731325,-0.382402
-0.229368,-0.039889,0.852560,-0.570742,0.789566,0.225475
-0.828109,-0.411656,0.629276,-0.318532,-0.248505,-0.914758
0.147764,-0.106877,0.175730,0.732949,-0.609491,-0.302171
0.075209,0.170514,-0.073455,-0.350428,0.915412,0.198044
0.008134,-0.492535,0.595454,-0.188065,-0.214235,-0.958507
0.336533,0.038522,0.636665,-0.514053,0.770432,0.377072
0.085520,0.045402,-0.323009,0.957215,0.001758,0.289372
0.443084,-0.126502,0.525643,-0.429140,0.011774,0.903161
0.042709,0.226565,0.074635,0.634333,0.771080,0.055300
-0.603742,-0.435733,0.641282,-0.338609,-0.152647,-0.928462
0.015076,0.338714,0.816157,0.550892,-0.804098,-0.223480
0.107811,-0.047343,0.129224,-0.224686,0.900610,0.372045
-0.945618,-0.370290,0.642182,0.216718,0.049840,0.974961
-0.494197,0.332319,0.595292,0.409650,-0.544784,0.731709
-0.112948,0.300788,0.929938,-0.104968,0.169034,-0.980005
-0.052407,0.600980,-0.983657,0.166392,-0.050182,-0.984782
0.111758,-0.358514,0.264422,0.292015,-0.531978,-0.794812
-0.040395,-0.165222,0.867664,0.930938,-0.364571,0.021029
0.022698,0.573240,-0.979778,-0.212849,0.140875,0.966876
0.181454,-0.522876,0.604083,0.220017,0.931947,0.288215
-0.066971,0.050826,0.720017,0.864452,0.054408,-0.499763
0.164540,-0.098366,0.170715,0.842140,-0.433432,-0.320838
-0.543338,-0.016824,0.793177,0.069797,0.063038,0.995567
-0.299063,0.691518,0.725312,0.712818,0.686346,0.144289
-0.438421,-0.021411,0.641990,-0.457414,0.888849,0.026841
-0.347559,0.027408,0.492824,-0.293935,-0.952185,0.083346
-0.494809,-0.624441,0.537384,0.170485,0.293288,0.940700
0.404662,-0.323323,0.571943,-0.641947,-0.689867,-0.334644
0.230424,-0.335449,0.423234,0.868459,-0.426398,-0.252909
0.597652,0.133382,0.727849,0.585581,-0.471862,0.659121
-0.949770,-0.384489,0.644822,-0.202951,-0.123457,-0.971375
0.070853,0.162048,0.515052,0.812631,-0.215654,-0.541409
-0.140922,0.548455,-0.988141,-0.116722,0.303320,0.945713
0.275446,0.326410,0.823281,-0.195058,0.960807,-0.196983
0.411911,-0.271637,0.549980,0.492802,0.605296,0.625110
0.106245,0.424710,0.716816,-0.622081,0.755669,-0.204890
0.176552,0.307491,0.738115,0.662481,0.240551,0.709404
0.189553,0.357104,0.872634,0.067141,-0.964943,0.253727
0.041484,0.261186,0.963494,0.882008,-0.287740,0.373185
-0.565050,0.915724,0.679986,0.073339,-0.046690,0.996214
0.055437,-0.065953,0.567680,0.993259,-0.095463,-0.065750
-0.243526,-0.092722,0.595838,0.837456,-0.025353,-0.545917
-0.000102,-0.350929,0.889980,0.181536,0.943869,-0.275965
-0.198945,-0.238915,0.457616,0.010532,0.411777,0.911224
-0.394384,0.623736,0.757098,0.138813,-0.950720,0.277241
-0.123906,-0.692707,0.617033,0.903107,-0.108391,0.415510
0.022088,0.701353,0.752718,-0.709099,-0.355542,-0.608908
0.421677,0.111727,0.851704,0.452771,0.805046,-0.383275
-0.257681,0.097265,0.738632,-0.092652,0.814144,0.573224
0.521728,0.227933,0.439680,0.688876,0.251917,0.679697
-0.173626,0.264362,0.484063,0.938446,0.261478,0.225718
-0.543644,0.576459,0.473074,0.941708,-0.294194,0.163208
0.410176,-0.010870,0.920881,-0.509657,-0.796065,0.326390
-0.204900,-0.187183,0.633140,0.715398,-0.694229,-0.079069
-0.350790,-0.113184,0.907651,0.428695,0.004730,-0.903437
-0.150655,0.155257,0.723188,-0.307190,0.672061,-0.673771
-0.004831,0.160328,0.340915,0.957767,-0.061895,0.280806
-0.035425,0.160592,0.563668,0.177903,0.833684,0.522802
0.142658,0.368880,0.870127,0.033715,0.368509,0.929013
0.425150,0.123108,0.748602,-0.158251,0.907700,0.388635
-0.559230,-0.103747,0.583979,0.723807,-0.099976,0.682721
-0.808439,-0.550439,0.655029,-0.750781,0.500431,0.431158
-0.675753,0.702058,0.717805,-0.751035,0.152616,0.642382
-0.069117,0.269608,0.552340,-0.321107,0.563763,-0.760961
-0.415517,0.144054,0.794519,-0.145950,0.047631,0.988145
-0.033553,0.524994,-0.980279,-0.238576,0.207762,0.948639
-0.091304,0.115302,0.465345,-0.714142,0.565391,-0.412714
-0.032737,-0.465767,0.553727,-0.666355,0.029545,-0.745049
-0.534864,0.469427,0.735018,-0.027931,0.093888,0.995191
-0.293858,0.110010,0.730372,-0.337094,0.269305,0.902132
0.051115,0.560538,0.806776,-0.603644,0.792649,0.085567
-0.101106,0.116713,0.471304,0.442210,-0.891256,-0.100566
-0.330439,0.281473,0.564052,0.241704,0.838927,0.487629
0.507266,0.387885,0.689042,-0.175649,0.533049,0.827651
-0.541943,-0.151815,0.557960,0.829474,-0.420917,0.367154
-0.408371,-0.207339,0.864035,0.248755,0.244157,0.937288
0.073780,0.147053,-0.129445,0.994253,-0.100363,-0.037265
0.080587,0.583869,0.760093,0.967531,0.234696,-0.093817
0.152290,0.128664,-0.418013,0.930021,0.359440,-0.076575
-0.069219,-0.600009,0.567547,-0.623636,-0.083270,-0.777267
0.169135,0.383124,0.868445,0.247082,0.952270,-0.179254
0.157327,-0.092897,-0.439194,0.904494,0.043561,0.424256
0.239579,-0.112522,0.309099,-0.274376,-0.162672,0.947763
-0.513017,0.711363,0.631930,-0.099411,-0.104207,0.989575
-0.169133,0.720006,0.502485,0.612127,0.788440,0.060514
0.090353,0.497652,-0.970235,-0.165988,0.146352,0.975207
-0.130678,0.673082,0.770300,0.403429,-0.724112,0.559381
0.289911,0.628807,0.657123,-0.801285,0.577206,0.157402
0.300936,0.258494,0.795596,0.133192,-0.227932,0.964524
-0.005309,-0.371302,0.537015,-0.348267,0.714682,0.606580
-0.734013,0.777293,0.664262,0.169964,-0.885516,0.432405
0.202416,0.352032,0.553579,0.961927,0.228193,-0.150411
0.599661,-0.058500,0.663141,-0.357818,0.056673,0.932070
-0.769643,-0.380564,0.629305,0.814245,0.052485,0.578144
0.083786,-0.565081,0.581147,0.328256,0.880171,0.342852
-0.054143,-0.332141,0.724339,0.263995,0.684518,0.679516
0.046521,-0.072833,0.853784,-0.032586,-0.197610,0.979739
0.576383,-0.098366,0.654262,-0.047564,0.409264,0.911176
-0.579478,0.181054,0.655855,0.722412,0.247072,0.645815
0.257241,-0.367071,0.545850,-0.728670,0.680493,0.077261
-0.212012,-0.694737,0.636459,0.441395,0.275203,0.854069
-0.414293,-0.208571,0.662389,-0.765800,-0.473545,-0.435092
0.074256,0.161254,-0.320648,0.796742,-0.345051,0.496127
0.160798,-0.277546,0.918315,0.453178,-0.028652,-0.890960
0.086473,-0.179246,0.406463,0.230622,0.633748,-0.738361
0.432092,-0.079756,0.822868,0.786526,0.053221,-0.615260
0.486304,0.185111,0.790374,-0.730256,0.562948,0.387061
0.172197,0.350929,0.569627,0.402472,-0.760894,0.508976
0.467381,0.298716,0.398734,-0.066982,0.820497,0.567712
0.059214,0.009150,0.435712,-0.541221,-0.817566,-0.196635
-0.218239,0.674186,0.360458,0.140248,-0.359833,-0.922416
0.060950,-0.102996,0.476968,0.783353,0.279577,0.555154
0.445466,-0.000860,0.833473,-0.523758,0.847163,-0.089402
-0.189756,0.130074,0.874493,-0.070896,-0.891705,0.447031
0.058397,-0.324954,0.310235,0.141338,0.989906,0.010512
0.196835,-0.424928,0.523061,-0.471428,0.855391,-0.214622
-0.125404,0.581003,-0.990132,-0.278520,0.112896,0.953772
-0.266189,-0.163370,0.451952,-0.010412,0.374543,0.927151
-0.411535,-0.679079,0.642167,0.306993,0.942854,-0.129542
-0.011605,-0.383388,0.583049,0.766834,-0.200585,0.609697
0.086814,0.658442,0.750726,0.643876,0.199287,0.738721
-0.018478,-0.067716,0.889538,0.915014,-0.353140,0.195044
-0.248357,-0.274636,0.862088,0.375819,0.820790,0.430190
-0.535647,-0.142598,0.575424,0.936264,-0.342135,0.079709
0.082865,0.404865,0.931103,-0.342188,-0.727042,-0.595245
-0.377369,0.013915,0.504653,-0.362256,-0.428147,0.827926
-0.292393,0.237106,0.938242,0.442785,0.134004,-0.886558
-0.347320,0.423165,0.591958,-0.259975,0.186378,0.947458
0.348410,-0.370155,0.627019,0.034687,0.966783,0.253234
-0.534660,-0.129105,0.574937,0.843060,-0.530362,0.089257
-0.680210,-0.499415,0.595115,-0.676499,0.380555,-0.630497
-0.447404,-0.415669,0.482057,-0.119976,0.607738,0.785023
-0.187442,0.424048,0.269540,0.726894,0.319418,0.607945
-0.696478,0.253953,0.635220,-0.225456,0.961316,0.158243
0.073574,-0.264227,0.670177,-0.702086,-0.216622,-0.678344
-0.020349,0.564818,-0.981607,0.188158,-0.163403,-0.968450
0.125610,0.159623,-0.421700,0.852201,0.507917,-0.125596
-0.173150,0.164296,0.577916,0.174401,0.558324,0.811085
0.083887,-0.157769,0.679617,-0.573904,0.807156,0.138321
-0.469151,0.617871,0.730548,-0.131177,0.197104,0.971567
0.047168,0.265199,0.113722,0.745131,0.649423,-0.151752
-0.250808,-0.292762,0.234317,0.017634,0.234947,0.971848
0.040395,-0.193269,0.664970,0.852161,-0.131594,0.506462
-0.782745,-0.064585,0.540599,-0.698407,0.139272,-0.702019
0.090796,0.197856,-0.090963,0.630197,-0.773774,0.064226
0.279191,0.242839,0.719987,0.517551,0.150725,0.842273
-0.068197,0.706513,-0.990885,-0.293960,0.183270,0.938083
-0.360659,0.280501,0.921147,0.591743,0.374311,-0.713955
-0.249038,0.306742,0.709471,-0.503316,0.817165,-0.280916
0.054008,-0.068378,0.524728,0.981334,0.183164,0.058608
0.091373,0.206281,-0.431081,0.867296,0.486528,-0.105299
0.241110,0.074464,0.873726,-0.552888,0.655309,-0.514669
0.304443,0.360366,0.683600,0.677277,-0.023667,-0.735348
-0.265100,0.083107,0.916663,0.854320,-0.519683,-0.008183
-0.718324,0.188023,0.637093,0.335616,0.608407,0.719168
-0.191729,0.173911,0.893078,0.148257,-0.907538,0.392932
0.098111,0.203325,0.416479,0.620614,-0.782978,0.042229
-0.799931,-0.388195,0.646931,-0.273959,-0.701501,-0.657907
0.028655,0.194152,0.913506,-0.380443,0.091213,0.920295
-0.735375,-0.160283,0.633995,0.868939,-0.224422,-0.441112
0.042096,0.182465,0.273242,0.797146,-0.556334,0.234628
0.098215,0.216908,-0.009706,-0.209936,-0.946064,0.246758
-0.619532,-0.118696,0.673791,0.435447,0.894382,0.102307
0.438797,0.358471,0.683806,0.005017,0.464513,0.885552
0.215928,-0.030318,0.767910,0.846158,-0.366067,0.387312
0.066089,0.120594,-0.920955,0.921170,0.382042,-0.074094
0.112711,0.118653,-0.851144,0.643336,0.760342,-0.089434
0.401498,-0.296465,0.470699,0.492058,0.854479,-0.166567
-0.412046,-0.143613,0.870230,-0.058905,0.938967,-0.338928
-0.514650,0.749332,0.525997,-0.037417,-0.592562,0.804655
-0.548238,0.934686,0.686771,-0.108653,0.087832,0.990192
0.054042,-0.011223,-0.376049,0.986494,0.003988,0.163747
0.350656,0.102159,0.530672,0.411123,0.909027,-0.068177
-0.214087,-0.379461,0.723218,0.029379,-0.480365,0.876577
-0.114514,0.549160,0.576309,0.290283,0.930437,0.223656
-0.082049,0.247073,0.947638,0.000561,0.713954,0.700192
-0.373761,0.328173,0.845775,0.985433,0.166086,0.036571
0.360150,0.092985,0.705931,0.795949,-0.596254,-0.104627
-0.257342,-0.742363,0.674042,-0.299721,0.927613,0.222938
-0.215313,0.604065,0.357744,-0.370267,0.125083,0.920466
0.032228,-0.374831,0.557665,0.747352,-0.604288,-0.276227
0.348138,0.533110,-0.946871,0.162973,-0.145569,-0.975833
0.239714,-0.413728,0.652271,-0.400230,0.781900,-0.477963
0.091475,0.445878,0.907193,0.412855,0.886879,0.207358
-0.045193,-0.089588,0.596870,0.567659,0.419965,-0.708091
-0.277862,-0.306212,0.476584,-0.741347,0.527312,-0.415147
0.383461,-0.085357,0.800198,0.854965,0.518314,-0.019627
-0.688275,0.456814,0.585778,-0.590675,0.474299,-0.652797
0.095220,0.220789,-0.309188,-0.428594,0.888375,-0.164609
0.064319,0.307579,0.775123,-0.516554,0.797109,-0.312712
-0.271838,0.033451,0.531366,-0.397647,0.470801,0.787542
-0.035529,0.222950,0.877295,-0.436376,0.220976,-0.872208
0.637061,-0.015104,0.759798,0.773412,0.314876,0.550170
-0.785331,0.847059,0.701506,0.374683,0.709738,-0.596561
-0.419158,0.108113,0.674528,0.293241,0.140716,0.945626
-0.713015,-0.451433,0.660664,0.418558,0.624810,0.659107
-0.085144,0.160371,0.717554,0.119054,-0.799635,0.588567
-0.226238,-0.299728,0.472115,-0.733452,0.679245,0.025980
-0.419465,0.127253,0.652654,-0.447451,-0.200410,-0.871564
0.701924,0.277414,0.389781,0.954997,0.269270,0.124398
-0.332788,0.588852,0.712775,0.838475,-0.433341,-0.330417
-0.644478,-0.392561,0.645869,0.977379,0.109245,0.181094
0.050263,0.334305,0.972860,-0.798695,0.465401,0.381428
-0.072962,-0.261670,0.875953,0.372815,0.280468,0.884503
0.693757,0.318604,0.374810,-0.488120,0.134210,0.862396
0.083445,0.177173,-0.534375,-0.379253,0.917829,0.117291
-0.321593,-0.155255,0.640574,-0.167973,0.109286,0.979715
0.391051,0.157683,0.769901,0.752103,0.200541,0.627794
0.116932,0.117638,0.536292,0.478707,0.696535,0.534488
-0.796595,-0.487685,0.646621,0.791675,-0.310086,-0.526400
0.017560,0.420213,0.631532,0.507975,0.725893,-0.463724
0.203743,0.352296,0.562635,0.909664,0.414179,0.031099
0.616676,0.101410,0.711256,-0.242662,0.766912,-0.594105
0.125643,0.162048,-0.066006,-0.397947,0.884001,0.245317
0.127924,-0.036538,0.118678,0.195556,-0.921146,-0.336524
0.001363,0.506693,0.899435,-0.276213,-0.068036,0.958685
-0.671125,-0.352606,0.647034,0.991815,-0.120208,-0.043056
0.040769,-0.504664,0.547915,-0.034391,0.918321,0.394339
-0.968896,0.006109,0.562400,0.059336,-0.765509,0.640683
0.437571,-0.166412,0.560954,-0.522610,0.313521,0.792832
0.362260,0.061808,0.835229,-0.707315,-0.025485,0.706439
0.050876,0.410420,-0.732584,0.986885,-0.070701,0.145115
-0.409290,-0.320984,0.875983,0.219182,0.943912,0.246961
0.059351,0.268065,0.613537,0.941395,0.337178,-0.009260
-0.129895,0.163017,0.906648,-0.619912,-0.779177,-0.092701
-0.183018,0.033847,0.438146,0.591024,0.298013,0.749586
-0.548101,0.663734,0.531764,-0.722465,0.175937,-0.668648
-0.323838,0.321205,0.587637,-0.029743,-0.909701,0.414198
0.534932,-0.122973,0.905778,0.938089,-0.210967,-0.274739
-0.050365,0.327778,0.180023,-0.616356,0.518039,-0.593078
0.394181,0.156315,0.754281,0.962642,0.204742,0.177203
-0.690419,-0.023395,0.631208,0.044336,0.916150,0.398375
-0.656660,-0.401379,0.656769,-0.785744,0.392442,-0.478117
0.548716,-0.083018,0.662787,0.078134,0.394487,0.915574
-0.207486,0.515159,0.539316,0.339833,-0.823971,0.453414
-0.023652,-0.258540,0.872103,0.304001,0.715774,0.628690
0.071568,-0.064674,0.591280,-0.690897,-0.720177,-0.063301
-0.164335,-0.365526,0.783383,0.289748,-0.151255,0.945076
-0.878169,-0.138717,0.573359,-0.202232,0.533658,-0.821165
-0.080686,0.161254,0.717038,-0.113224,-0.945466,0.305408
-0.073709,0.355074,0.197147,0.670026,-0.408934,0.619547
-0.257785,0.707966,0.487942,0.650890,0.746605,-0.137560
-0.467992,-0.107230,0.523356,0.755615,-0.582948,0.298692
0.270684,-0.079403,0.673894,-0.498943,0.650973,0.572093
-0.196085,-0.464884,0.771361,-0.176455,-0.197139,0.964365
0.126937,-0.365703,0.885939,-0.047250,0.667237,0.743345
-0.376042,-0.370597,0.558712,-0.627231,0.554793,-0.546613
0.120028,-0.386254,0.891913,-0.032869,0.020081,-0.999258
-0.075037,-0.636125,0.818856,0.737371,0.185662,0.649472
-0.583256,0.705719,0.563830,0.950338,-0.289388,0.114510
-0.731290,0.442570,0.605484,-0.714380,0.140928,-0.685420
0.075242,0.126327,-0.369559,0.867132,0.496780,-0.035935
-0.190539,0.501092,0.759621,0.050648,0.297104,0.953501
-0.433213,0.594760,0.724413,-0.150817,0.074151,0.985777
-0.130645,0.136292,0.727613,-0.438613,0.735385,-0.516554
0.206433,-0.190491,0.391124,0.621154,0.646510,-0.442936
-0.719176,0.180349,0.639822,0.335616,0.608407,0.719168
-0.131155,0.449848,0.726227,0.000383,-0.869058,0.494709
-0.569746,0.157769,0.607667,0.889226,0.421247,0.178405
-0.101854,0.111157,0.638052,0.977099,-0.189642,0.096508
-0.309137,0.649931,0.699161,0.973591,0.199206,0.111526
0.133197,0.456241,0.914436,0.811816,0.297260,-0.502584
-0.119617,0.639434,0.500450,0.581238,0.598024,0.551842
0.689162,0.220878,0.380592,0.943716,0.165884,0.286150
-0.253666,0.484555,0.649085,0.947013,0.314005,-0.067587
-0.139493,-0.111639,0.444341,-0.067776,0.364120,0.928883
0.123533,-0.443100,0.607313,0.620622,0.225177,0.751082
-0.309546,0.835727,0.536498,-0.376057,0.706212,-0.599872
0.378391,0.292716,0.398587,-0.100886,0.417099,0.903244
0.260745,-0.111421,0.696801,-0.690838,0.619220,0.373241
-0.102602,0.564287,0.742422,0.356835,0.691090,-0.628541
0.088311,0.188817,-0.602652,0.862246,-0.439661,-0.251456
-0.606635,0.518467,0.552827,0.866502,0.253238,0.430169
-0.299200,0.057396,0.944098,0.559941,-0.230300,0.795882
-0.071601,-0.647064,0.809770,0.608405,0.361251,0.706641
0.192207,-0.536679,0.607667,0.136245,0.942395,0.305499
-0.516554,-0.526448,0.532855,-0.150292,-0.588653,0.794292
0.145211,-0.154154,0.599510,0.106882,0.680320,0.725080
-0.190572,0.389342,-0.985884,-0.287721,0.279646,0.915978
0.579070,-0.240942,0.852368,-0.349223,0.121528,-0.929126
-0.258362,-0.018808,0.584524,0.891356,0.232565,-0.389099
0.010142,0.272033,0.764886,0.375704,-0.908260,-0.184145
-0.048903,-0.302199,0.556381,0.489164,-0.740426,0.460964
-0.665168,0.222509,0.691741,-0.712676,-0.692938,-0.109224
0.597210,0.125619,0.729250,0.572461,-0.567935,0.591387
0.493960,-0.163811,0.724825,-0.592288,0.266636,-0.760329
0.041076,0.454962,0.908698,0.182117,-0.973556,-0.137921
-0.016640,0.136558,0.404457,0.758005,-0.616432,0.213167
0.220283,0.444069,0.933743,-0.007248,-0.926322,0.376663
0.094640,0.207161,0.185362,0.778048,0.626031,0.052216
-0.941364,-0.188596,0.551396,0.143752,-0.411903,0.899817
-0.272792,-0.395734,0.491614,0.408234,-0.380351,-0.829866
-0.559535,-0.614474,0.577430,0.730583,0.435330,0.526057
-0.222290,-0.355074,0.882487,0.744580,0.651492,0.145462
-0.025760,0.345594,0.827396,-0.167007,0.868697,-0.466341
-0.118631,0.114772,0.944673,0.011325,0.326775,0.945034
0.120504,0.537696,-0.966134,-0.150998,0.084460,0.984919
0.334388,0.058677,0.670265,-0.694484,-0.316011,0.646397
-0.294639,0.635862,0.375783,-0.659974,0.704897,-0.259914
-0.307062,-0.185730,0.912961,-0.628057,0.425778,0.651351
0.085487,0.573770,-0.970943,0.226352,-0.088246,-0.970040
0.153582,-0.301405,0.874360,0.884357,-0.375272,-0.277640
-0.479429,0.026482,0.538888,0.608824,0.654508,-0.448277
-0.678577,0.671718,0.668200,-0.763728,0.559784,-0.321499
-0.072621,0.326012,0.923684,-0.141086,0.989798,-0.019875
0.105904,0.227626,-0.298096,0.517733,-0.851798,0.079954
-0.474323,0.543120,0.442394,0.247231,-0.752784,0.610076
0.186184,-0.261845,0.893358,0.940295,0.024057,-0.339509
-0.767670,0.380785,0.654085,-0.656725,-0.475889,0.585014
-0.712573,0.709643,0.694809,0.991930,-0.016920,0.125653
-0.209223,0.244516,0.804387,0.173033,-0.840507,0.513427
0.078204,0.260833,0.144121,0.754176,0.618285,-0.221229
0.263468,0.556261,0.689573,-0.516871,0.701715,-0.490347
-0.773523,0.716523,0.683688,0.934990,0.025185,0.353778
0.083478,0.613152,0.762349,0.760466,0.215615,0.612537
-0.607045,0.695267,0.581147,0.658993,-0.741798,0.124351
0.071024,-0.145861,0.637285,-0.675197,-0.695902,-0.244602
0.012149,-0.168573,0.688187,-0.289187,0.956614,0.035517
-0.131870,0.046769,0.433736,0.270644,0.741318,0.614165
-0.042470,0.001433,0.609599,-0.400140,-0.788857,0.466468
0.076842,0.280811,0.594894,0.972504,0.232845,-0.004436
0.538609,-0.189124,0.867900,0.241057,-0.339336,0.909254
-0.625421,0.344227,0.644748,0.802750,-0.567924,-0.181809
-0.404082,-0.399748,0.552119,-0.466933,0.692976,-0.549324
-0.103148,0.454610,-0.980073,0.215060,-0.187370,-0.958458
0.145824,-0.407731,0.903211,0.424130,0.004292,0.905591
-0.105971,0.092501,0.980751,0.295676,0.896540,-0.329836
-0.348441,0.552953,0.708940,-0.150154,0.964424,-0.217579
0.401430,0.366409,0.782380,-0.727348,0.331854,-0.600698
-0.146877,0.113625,0.922607,-0.432229,0.854276,0.288774
-0.476909,0.026261,0.515981,0.312864,0.468770,0.826057
-0.150722,0.366013,0.794342,0.342972,0.244695,-0.906915
-0.301615,-0.183964,0.913197,0.213313,-0.434458,-0.875068
-0.681606,0.205045,0.631385,-0.671372,0.445190,0.592508
0.069152,0.181011,-0.408366,-0.630378,-0.735105,-0.249488
-0.486609,0.793301,0.660457,-0.305756,0.846636,0.435570
-0.333638,-0.676127,0.639350,0.266269,0.252116,-0.930343
-0.247302,-0.773853,0.675369,0.072711,-0.854272,0.514717
-0.143780,0.133998,0.659012,-0.208747,0.959070,-0.191334
-0.203062,0.421225,0.729206,0.064670,-0.858202,0.509221
-0.291951,-0.422417,0.877767,0.620489,-0.319270,0.716282
-0.597652,0.251350,0.657433,0.168715,-0.239187,0.956203
0.510057,-0.120637,0.876174,0.270938,0.841473,-0.467457
-0.061868,-0.103128,0.776612,0.934354,-0.349385,0.070091
0.135546,-0.200413,0.913093,0.212274,0.671250,0.710185
-0.564063,-0.397586,0.629423,-0.595186,0.030646,0.803004
0.115060,0.214175,-0.213077,0.277054,-0.415682,-0.866285
-0.276194,-0.126238,0.809239,0.776149,-0.623938,-0.091072
0.733095,0.123415,0.375931,0.585685,0.344990,0.733454
-0.529794,0.252322,0.310663,0.839622,-0.179719,0.512578
-0.367023,0.422724,0.728896,-0.729131,0.346506,-0.590171
0.096547,0.204076,-0.673363,0.996653,-0.075235,-0.031971
-0.380262,-0.290334,0.672139,0.010166,0.497756,0.867257
-0.386795,-0.260876,0.674897,-0.328026,0.411106,0.850524
-0.764402,0.807324,0.712200,0.865749,0.493826,-0.081330
-0.108116,0.472824,-0.985294,0.172292,-0.228078,-0.958277
0.163348,0.480189,0.930336,-0.241794,0.935486,0.257686
-0.554976,-0.316354,0.650457,0.574163,0.817471,0.045578
-0.192207,0.429956,0.625603,-0.032338,0.880863,-0.472266
-0.363212,-0.210116,0.876499,0.824534,0.471247,-0.313160
-0.078100,0.281737,0.144903,-0.770931,0.236287,0.591468
0.016336,0.299464,0.938817,-0.713063,0.394657,0.579471
-0.350280,0.160108,0.229169,0.997009,-0.076010,0.013959
-0.553207,-0.022821,0.662065,0.063207,-0.382119,0.921949
-0.403845,0.246677,0.885570,-0.097366,0.995235,0.005213
-0.275650,-0.738837,0.413337,-0.153290,0.448986,0.880292
0.102365,-0.439130,0.470463,0.478931,0.853336,0.206015
-0.342146,-0.280722,0.879611,-0.107371,-0.909160,0.402367
-0.227123,0.072128,0.752246,0.827608,0.099651,0.552390
0.106382,0.193404,0.055297,0.626024,0.777177,0.063954
-0.486268,0.429119,0.615234,-0.433805,0.515907,-0.738684
0.275685,-0.250247,0.444267,0.317828,0.948118,-0.007573
-0.253938,0.264405,0.552193,0.402465,0.883524,0.239599
0.486779,0.228772,0.445654,-0.501700,-0.154002,-0.851223
-0.305869,0.126680,0.809475,-0.284004,-0.605453,0.743484
-0.447948,-0.015500,0.799268,-0.091985,0.322357,0.942138
-0.494606,0.114330,0.576309,0.712877,0.158857,0.683060
-0.396937,0.113846,0.730607,-0.187985,0.242771,0.951695
-0.550893,0.625367,0.471496,0.777664,-0.618750,0.111295
0.686030,0.091311,0.810906,-0.422478,-0.432706,0.796416
-0.613849,0.901525,0.667507,0.043598,-0.206222,0.977534
-0.694571,0.448922,0.584008,-0.633817,0.473450,-0.611655
-0.404593,0.302993,0.573182,-0.349423,-0.164213,-0.922463
-0.506755,-0.534211,0.534743,0.260549,0.268143,-0.927477
0.479462,-0.125356,0.726404,0.751334,-0.559541,0.349873
0.068199,0.272827,0.436819,0.664889,-0.736968,0.121659
-0.828075,0.106702,0.566574,0.618353,0.487771,0.616213
-0.880142,0.537255,0.678555,-0.321549,0.629717,0.707152
-0.675821,0.330467,0.510952,-0.113502,0.216864,0.969581
0.404288,-0.199266,0.549287,-0.378607,-0.167619,0.910253
0.357462,-0.019734,0.845657,0.791503,0.100681,-0.602815
0.081879,0.302861,0.775388,-0.735033,0.671871,0.091191
-0.039953,0.291305,0.825538,-0.408440,0.214914,0.887124
0.258057,0.252763,0.414177,0.934381,-0.138754,-0.328145
-0.147728,0.368702,-0.981268,0.166935,-0.292205,-0.941674
0.075855,0.255894,0.378483,0.567025,-0.804546,0.176604
-0.090453,0.147096,0.650117,-0.229134,0.969288,-0.089321
-0.022119,-0.004916,0.959025,0.948666,0.256782,0.184653
-0.365935,0.407906,0.740726,-0.347934,0.404477,-0.845778
0.091068,-0.237722,0.785802,0.948426,0.275884,-0.156132
-0.062412,-0.185552,0.781229,0.824786,-0.035817,0.564309
-0.065952,-0.306565,0.887001,-0.177211,0.188523,0.965948
-0.505257,-0.030318,0.658333,-0.467617,-0.872903,0.139195
-0.717099,-0.410025,0.620278,0.217916,0.409913,0.885711
0.481946,-0.337037,0.871218,0.491345,0.181276,0.851891
-0.292767,0.139820,0.732466,-0.439516,-0.023180,0.897936
0.389451,0.111905,0.775890,-0.617031,-0.050932,-0.785289
0.021542,0.493286,0.526203,0.168458,-0.782651,-0.599233
-0.002721,0.495227,0.908477,-0.289369,0.524368,0.800815
0.248359,0.040772,0.881160,0.173113,-0.495903,0.850948
-0.121661,0.246058,0.789445,-0.392516,-0.259786,0.882294
0.360218,0.186303,0.481142,0.261415,0.818080,0.512258
0.192922,0.492845,-0.960234,-0.223163,0.171565,0.959564
-0.146196,0.385856,-0.980737,-0.168988,0.301974,0.938219
-0.156338,0.136733,0.767099,0.839298,0.524465,0.143234
0.085283,0.122182,0.001195,0.860656,0.480745,0.167793
0.109240,-0.023174,0.110949,0.176629,-0.957298,-0.228872
-0.509579,0.693412,0.437364,0.035009,0.379688,0.924452
-0.311654,0.226433,0.183784,-0.662568,-0.419633,-0.620412
-0.759093,0.007872,0.620499,-0.514961,0.388728,0.764006
0.237197,0.575797,0.740992,0.275423,-0.464608,0.841595
0.118905,0.179776,-0.082319,-0.093384,0.995628,0.001868
-0.377369,-0.053515,0.625072,0.386523,0.710055,0.588576
-0.511586,0.281912,0.882089,-0.645305,-0.535390,-0.544921
0.052170,-0.297876,0.722495,-0.586875,0.728882,0.352574
0.049175,-0.023352,0.521793,0.996173,0.087348,0.002967
-0.016777,0.255054,0.744118,-0.028805,-0.998103,0.054406
-0.000987,0.414566,-0.969527,-0.206730,0.213976,0.954713
0.073813,0.185684,-0.350399,0.967372,0.243824,-0.068851
-0.654653,-0.278340,0.652035,-0.512318,0.459456,0.725555
-0.241347,-0.613416,0.638066,0.393300,0.376986,0.838568
-0.465815,0.219467,0.883004,-0.716326,-0.363281,0.595738
-0.099779,0.323719,0.800743,0.362617,0.072203,-0.929137
-0.799964,0.516130,0.687140,0.180976,0.412642,0.892734
-0.065169,0.222598,0.894700,0.715473,0.521063,0.465395
-0.081096,0.583161,0.757836,0.972437,-0.124258,-0.197299
-0.120944,-0.573019,0.593463,0.238962,-0.561929,0.791918
0.548477,0.169281,0.435403,0.776797,-0.241733,0.581508
-0.454211,0.032877,0.792159,0.067394,-0.000979,0.997726
0.180534,-0.397191,0.888092,-0.525929,0.078841,-0.846866
0.189179,0.414391,-0.185392,0.974072,-0.219765,0.053738
-0.596935,0.646050,0.630397,0.939741,-0.341853,0.004931
-0.371106,-0.050295,0.640028,-0.123902,-0.635847,0.761805
-0.327785,-0.255848,0.911559,0.860020,0.478318,-0.177701
-0.231138,0.527288,0.405829,0.143648,0.781567,0.607057
-0.040225,-0.358161,0.750431,0.176581,0.529979,0.829422
-0.254245,0.107407,0.924525,0.756101,-0.505117,0.416134
-0.449003,0.918017,0.549596,-0.645518,0.169557,0.744686
-0.177233,-0.274106,0.727407,-0.601601,0.354284,-0.715932
-0.138234,0.476307,-0.988333,-0.151251,0.098531,0.983572
0.311519,0.598862,0.681225,-0.690682,0.465450,-0.553457
0.485249,0.380037,0.393808,0.253721,-0.304616,0.918060
-0.727615,0.015150,0.610750,-0.262444,-0.825387,-0.499860
-0.625726,0.092501,0.539655,-0.181480,0.443885,-0.877514
0.622936,0.262994,0.752954,-0.362936,0.748979,-0.554354
-0.303283,0.172059,0.168636,-0.507196,-0.576966,-0.640205
-0.530440,0.578136,0.483001,0.954631,-0.250626,-0.160831
-0.019431,-0.213336,0.698423,0.302338,0.519474,0.799211
0.275276,0.247778,0.399619,0.588480,-0.231421,-0.774684
0.388600,0.085400,0.866971,-0.418708,-0.898969,0.128604
0.405071,0.233666,0.720887,0.130262,0.141539,0.981325
0.071772,0.285839,0.688142,-0.164476,-0.985838,0.032726
0.099166,-0.359792,0.868018,-0.240165,0.787441,0.567678
-0.720877,0.802695,0.689912,0.392583,0.859285,-0.327885
0.083786,0.183259,-0.194242,-0.452511,0.882004,0.131540
-0.138573,0.080859,0.946458,-0.159430,0.579370,0.799320
-0.117814,0.111773,0.550422,-0.245786,-0.664836,0.705396
-0.360760,0.064717,0.786126,-0.321102,0.141092,-0.936476
-0.712438,0.607903,0.666711,0.634447,-0.728932,0.257169
-0.214768,0.075788,0.809962,-0.500781,0.860695,-0.091777
-0.677420,-0.017487,0.648170,0.204333,-0.976826,-0.063717
-0.138301,-0.136028,0.195879,0.412500,-0.910173,-0.037805
0.363008,0.302640,0.397997,-0.066135,0.428010,0.901351
0.093415,-0.167163,0.626930,-0.467130,-0.853932,-0.229324
-0.545243,-0.032083,0.637978,-0.167545,0.774829,0.609565
0.208475,0.485965,0.764488,0.441665,-0.849132,0.289666
-0.766513,0.738396,0.715577,-0.599681,-0.125443,0.790346
-0.164096,0.106788,0.979055,-0.449297,-0.426121,0.785209
0.340480,-0.448612,0.680045,0.488701,0.159149,0.857813
-0.097737,-0.308769,0.583256,0.213568,0.439662,0.872403
-0.533061,-0.135498,0.576530,0.843060,-0.530362,0.089257
0.250195,0.140437,0.381713,0.915367,-0.340502,-0.214852
0.068268,0.168441,-0.389250,0.847090,-0.530644,0.029246
-0.290011,-0.105510,0.936030,0.952159,-0.255851,-0.167135
-0.485145,0.354369,0.401979,-0.392394,0.049815,0.918447
-0.115773,0.118080,0.640854,0.590105,-0.761661,0.267674
-0.207621,0.220084,0.579391,0.348802,0.565157,0.747620
-0.171548,-0.194814,0.881868,0.059762,-0.244443,0.967820
0.577268,-0.028775,0.656843,-0.165554,0.087908,0.982275
-0.798060,-0.499725,0.664233,0.899214,-0.101400,-0.425597
-0.245601,0.492888,0.313377,-0.399103,-0.897429,0.187986
-0.020929,-0.246764,0.802204,0.024394,-0.955311,0.294593
-0.258261,-0.147979,0.822205,0.115108,0.865955,0.486696
-0.847336,-0.101542,0.564243,-0.489480,0.289854,-0.822432
-0.241586,-0.234371,0.909185,0.907130,0.039587,0.418985
-0.322341,-0.318559,0.881529,-0.664210,-0.522651,0.534472
-0.021099,0.531828,0.512899,-0.082211,0.671223,0.736683
-0.505666,0.170912,0.833208,0.068095,-0.982076,0.175752
-0.364506,-0.433795,0.507368,0.641435,-0.753172,0.145925
-0.038114,-0.539987,0.763588,-0.222058,0.884106,0.411154
-0.656558,-0.426253,0.644040,-0.356373,0.818102,0.451339
-0.451045,0.532402,0.747186,-0.355419,0.367356,0.859492
0.030458,-0.068731,0.119460,-0.236036,0.895209,0.378005
-0.306312,0.280854,0.681800,0.582808,0.742386,-0.330451
0.590983,0.039448,0.761346,0.553691,0.665090,0.501081
-0.322102,0.659764,0.701889,0.970047,0.221409,0.099936
-0.719448,-0.024498,0.639792,-0.564857,0.580536,0.586443
-0.294537,0.196357,0.167648,-0.507196,-0.576966,-0.640205
0.078713,0.093427,0.023334,0.955293,0.291902,0.046991
0.419671,-0.165179,0.907975,0.587984,0.779209,-0.217044
0.310431,0.232387,0.768161,-0.323088,-0.945745,-0.034344
0.086031,0.186346,-0.111642,0.893236,0.344111,-0.289337
0.132483,0.391546,-0.951561,0.225401,-0.273892,-0.934975
0.079702,-0.142114,0.373143,0.839425,0.400673,-0.367187
-0.075105,0.427577,0.638833,0.200242,-0.423879,0.883306
-0.681435,0.705851,0.638686,0.863675,0.363287,-0.349412
0.108627,0.195918,0.090741,-0.715524,-0.692588,-0.091361
-0.069252,-0.079182,0.825391,0.954219,-0.298912,0.010865
0.031887,0.278472,0.537310,-0.490812,0.837026,0.241851
-0.524825,0.142114,0.413425,-0.397071,-0.077205,0.914535
-0.132447,0.500519,0.582725,0.683074,0.634645,0.361436
0.122035,0.295628,0.401684,0.472123,-0.877684,-0.082290
-0.089637,0.360412,0.682626,0.049699,0.991549,0.119839
0.278680,0.210999,0.468855,-0.346311,-0.892186,0.289954
0.116217,0.212189,-0.214685,-0.352693,0.404408,0.843838
0.389655,0.412845,0.700724,-0.206111,-0.454350,-0.866652
0.297567,0.090870,0.576530,0.931380,0.331121,-0.151296
0.209530,-0.550439,0.620632,-0.140945,-0.951688,-0.272810
0.067790,0.152697,-0.011667,0.826426,0.557955,-0.075544
-0.683953,0.197282,0.669041,-0.540953,0.604714,0.584543
0.081708,0.148598,-0.263625,-0.451666,0.870838,0.194009
0.128943,-0.209586,0.870982,-0.357828,-0.591002,0.722963
-0.300662,0.196577,0.658126,-0.080442,-0.839961,0.536651
0.598265,0.293467,0.387893,0.201238,0.503005,0.840529
-0.815790,0.002405,0.560880,0.747135,0.055575,0.662344
0.087938,0.378758,0.924274,-0.514968,0.706791,0.485030
-0.650842,-0.381668,0.660560,0.422740,-0.184537,0.887264
0.577540,-0.144055,0.674307,0.762521,-0.407907,-0.502169
-0.322409,0.044123,0.850996,0.846279,-0.047921,-0.530580
-0.496103,0.105025,0.663938,0.147817,-0.247732,-0.957486
0.243391,0.292982,0.800419,-0.277078,0.365317,-0.888691
0.024333,0.277239,-0.953228,-0.203628,0.391900,0.897190
0.104272,0.208795,0.015281,-0.219348,-0.973345,0.066975
0.583767,-0.051001,0.770226,0.303135,-0.084700,0.949176
0.352323,0.532757,0.735372,-0.144155,0.025762,0.989220
-0.287766,0.616237,0.395725,0.969101,-0.186718,-0.161183
0.052681,-0.254039,0.559641,0.990209,-0.112403,0.082773
0.155115,-0.361249,0.410328,-0.607479,0.787722,-0.102286
0.139663,-0.291085,0.866779,0.874922,-0.156688,-0.458214
-0.351947,0.140924,0.834432,-0.055856,0.998427,-0.004891
0.521525,-0.016383,0.867885,0.667808,0.713895,0.210682
-0.652884,-0.370422,0.660280,-0.540100,0.040246,-0.840638
-0.054891,0.349914,0.178400,0.697648,-0.461904,0.547661
0.029233,-0.048707,0.860156,-0.775609,0.153319,-0.612310
-0.405275,-0.180040,0.594643,0.860267,0.059451,0.506366
-0.561783,-0.600361,0.658185,-0.319945,0.427994,0.845255
-0.025828,0.249897,0.879243,0.234156,-0.756439,0.610714
0.013341,0.408127,0.627033,0.316350,0.700278,-0.639948
0.072895,0.163281,-0.305500,0.533495,-0.670001,0.516219
-0.109716,0.106349,0.506173,-0.389261,0.841538,0.374553
-0.783834,0.761108,0.688880,0.698636,-0.182709,0.691755
-0.141771,-0.384182,0.247297,0.026051,0.600641,0.799095
-0.010583,-0.410951,0.863755,0.089621,-0.531818,0.842103
0.088380,-0.159666,0.694367,-0.369830,0.922398,0.111391
-0.396902,0.085268,0.227355,-0.011755,-0.672250,0.740231
-0.136327,0.565081,0.762069,-0.615256,-0.787141,-0.043236
-0.228585,-0.066260,0.795831,0.786533,-0.555770,-0.269232
-0.289228,0.526582,0.525761,0.691792,0.352017,0.630483
0.132246,0.161254,-0.112217,0.701908,0.632681,-0.327170
-0.109953,-0.221230,0.858106,-0.447915,-0.203821,-0.870534
-0.841722,-0.547176,0.639527,-0.131724,0.405349,0.904622
-0.253122,0.511455,0.656224,0.989531,0.119008,0.081642
-0.332618,0.110715,0.818856,0.096712,-0.882698,0.459881
-0.682831,-0.132015,0.599407,-0.337239,0.230534,-0.912756
-0.151301,0.445261,0.649527,0.096995,0.908206,-0.407129
0.027634,-0.005315,0.386108,0.891476,-0.249821,-0.377968
-0.042129,-0.012854,0.635942,-0.376940,-0.846621,-0.375699
0.191187,0.281516,0.826482,-0.710354,-0.437944,-0.551001
-0.080788,-0.567948,0.575011,-0.808507,0.264975,-0.525456
-0.795677,0.514411,0.691683,0.180976,0.412642,0.892734
-0.064454,0.054045,0.718867,0.864452,0.054408,-0.499763
0.468607,0.414127,0.404959,-0.155656,0.088337,0.983854
-0.405036,0.627044,0.436465,0.171810,0.833525,0.525087
0.084737,-0.399748,0.905306,0.505757,-0.041165,0.861693
-0.083544,0.374831,0.715312,0.762405,0.522392,-0.381897
-0.367737,-0.216598,0.564523,0.785153,0.089161,0.612850
-0.191322,0.648254,0.370149,-0.427301,0.210621,0.879234
0.192853,-0.380874,0.796746,0.995664,-0.088530,0.028550
-0.572536,-0.157594,0.689146,-0.533030,0.831395,0.157037
-0.273847,-0.316486,0.669292,-0.605664,-0.191033,-0.772449
-0.046043,0.167957,0.445138,-0.707505,0.521786,-0.476630
-0.572673,0.582060,0.517279,0.741690,-0.486083,0.462189
-0.391865,0.257703,0.581840,-0.136931,-0.536429,-0.832763
-0.639474,-0.073185,0.642078,0.445275,0.602747,0.662137
0.089400,0.151597,0.232665,0.174671,0.981422,0.079375
0.035290,0.390531,-0.964217,0.209745,-0.316994,-0.924944
0.079293,0.188376,-0.563137,0.864346,-0.499224,0.060672
0.077762,-0.519657,0.553476,-0.556393,-0.818074,-0.145538
-0.139935,0.509471,0.795197,0.402210,0.377581,0.834062
-0.956269,-0.032964,0.626473,-0.059784,0.362825,0.929938
0.501550,-0.028864,0.635131,0.291881,0.956429,-0.007034
-0.306721,-0.308944,0.483119,-0.705365,0.589159,-0.394147
0.299370,0.561773,0.737304,-0.152290,-0.096490,0.983615
0.159435,-0.322704,0.381934,0.146207,-0.819383,-0.554288
0.103080,0.109480,-0.513828,0.879213,-0.046209,-0.474183
0.089672,-0.217745,0.822839,0.991565,0.079551,0.102323
0.485724,-0.152741,0.900438,-0.489934,0.871759,0.000555
0.045399,-0.092148,0.249613,0.488375,0.096828,0.867245
0.214089,-0.297701,0.776332,0.601944,0.437731,0.667873
-0.729487,0.763092,0.671357,-0.312681,0.942302,-0.119571
0.340548,-0.289101,0.444002,0.439245,0.897185,0.046077
-0.227734,0.474719,0.317477,-0.378639,-0.912583,0.154352
-0.687629,0.327689,0.510465,0.086360,0.232213,0.968823
-0.039645,0.693326,-0.991829,-0.210761,0.194114,0.958071
0.062618,0.482923,0.502175,0.441512,0.344699,0.828402
-0.329216,0.701439,0.419487,0.302780,-0.415050,0.857938
-0.336463,-0.246895,0.918743,0.742342,0.041155,-0.668756
0.260066,-0.360366,0.506763,0.773363,-0.622320,-0.120944
-0.500492,-0.150668,0.529817,0.684400,-0.651970,0.326392
-0.568928,-0.169499,0.577990,0.719009,-0.203062,0.664674
-0.219500,0.572578,0.371226,0.238794,0.645020,0.725897
0.673202,0.071686,0.810862,-0.422478,-0.432706,0.796416
-0.524960,0.568610,0.456141,0.905147,-0.105972,0.411677
0.453974,0.183746,0.722716,0.154793,0.885764,0.437562
-0.778967,0.056163,0.548018,-0.307915,-0.204868,-0.929095
-0.299881,0.156006,0.729663,0.876558,0.076328,-0.475206
-0.817185,0.828228,0.716669,0.684864,0.117376,-0.719156
0.433317,0.246720,0.770580,-0.012270,-0.673856,0.738760
-0.930575,-0.446053,0.643450,0.277575,0.218076,0.935626
0.248631,0.140084,0.411449,0.976852,-0.081074,-0.197956
0.163656,-0.242177,0.879316,0.666095,0.206352,-0.716754
