0.117479,0.377666,0.446680,0.934678,0.304229,-0.183905
-0.114734,0.267015,0.552417,-0.333674,0.449249,-0.828756
-0.038370,0.287901,0.443546,-0.829671,0.412429,-0.376228
-0.595677,0.038918,0.774291,0.914334,-0.255514,-0.314176
-0.037035,0.264524,0.328453,0.732622,0.273655,-0.623199
-0.267680,0.154837,0.435280,-0.454757,-0.634795,0.624685
-0.202259,0.134144,0.160946,-0.098869,-0.459489,0.882663
-0.216323,0.553554,0.634354,-0.472601,0.787009,-0.396567
-0.209407,0.545315,0.574854,-0.629676,-0.702501,-0.331664
-0.359894,0.458134,0.568904,0.707331,0.329641,-0.625316
-0.340692,0.444627,0.446044,-0.264274,-0.896968,0.354411
-0.207622,0.491568,0.298567,0.674374,-0.471706,0.568079
-0.534944,0.068230,0.055119,0.870065,-0.357054,-0.339850
-0.417948,0.079725,-0.213629,0.011726,0.583304,0.812169
-0.712229,-0.133906,-0.433732,0.775764,-0.539623,0.327104
-0.288668,0.650020,0.464576,-0.724371,-0.569209,-0.388958
-0.474661,0.557191,0.536656,-0.794326,0.598257,0.105519
-0.450996,0.557384,0.465847,-0.095447,-0.552641,0.827936
-0.597462,0.231763,0.111620,-0.462646,0.489473,-0.739171
-0.525125,0.250730,-0.001747,0.737148,0.671053,0.079374
-0.560176,0.223425,-0.036811,0.277217,0.936010,0.216878
-0.546555,0.217583,-0.106393,0.899185,0.204089,-0.387058
-0.500561,0.200433,-0.325043,0.805569,-0.541375,-0.240774
-0.469305,0.188172,-0.478243,0.743405,-0.489700,0.455569
-0.504356,0.160200,-0.516304,0.983509,-0.136007,-0.119211
-0.490517,0.153686,-0.590020,0.976969,0.053882,-0.206468
-0.629392,0.629806,0.694217,0.267402,0.826221,-0.495838
-0.530705,0.733271,0.946613,-0.440796,0.738271,0.510544
-0.456577,0.756742,0.844146,0.548819,0.784690,-0.288199
-0.581388,0.681442,0.822527,0.233629,0.709960,0.664360
-0.531148,0.693517,0.734731,0.038491,-0.579443,0.814103
-0.582280,0.660849,0.714610,-0.046002,-0.783249,0.620003
-0.605727,0.851582,0.767932,-0.628102,-0.751514,-0.201778
-0.643238,0.716701,0.122567,-0.456979,0.816603,-0.352605
-0.758006,0.655195,0.144868,0.876373,0.273042,0.396759
-0.742818,0.651365,0.076602,-0.391200,0.044066,-0.919250
-0.548565,0.839993,0.041402,-0.077026,0.835248,0.544452
-0.758898,0.735955,0.130924,-0.585056,0.461644,-0.666779
0.635932,-0.515285,-0.902506,-0.118271,0.570283,-0.812889
0.004272,-0.736196,-0.892787,-0.226255,-0.292286,-0.929181
0.076840,-0.684367,-0.895375,-0.002268,0.906246,0.422744
0.147399,-0.632543,-0.900281,0.490695,0.385942,0.781196
0.213488,-0.580615,-0.916813,0.369493,-0.423492,-0.827121
0.282478,-0.530804,-0.919312,-0.276599,-0.581047,-0.765426
0.354598,-0.481465,-0.912726,0.213153,0.807727,0.549675
0.429619,-0.430022,-0.908184,-0.292169,0.166382,0.941783
0.501520,-0.380590,-0.903006,-0.397579,-0.158389,-0.903794
0.571853,-0.328569,-0.910727,0.204666,0.102916,0.973406
0.645533,-0.276359,-0.912317,0.474255,-0.601345,-0.643013
-0.442062,-0.880281,-0.880750,-0.026792,0.431195,0.901861
-0.371504,-0.828832,-0.886337,0.227137,-0.302366,0.925734
-0.299610,-0.778634,-0.882885,-0.494301,0.725886,0.478285
-0.232848,-0.728916,-0.891197,0.090904,-0.309275,0.946618
-0.167652,-0.677280,-0.909728,-0.650072,0.109411,0.751955
-0.091962,-0.627270,-0.897510,-0.276018,-0.921759,-0.272351
-0.025424,-0.575540,-0.911045,0.746592,0.363679,0.557081
0.040890,-0.524003,-0.924535,0.298368,0.412876,0.860529
0.115912,-0.472554,-0.920084,-0.424021,0.305322,0.852634
0.185352,-0.422743,-0.922355,0.345406,-0.567704,-0.747266
0.254793,-0.373305,-0.922718,-0.214075,0.626349,0.749573
0.327805,-0.321482,-0.923626,-0.190656,0.254654,0.948051
0.401267,-0.271758,-0.915269,0.039332,-0.172277,0.984263
0.471150,-0.220028,-0.923581,0.385819,-0.128395,-0.913596
0.544162,-0.168106,-0.923581,0.811903,-0.127931,0.569603
0.616955,-0.116662,-0.923853,0.828121,-0.225435,-0.513219
-0.497658,-0.779400,-0.914588,0.283029,0.880441,0.380420
-0.425539,-0.727764,-0.915678,-0.712168,-0.175845,0.679628
-0.353870,-0.675842,-0.919539,0.767263,0.291693,-0.571159
-0.278624,-0.626217,-0.907457,-0.661711,-0.339243,0.668620
-0.213428,-0.576306,-0.917722,-0.199604,-0.973011,-0.115793
-0.141976,-0.524003,-0.922536,0.252113,0.192311,0.948396
-0.073878,-0.474279,-0.927260,0.121001,0.365680,0.922842
-0.001309,-0.422450,-0.929440,-0.155244,0.622045,0.767437
0.072820,-0.370814,-0.926669,-0.671337,0.695165,-0.257007
0.143379,-0.318704,-0.933846,0.922003,-0.370713,-0.111725
0.212145,-0.269267,-0.935299,-0.144175,0.042534,0.988638
0.284939,-0.219935,-0.929077,0.184973,0.376521,0.907754
0.353704,-0.168012,-0.939932,-0.153171,-0.571731,0.806016
0.423595,-0.118095,-0.940023,0.775891,-0.262557,-0.573635
-0.454791,-0.615394,-0.929031,0.829195,-0.163441,0.534530
-0.380662,-0.563279,-0.926897,0.884635,0.318799,-0.340276
-0.307869,-0.512028,-0.926715,0.538548,-0.172399,-0.824769
-0.240438,-0.462304,-0.932074,-0.588166,0.614765,0.525476
-0.168994,-0.412779,-0.929531,0.828115,0.410087,0.382171
-0.096200,-0.361044,-0.928713,0.500308,-0.587614,-0.635925
-0.030337,-0.311132,-0.939932,-0.311380,0.798546,0.515138
0.043125,-0.258637,-0.940386,0.103369,-0.308011,0.945751
0.115019,-0.206901,-0.944292,-0.514943,0.554048,0.654113
0.189823,-0.155265,-0.940840,-0.141684,0.195669,0.970381
0.257029,-0.104974,-0.947744,0.744276,0.542378,-0.389718
0.331376,-0.055829,-0.938024,-0.181593,0.414460,0.891766
-0.475554,-0.539709,-0.933482,-0.630705,0.367963,0.683238
-0.403434,-0.487885,-0.935208,0.746391,0.245928,-0.618401
-0.330198,-0.436343,-0.934981,0.077054,0.211176,0.974406
-0.257187,-0.384707,-0.936162,0.973875,-0.212070,-0.081202
-0.189313,-0.334989,-0.940204,0.352803,-0.418310,0.836987
-0.119197,-0.285270,-0.941249,0.917902,0.321633,0.232395
-0.047753,-0.232676,-0.946609,0.982967,-0.018257,-0.182872
0.022581,-0.182765,-0.947790,-0.086290,0.331959,0.939339
0.096935,-0.131222,-0.943656,-0.354031,-0.144597,0.923988
0.171063,-0.079586,-0.942248,0.561015,0.811456,0.163708
0.244300,-0.027856,-0.942385,0.726533,0.671022,0.147917
-0.455234,-0.442190,-0.939932,0.802048,-0.001990,-0.597256
-0.385793,-0.390455,-0.947926,0.712023,0.697400,-0.081585
-0.309661,-0.338818,-0.941067,-0.255684,-0.199263,-0.946002
-0.241338,-0.286896,-0.952967,-0.221993,-0.182172,0.957879
-0.163856,-0.236792,-0.937797,0.781930,0.001519,-0.623364
-0.104240,-0.186501,-0.963414,0.233019,0.433382,-0.870564
-0.024306,-0.134958,-0.946972,0.467911,-0.518331,-0.715816
0.043349,-0.085141,-0.953376,-0.450237,-0.611041,-0.651088
0.115912,-0.033891,-0.953694,0.365179,0.084542,-0.927091
-0.141526,-0.183817,-0.947426,0.074576,-0.711201,0.699022
-0.075438,-0.133806,-0.956828,0.487009,0.396733,-0.778091
-0.001752,-0.084474,-0.948425,0.017101,-0.446158,0.894791
0.065454,-0.032931,-0.959962,-0.382219,0.316204,0.868288
-0.435590,-0.389496,-0.954194,-0.614112,0.550106,0.565907
-0.361011,-0.339871,-0.944610,-0.597912,0.292118,0.746437
-0.291352,-0.287282,-0.954285,0.183143,0.071427,0.980488
-0.216548,-0.235646,-0.950651,0.295008,0.132744,-0.946229
-0.460596,-0.359991,-0.952559,0.904854,0.422503,0.052255
-0.390263,-0.310273,-0.952922,-0.893214,0.444998,-0.064386
-0.315016,-0.259116,-0.945700,-0.222630,-0.117245,0.967827
-0.246469,-0.209492,-0.949924,0.877639,0.334736,-0.343075
-0.173457,-0.157856,-0.948562,0.264880,0.131985,0.955206
-0.103123,-0.106220,-0.955102,0.303243,0.165241,-0.938477
-0.028994,-0.053911,-0.955920,-0.395472,-0.866874,-0.303532
0.042457,-0.004479,-0.951877,-0.456246,0.707945,-0.539123
-0.482027,-0.335848,-0.955829,-0.274872,0.230081,0.933546
-0.405220,-0.284598,-0.944656,-0.504302,-0.580798,0.639025
-0.337789,-0.234880,-0.951832,0.245571,-0.286121,0.926191
-0.267680,-0.185442,-0.952195,0.399557,0.093600,0.911917
-0.195337,-0.133713,-0.952967,0.640128,0.531161,0.555072
-0.127462,-0.084281,-0.958281,0.033950,0.162549,0.986116
-0.401650,-0.270039,-0.960416,-0.287232,0.505732,0.813470
-0.251157,-0.166860,-0.950969,0.058995,0.734032,0.676548
-0.114066,-0.067418,-0.959372,0.059390,-0.008620,0.998198
-0.044175,-0.016168,-0.964095,-0.101113,0.870711,-0.481288
-0.412810,-0.311998,-0.934936,-0.667856,-0.477821,0.570662
-0.058915,-0.055443,-0.956419,-0.590188,0.534875,0.604637
-0.481134,-0.410095,-0.945337,0.792710,-0.003337,-0.609590
-0.338681,-0.307303,-0.954103,-0.052471,-0.331431,0.942019
-0.194001,-0.208439,-0.941476,-0.016816,-0.348869,0.937020
-0.053108,-0.107465,-0.946109,0.160898,0.026066,-0.986627
0.017668,-0.055923,-0.950106,0.832023,0.187317,0.522158
-0.508151,-0.474665,-0.937298,0.294431,0.409963,0.863274
-0.441170,-0.425520,-0.942930,0.869235,-0.044987,-0.492349
-0.369944,-0.373884,-0.947971,0.922991,-0.234063,-0.305455
-0.301846,-0.324639,-0.953194,0.694668,-0.718159,-0.041036
-0.151352,-0.220893,-0.943656,0.160921,-0.151851,0.975216
-0.011135,-0.119727,-0.950560,-0.015385,0.036166,0.999227
0.054286,-0.070581,-0.962460,-0.278889,0.342334,0.897234
-0.453674,-0.436729,-0.942748,-0.342092,-0.100045,0.934325
-0.377085,-0.385280,-0.931984,-0.441139,0.461012,0.769977
-0.310553,-0.335948,-0.941522,-0.266459,-0.191347,-0.944662
-0.243790,-0.285744,-0.952195,0.209315,0.072753,-0.975138
-0.173682,-0.234114,-0.961052,0.204949,0.224790,0.952610
0.042900,-0.081696,-0.959462,-0.140502,-0.982027,-0.126026
0.118814,-0.031014,-0.947154,0.611569,-0.774935,-0.159560
-0.440278,-0.407125,-0.952104,0.347753,-0.614322,-0.708291
-0.369494,-0.357594,-0.948653,-0.300744,0.598511,0.742521
-0.295815,-0.306151,-0.947108,0.513376,0.350391,-0.783371
-0.219226,-0.254614,-0.935844,0.298538,-0.875306,0.380414
-0.153138,-0.203358,-0.954512,-0.188328,0.456777,-0.869418
-0.086599,-0.153926,-0.963187,0.270322,0.308787,0.911909
0.057638,-0.053431,-0.959508,-0.181082,0.019041,0.983284
-0.417499,-0.323493,-0.954512,-0.605651,0.716418,0.346311
-0.275721,-0.224244,-0.952559,-0.219494,-0.283402,0.933545
-0.202259,-0.172514,-0.950151,-0.526066,0.762045,-0.377548
-0.134161,-0.123270,-0.956692,-0.323569,0.152175,0.933887
-0.426656,-0.245223,-0.953285,-0.672443,-0.413050,0.614175
-0.354763,-0.193681,-0.957328,-0.145368,0.716507,0.682266
-0.283980,-0.142337,-0.963868,0.256616,0.821673,-0.508922
-0.203820,-0.090888,-0.941431,-0.045032,0.618931,0.784153
-0.139074,-0.041743,-0.956238,0.124882,-0.116922,0.985258
-0.489625,-0.242540,-0.960325,-0.077117,-0.120456,0.989719
-0.419291,-0.193108,-0.957736,-0.383494,0.389029,0.837609
-0.344045,-0.141665,-0.952195,-0.367463,0.316767,0.874431
-0.477564,-0.243306,-0.955011,-0.264051,0.040796,-0.963646
-0.408797,-0.191962,-0.965367,0.204234,-0.131953,0.969988
-0.336454,-0.142337,-0.959780,-0.213128,0.446171,0.869200
-0.267012,-0.093286,-0.957918,-0.015009,0.480044,0.877116
-0.494980,-0.258157,-0.948970,0.645386,0.642898,-0.412504
-0.425764,-0.207094,-0.957146,-0.439468,0.442445,0.781735
-0.355873,-0.155745,-0.965957,-0.552383,0.712398,-0.432854
-0.516635,-0.217444,-0.953058,-0.283045,-0.287760,-0.914921
-0.447869,-0.166188,-0.966184,0.371781,0.302427,0.877677
-0.224814,-0.014636,-0.936253,-0.290565,-0.737105,0.610122
-0.555488,-0.092327,-0.962551,-0.519571,0.355753,-0.776844
-0.483594,-0.041170,-0.964050,0.758862,-0.247025,0.602584
-0.465953,-0.019618,-0.965140,0.892756,-0.234186,0.384895
-0.467738,-0.023927,-0.955556,0.829123,-0.456201,-0.323165
-0.603942,0.236358,0.522213,0.766426,0.509757,0.390818
-0.142869,0.152820,0.171120,-0.576528,-0.088701,0.812249
-0.496098,-0.285458,0.219446,0.503580,-0.830893,-0.236694
-0.442505,-0.241487,0.192059,0.049718,-0.285707,0.957026
-0.414596,-0.236792,0.226804,-0.691255,0.673907,0.260801
-0.172789,-0.056115,0.180522,0.810667,0.433568,-0.393494
-0.283312,-0.332784,0.299430,0.830128,0.408455,-0.379541
0.359511,0.037673,0.408528,0.512287,-0.599016,-0.615420
0.350577,-0.001415,0.487785,0.024309,-0.990436,0.135818
0.061209,-0.307782,0.341761,-0.273482,0.339885,0.899825
0.200091,-0.218017,0.372601,0.869125,0.308401,-0.386665
0.579220,-0.124135,0.483016,-0.646921,0.737027,-0.195666
0.503080,-0.333550,0.298158,0.971178,0.184923,0.150388
0.704255,-0.435290,-0.905595,0.182449,0.909772,0.372865
0.599982,-0.492101,-0.910001,0.252093,0.242158,0.936914
0.513574,-0.536452,-0.898055,0.221852,-0.073693,0.972292
0.405730,-0.595660,-0.904414,0.814186,-0.033501,-0.579637
0.311063,-0.645951,-0.902779,-0.388598,0.282368,0.877075
0.220853,-0.693757,-0.897328,-0.627790,0.756848,-0.181825
0.120825,-0.747791,-0.897283,-0.169495,-0.100011,0.980443
0.566716,-0.208626,-0.926079,0.378783,0.515043,0.768931
0.472935,-0.258537,-0.921355,0.293472,0.145514,-0.944828
0.414212,-0.284598,-0.884656,-0.369789,0.289735,-0.882785
0.267965,-0.368996,-0.926442,-0.073952,0.789620,0.609124
0.169053,-0.422743,-0.929576,-0.123418,0.721848,0.680958
0.079293,-0.469777,-0.923808,-0.243340,0.248556,0.937553
-0.020061,-0.523231,-0.923399,-0.112414,0.076261,-0.990731
-0.110271,-0.570657,-0.917813,-0.628150,0.723702,0.285802
-0.187078,-0.608880,-0.897737,-0.275265,-0.704600,-0.654039
-0.310553,-0.678046,-0.917404,-0.738515,0.583803,-0.337297
-0.408797,-0.730641,-0.915315,-0.266499,0.191467,-0.944626
0.547289,-0.346578,-0.907820,0.179214,-0.414208,0.892364
0.451723,-0.397547,-0.907321,0.051207,-0.142946,0.988405
0.348349,-0.453779,-0.911772,0.542275,-0.349922,0.763867
0.241622,-0.512888,-0.921810,-0.576983,0.470024,0.667959
0.145607,-0.563565,-0.917904,0.267493,0.602248,0.752160
0.065229,-0.604378,-0.900735,-0.387511,0.605889,0.694790
-0.038152,-0.660130,-0.903460,0.321191,0.292540,-0.900698
-0.108036,-0.694523,-0.879842,0.930269,-0.366269,0.021122
-0.222804,-0.757941,-0.894967,0.579306,0.190329,0.792578
-0.326178,-0.814179,-0.897692,-0.066617,0.734487,0.675346
-0.340917,-0.500527,-0.932301,0.892129,0.414231,-0.180327
-0.440053,-0.553794,-0.931302,0.254550,0.386618,0.886415
0.430737,-0.087825,-0.940886,0.720117,0.355545,-0.595835
0.333385,-0.140326,-0.942612,0.348337,-0.245477,-0.904656
0.239162,-0.190424,-0.937979,0.841018,0.502662,0.200050
0.138691,-0.245223,-0.942612,-0.057931,-0.272425,0.960432
0.049373,-0.291498,-0.933028,-0.091651,-0.225465,0.969931
0.166376,-0.061290,-0.955829,-0.604090,0.510062,0.612301
0.073713,-0.110435,-0.950151,-0.167930,0.377210,0.910776
-0.027434,-0.164942,-0.954784,-0.426278,0.839618,0.336643
-0.111389,-0.208726,-0.943384,-0.668826,0.231204,-0.706552
-0.215880,-0.264864,-0.947063,-0.363172,0.877669,-0.312735
-0.309661,-0.314676,-0.944837,-0.012868,0.073039,0.997246
-0.421744,-0.375895,-0.954875,0.763345,0.645261,-0.030702
-0.049539,-0.344280,-0.932847,0.079921,-0.933816,0.348714
-0.150684,-0.398886,-0.934164,0.225092,-0.273234,0.935241
-0.242230,-0.446979,-0.929894,0.126072,0.772408,0.622488
-0.129248,-0.007163,-0.959144,0.145562,0.905249,-0.399168
-0.227717,-0.059945,-0.961370,0.203006,-0.269343,-0.941405
-0.327963,-0.113885,-0.961188,0.504401,-0.143274,-0.851500
-0.427324,-0.166767,-0.960416,0.547890,0.672550,0.497486
-0.462607,-0.034270,-0.975586,-0.761438,0.361358,-0.538174
-0.552142,0.111341,-0.952559,0.583547,0.105029,-0.805259
-0.564196,0.050414,-0.970363,-0.140996,-0.136048,0.980618
-0.441613,0.057313,-0.971090,-0.335860,0.421961,-0.842108
-0.489625,0.115270,-0.940840,0.630844,-0.340305,-0.697301
-0.438043,0.045239,-0.971862,0.968893,0.230966,-0.088884
-0.345380,0.050414,-0.964277,0.984906,0.164896,0.052618
-0.440278,0.000309,-0.960780,0.322317,-0.754758,0.571360
-0.365481,0.023780,-0.977903,-0.534696,0.589991,0.604989
-0.451214,-0.019711,-0.964322,-0.608279,0.748777,-0.263307
-0.413035,0.014682,-0.974632,0.092515,-0.071589,0.993134
-0.514407,-0.040884,-0.980446,0.602829,-0.440044,-0.665551
-0.505031,0.075515,-0.961733,0.386015,0.807384,-0.446232
-0.435808,0.065359,-0.966321,0.439512,-0.229605,0.868395
-0.540974,0.007303,-0.975541,0.687359,0.196129,0.699336
-0.501010,0.139699,-0.946200,-0.666587,0.156211,0.728875
-0.615771,0.684699,-0.003109,0.962326,0.136740,0.235014
-0.478681,0.877643,0.892518,-0.566609,-0.822560,0.048460
-0.453674,0.742855,0.284896,0.974108,0.021090,-0.225097
-0.850219,0.496264,0.094225,-0.513044,0.856742,-0.052712
-0.465727,0.840473,0.868082,0.481799,-0.198826,0.853427
-0.430902,0.809337,0.852640,0.873043,-0.453428,0.179440
-0.670255,0.659697,0.728962,-0.022748,-0.856819,0.515115
-0.462158,0.652704,0.769613,0.935368,0.330552,0.125784
-0.326853,0.598384,0.487103,0.902315,-0.375176,0.212299
-0.528246,0.487546,0.469980,-0.345734,0.713486,-0.609431
-0.163406,0.761916,0.917045,0.714648,0.528511,-0.458208
-0.420626,0.599249,0.775336,0.061592,-0.983785,0.168445
-0.483144,0.230710,-0.489325,0.729911,-0.275885,0.625394
-0.501453,0.232622,-0.423103,0.600522,0.637212,0.483047
-0.299386,0.526154,0.618865,0.737216,-0.338386,0.584814
-0.448986,0.437441,0.569858,-0.594700,0.135637,0.792423
-0.372397,0.214326,-0.574714,0.932656,0.190553,0.306336
-0.460815,0.182998,-0.483557,-0.723740,-0.024342,-0.689643
-0.460596,0.212601,-0.316186,0.762356,0.643009,0.073167
-0.478906,0.243352,-0.086545,0.920681,-0.057343,-0.386080
-0.482701,0.254660,-0.009195,0.909675,-0.306349,-0.280430
-0.525125,0.252456,0.107760,-0.161161,0.384842,-0.908804
0.119932,0.707403,0.730370,0.902790,-0.429468,-0.022956
-0.457912,0.168058,-0.299290,0.910207,0.307962,-0.276917
-0.450546,0.214806,-0.050164,-0.623374,-0.751663,-0.215425
-0.425764,0.245842,0.051440,-0.734440,-0.526364,0.428414
-0.355206,0.307541,0.191059,0.211903,0.606664,0.766195
-0.468412,0.243544,0.170847,-0.653367,-0.748299,-0.114721
-0.681417,0.125041,0.145640,-0.453830,-0.544436,0.705427
-0.097767,0.545795,0.774291,-0.283005,-0.956568,0.069899
-0.545662,0.267974,0.555006,0.098959,0.100262,0.990028
-0.463275,0.082988,-0.414792,-0.192644,-0.417142,0.888190
-0.447644,0.148225,-0.080595,0.781992,0.618781,-0.074817
-0.356098,0.224097,0.077238,0.552118,0.617131,0.560638
-0.308094,0.270272,0.196782,-0.654530,-0.695264,0.296983
-0.577592,0.100518,0.048260,0.941267,-0.147716,-0.303640
-0.563528,0.122935,0.135239,-0.017756,0.905866,0.423192
-0.439160,0.138834,-0.036538,0.653461,0.683121,0.326090
-0.372622,0.197177,0.099039,0.333609,0.847439,-0.412981
-0.399189,0.275733,0.666874,-0.629557,-0.692217,0.352837
-0.412810,0.265197,0.642665,-0.154944,0.986132,-0.059456
-0.419734,0.156942,-0.027136,0.909298,0.401204,0.110509
-0.367709,0.203691,0.092181,-0.186142,-0.946854,0.262335
-0.671148,0.141997,0.557049,0.789901,0.022552,-0.612820
-0.416606,0.156656,-0.284029,-0.529151,-0.661591,0.531317
-0.405895,0.198136,-0.040716,-0.395671,-0.588229,-0.705288
-0.404327,0.221892,0.116480,0.738582,0.379618,-0.557124
-0.507034,0.175718,0.182429,-0.856001,0.491387,0.160629
-0.611976,0.117854,0.170121,0.169851,-0.949440,0.264036
-0.396512,0.230804,0.118888,0.617119,-0.095774,-0.781019
-0.168319,0.389355,0.381730,0.734058,0.676161,-0.062960
-0.516635,0.173326,0.172573,-0.702945,0.497469,0.508323
-0.596126,0.132227,0.183474,-0.464641,-0.798567,-0.382621
-0.450996,0.142284,-0.311508,0.821862,0.549389,-0.150713
-0.469748,0.199861,-0.345754,0.759044,-0.334399,0.558596
-0.547230,0.159527,-0.333900,0.932328,0.332339,-0.142533
-0.454791,0.258104,0.054846,0.639419,0.537285,-0.549971
-0.382448,0.313476,0.189560,-0.353349,0.934485,0.043381
-0.478681,0.260981,0.183838,0.843156,-0.447395,-0.298206
-0.716917,0.127338,0.138055,-0.315808,-0.068895,0.946318
-0.563528,0.260694,0.546921,0.041111,0.765500,0.642121
-0.541424,0.196124,-0.400848,-0.351409,0.794441,-0.495353
-0.501010,0.239428,-0.208405,0.982884,-0.012323,-0.183814
-0.479349,0.270465,-0.038218,-0.103492,-0.893872,0.436213
-0.507926,0.260595,0.011743,0.560595,0.546628,0.622038
-0.540974,0.248620,0.061023,0.802651,-0.595663,0.030632
-0.123217,0.551829,0.751854,-0.447107,-0.889689,-0.092463
-0.564422,0.291351,0.545422,0.785074,-0.171231,-0.595263
-0.370612,0.285603,-0.416018,0.952262,-0.105684,0.286406
-0.490735,0.245076,-0.026727,0.401756,-0.834666,0.376730
-0.476896,0.262319,0.060751,0.905723,-0.360219,-0.223402
-0.433130,0.297478,0.170666,0.983161,0.181330,0.022672
-0.102231,0.541672,0.782648,0.126728,0.957447,0.259299
-0.381105,0.245556,-0.557909,-0.787638,-0.612704,0.064958
-0.430902,0.223138,-0.520982,0.872287,-0.488423,-0.023621
-0.442288,0.225149,-0.448629,-0.365486,0.930235,-0.032914
-0.480242,0.209918,-0.399667,0.877369,-0.392982,0.275299
-0.479124,0.219788,-0.318184,-0.250077,-0.917415,0.309535
-0.465727,0.236072,-0.232160,0.907116,0.416081,0.063379
-0.443624,0.219788,0.009063,0.669720,0.709000,0.220894
-0.447201,0.224863,0.078055,0.892430,0.038031,-0.449580
-0.422411,0.248526,0.173028,0.054099,0.883882,0.464570
-0.608405,0.148511,0.169485,0.357898,0.874567,-0.327171
-0.654182,0.127818,0.206729,0.718221,0.653594,0.238690
-0.388253,0.187599,-0.566902,0.881009,-0.007718,0.473036
-0.443624,0.186640,-0.298790,-0.692317,0.133304,0.709174
-0.432237,0.202351,-0.210358,0.950138,0.114866,0.289904
-0.251606,0.153113,-0.304513,-0.402874,0.571411,-0.714970
-0.284429,0.182711,0.124065,0.673150,0.469814,-0.571091
-0.259196,0.245749,0.569585,-0.620973,0.652460,-0.434383
0.352144,0.416269,0.471025,0.870471,-0.076076,-0.486305
0.165483,0.307062,0.393630,0.948454,0.075397,-0.307817
-0.167876,-0.016647,0.826614,-0.652167,-0.703451,0.282551
0.450613,-0.054870,0.628495,0.995594,-0.093772,-0.000540
0.303466,-0.139560,0.584619,0.759460,0.626456,0.175426
0.760300,-0.036954,0.469435,-0.119201,0.984277,0.130343
0.359068,-0.246089,0.512947,0.995329,0.092752,-0.026798
0.649103,-0.495931,-0.901507,0.003130,0.658767,0.752340
-0.387585,-0.896758,-0.880887,0.427929,0.025960,-0.903440
-0.227267,-0.789171,-0.862991,-0.111801,0.183895,0.976567
-0.151352,-0.732366,-0.881886,-0.377288,-0.754207,-0.537425
-0.082361,-0.679578,-0.903642,-0.665534,-0.147489,-0.731650
0.014547,-0.610699,-0.911409,-0.167896,-0.482798,-0.859487
0.117254,-0.537697,-0.915723,0.502470,0.216857,-0.836957
0.245860,-0.449370,-0.911091,-0.344244,-0.697602,0.628369
0.383625,-0.356062,-0.899963,0.988341,0.036668,0.147778
0.460881,-0.298585,-0.917949,0.875390,-0.262863,-0.405704
0.569394,-0.222326,-0.921810,0.229877,0.436832,0.869675
0.069474,-0.732652,-0.895830,0.044770,-0.973131,-0.225858
0.176869,-0.656873,-0.898464,0.895655,0.064731,-0.440014
0.275781,-0.586269,-0.907048,0.211508,-0.075583,-0.974449
0.403494,-0.498516,-0.902052,0.017727,0.769294,0.638649
0.489459,-0.435864,-0.916223,-0.714073,0.574217,-0.400468
0.633254,-0.339012,-0.902098,0.479023,-0.185315,-0.858018
-0.400757,-0.732460,-0.914134,-0.476228,-0.084790,0.875224
-0.283980,-0.651699,-0.912499,0.824453,-0.121777,-0.552673
-0.169212,-0.571611,-0.914225,0.045990,-0.993362,0.105433
-0.080575,-0.506567,-0.926942,0.515250,-0.106505,-0.850397
0.036202,-0.425420,-0.927578,-0.215834,0.741839,0.634894
0.146281,-0.348496,-0.929258,0.017273,-0.363106,0.931588
0.284046,-0.255380,-0.918131,0.419700,0.907660,0.002473
0.382957,-0.184969,-0.926397,0.036364,-0.494359,0.868497
0.481869,-0.114938,-0.932256,-0.294949,0.741374,0.602802
-0.433355,-0.493247,-0.938796,-0.112892,-0.117455,0.986641
-0.314124,-0.410768,-0.938569,0.243820,-0.012752,0.969737
-0.209183,-0.335848,-0.943974,0.799473,0.363235,0.478438
-0.110714,-0.266109,-0.950515,0.400993,0.544857,0.736434
0.004946,-0.186115,-0.948743,0.510179,-0.111162,-0.852854
0.120382,-0.105834,-0.949288,-0.201401,0.254732,0.945806
-0.474436,-0.661376,-0.923127,0.686210,-0.020120,-0.727125
-0.340692,-0.570465,-0.913997,0.284509,-0.476736,-0.831732
-0.257412,-0.509631,-0.927351,-0.552657,-0.355777,0.753653
-0.141526,-0.428870,-0.928441,-0.048485,0.933993,0.353986
-0.052665,-0.364300,-0.938706,-0.673587,-0.037375,0.738162
0.081753,-0.272717,-0.931075,0.815353,-0.354906,-0.457429
0.177987,-0.203645,-0.941067,0.744996,0.537394,-0.395206
0.291854,-0.124322,-0.942566,0.397897,0.294614,0.868839
-0.471315,-0.157756,-0.963823,-0.271882,-0.484760,-0.831317
-0.352977,-0.075756,-0.963596,-0.218050,0.283486,0.933857
-0.249371,-0.003041,-0.967093,0.814350,-0.213340,0.539741
-0.456802,-0.361237,-0.948880,0.960402,0.271022,-0.064613
-0.335561,-0.277698,-0.945473,0.765173,-0.144733,-0.627345
-0.224364,-0.199528,-0.947880,-0.156506,0.209578,0.965185
-0.127462,-0.130070,-0.957101,0.215469,-0.448894,-0.867218
-0.000641,-0.043182,-0.952604,0.928298,0.065974,0.365937
-0.459922,0.048016,-0.973179,-0.052011,-0.776736,0.627676
0.263052,-0.173947,0.421927,0.587725,0.720926,0.367212
0.276448,0.346530,0.481335,-0.528404,0.836408,-0.145639
-0.185736,0.105692,0.153679,0.509311,0.466449,0.723207
0.134670,0.385618,0.424697,0.948842,-0.138977,-0.283522
-0.451664,0.200819,0.078146,-0.330792,-0.874912,0.353704
-0.556156,0.233008,-0.346254,0.555872,0.786447,0.269272
-0.555045,0.245076,-0.393127,-0.192870,0.975568,0.105206
-0.584516,0.240381,-0.455033,-0.171155,0.985243,0.001353
-0.510611,0.249965,0.160355,0.919470,0.303380,0.250069
-0.642345,0.207333,-0.034676,0.274609,0.896586,0.347453
-0.567991,0.262319,-0.049710,-0.069584,0.990868,0.115491
-0.655966,0.141518,0.192876,-0.662948,-0.708654,-0.241472
-0.719820,0.114697,0.121431,-0.069752,0.023061,0.997298
-0.475554,0.264431,0.647298,-0.469085,0.810818,0.350049
-0.181497,0.449802,0.720832,-0.708045,-0.155983,0.688725
-0.573572,0.227453,0.521123,-0.545908,0.519864,0.657058
-0.616221,0.326123,0.522622,0.752162,-0.462838,-0.469077
-0.338463,0.501918,0.590706,-0.674187,-0.317710,0.666732
-0.170329,0.656826,0.434508,-0.172456,0.941704,0.288881
-0.635198,0.544929,0.659107,0.009137,-0.677281,0.735668
-0.857360,0.528259,0.117797,-0.258877,-0.493948,0.830059
-0.904921,0.693230,0.128743,-0.648855,0.004066,0.760901
-0.435590,0.906288,0.908324,0.088275,0.979286,-0.182224
-0.412368,-0.007929,-0.985715,0.984083,0.010034,-0.177425
-0.117862,-0.107366,-0.960053,-0.157043,0.207410,0.965566
-0.289117,-0.200294,-0.951741,-0.111469,-0.287984,-0.951125
-0.134604,-0.122697,-0.965276,0.817368,0.437688,-0.374618
-0.260090,-0.190424,-0.946245,-0.017032,-0.232865,0.972360
0.019903,-0.026225,-0.964822,-0.627367,0.054540,0.776812
-0.208290,-0.151535,-0.973633,-0.446441,0.893757,-0.043457
-0.323275,-0.212941,-0.949061,0.144672,-0.447114,0.882700
0.120382,-0.034463,-0.954739,0.365179,0.084542,-0.927091
-0.070975,-0.138502,-0.952922,-0.610639,0.517994,0.599000
-0.268572,-0.246756,-0.954693,0.360222,-0.687197,0.630873
-0.458812,-0.350793,-0.954194,0.958130,0.286277,0.005652
0.371571,-0.075084,-0.940613,0.440906,0.080737,0.893915
0.159677,-0.190904,-0.946699,0.605403,0.601891,0.520782
-0.027209,-0.292644,-0.945519,-0.067324,0.483269,0.872880
-0.182390,-0.377141,-0.932619,-0.468339,-0.205342,0.859356
-0.388253,-0.490090,-0.936253,0.538075,0.372281,-0.756229
0.056746,-0.154312,-0.954103,-0.032315,0.559795,0.828001
-0.133936,-0.258730,-0.953967,-0.005057,0.506801,0.862049
-0.278173,-0.336234,-0.938070,-0.583032,0.142892,0.799785
0.405730,-0.182858,-0.940068,-0.495938,-0.837498,0.229440
0.230903,-0.278464,-0.933346,0.229759,0.102432,-0.967842
0.029728,-0.389016,-0.935572,-0.005587,0.232150,0.972664
-0.121208,-0.470736,-0.923626,0.403821,0.430949,-0.806977
0.308160,-0.169638,-0.939069,-0.005253,-0.044956,0.998975
0.175083,-0.241873,-0.922491,-0.486787,0.141466,0.861989
-0.085482,-0.385759,-0.942612,-0.523552,0.602224,-0.602677
-0.244908,-0.472747,-0.930666,-0.705876,0.658676,-0.260548
0.527195,-0.188512,-0.925034,0.088412,0.392398,0.915537
0.338973,-0.291971,-0.924671,-0.303370,-0.124905,0.944651
0.111673,-0.417281,-0.935163,-0.403122,0.895281,-0.189644
-0.019393,-0.488172,-0.915496,0.997470,0.051826,-0.048649
0.548850,-0.180461,-0.928486,0.924670,0.032411,0.379389
0.303915,-0.315734,-0.942203,-0.134351,0.208711,0.968705
0.110781,-0.420918,-0.940341,-0.541039,0.295324,-0.787440
-0.033457,-0.498902,-0.924489,-0.100799,-0.436737,0.893924
-0.227935,-0.605910,-0.924989,0.073069,0.144998,0.986730
0.426049,-0.100472,-0.943929,0.577256,0.026622,-0.816129
0.233357,-0.206235,-0.942657,0.209084,0.880001,0.426477
0.100287,-0.278658,-0.923853,0.399246,0.224187,-0.889012
-0.146214,-0.414211,-0.937479,-0.358952,-0.383099,-0.851111
-0.321715,-0.509917,-0.932619,0.611806,-0.066605,-0.788199
0.516033,-0.122983,-0.945155,0.994613,0.091298,0.049098
0.389205,-0.191482,-0.926942,-0.024292,-0.115080,0.993059
0.019678,-0.394478,-0.921582,0.469307,-0.104321,-0.876851
-0.362128,-0.603513,-0.916223,-0.210869,-0.915024,-0.343898
0.438777,-0.144729,-0.945337,-0.607730,-0.675112,-0.418196
0.285831,-0.228653,-0.932619,0.433341,0.578253,0.691259
0.107653,-0.326557,-0.926760,-0.217812,0.043155,0.975036
-0.123442,-0.452919,-0.938161,0.457770,0.550041,0.698500
0.549749,-0.053431,-0.935753,0.972236,0.151528,0.178316
0.345671,-0.165708,-0.940068,0.586559,0.038476,-0.808992
-0.037702,-0.375796,-0.939024,-0.525543,-0.042121,0.849724
-0.193326,-0.460579,-0.928577,-0.092939,0.059623,0.993885
-0.371954,-0.558776,-0.922445,0.492137,-0.171951,-0.853366
0.447035,-0.315828,-0.912680,-0.637450,-0.163021,-0.753048
0.202544,-0.450429,-0.925852,-0.072274,-0.361336,0.929631
0.018785,-0.550631,-0.921265,-0.526772,0.487641,0.696217
-0.117412,-0.625357,-0.902870,0.765557,0.555625,0.324350
-0.351635,-0.754205,-0.914588,-0.327984,-0.117422,0.937357
0.194728,-0.611751,-0.911227,0.379661,0.598729,-0.705252
0.062326,-0.683601,-0.891787,-0.090125,-0.392220,-0.915446
-0.093522,-0.769150,-0.878843,-0.212796,0.698936,0.682794
-0.259864,0.665924,0.405803,0.779756,-0.182136,0.599005
-0.377985,0.227453,-0.666416,-0.623982,0.758221,-0.189070
-0.405895,0.224383,-0.504949,0.173174,-0.949263,0.262507
-0.348064,0.260887,-0.434958,0.857264,-0.483814,-0.176131
-0.459479,0.202351,-0.412475,-0.157394,0.894643,0.418140
-0.464392,0.203597,-0.358335,0.913639,0.405364,-0.030707
-0.469080,0.204649,-0.306284,0.791553,0.607344,0.067653
-0.424647,0.246421,-0.076734,-0.775485,0.466885,0.425021
-0.394501,0.282247,0.196964,-0.077208,-0.037500,0.996310
-0.655074,0.140559,0.181521,-0.302203,0.952126,-0.046140
-0.620684,0.187500,0.555278,-0.348469,-0.921170,-0.173251
-0.051548,0.152154,0.186472,-0.206766,0.590722,0.779933
0.229786,0.324399,0.416431,0.820895,-0.535752,-0.197741
-0.115184,0.020143,0.157857,0.903895,-0.234716,-0.357607
-0.178812,0.010080,0.457127,-0.356362,-0.879155,0.316376
-0.336896,-0.074990,0.466756,0.955467,0.158839,-0.248704
-0.058021,0.029913,0.477020,-0.230807,0.965891,0.117403
-0.147107,-0.043854,0.492054,0.893638,-0.179896,0.411155
0.085099,-0.069622,0.252921,0.363203,-0.924087,0.118942
0.000033,-0.032359,0.213451,-0.561590,0.632780,0.533111
0.062101,0.014682,0.435916,0.164478,0.984590,-0.059406
0.246535,-0.073166,0.327908,0.937732,-0.187234,-0.292578
0.311063,-0.100185,0.363699,-0.573324,0.771521,0.275778
-0.507926,0.227453,-0.086181,0.852892,0.419812,-0.310375
-0.304966,0.123602,-0.930712,-0.101379,-0.511380,0.853354
-0.176809,0.081929,-0.909683,-0.136349,0.127784,0.982385
-0.434023,0.160006,-0.837193,0.085920,-0.973471,0.212066
0.495933,-0.130550,-0.919266,0.427527,-0.304493,-0.851178
-0.189981,0.027616,-0.968546,-0.021956,0.019527,0.999568
0.044467,-0.046725,-0.961188,0.650568,0.064500,-0.756704
0.248538,-0.111774,-0.948017,-0.314090,-0.796197,0.517125
0.449495,-0.176344,-0.934436,-0.143980,0.185483,0.972042
-0.314124,-0.004000,-0.973270,0.648385,0.078893,-0.757214
-0.097986,-0.072686,-0.961915,0.085567,-0.170984,0.981551
0.069025,-0.126240,-0.944201,0.282655,0.291757,-0.913775
0.338074,-0.211217,-0.940931,0.205008,-0.338473,-0.918373
0.443015,-0.245989,-0.916359,-0.079920,0.504020,0.859986
-0.199582,-0.094245,-0.961097,-0.041966,-0.001068,0.999118
0.060766,-0.176537,-0.957010,0.422215,0.346408,0.837697
0.234699,-0.232676,-0.939887,0.747115,-0.438538,0.499503
0.408189,-0.288048,-0.924217,0.231994,0.137645,0.962929
0.579887,-0.343514,-0.906549,-0.056976,0.082446,0.994966
0.156325,-0.340643,-0.935390,0.016652,-0.164273,0.986274
0.362863,-0.406359,-0.923763,-0.372367,0.005507,0.928069
0.586585,-0.477823,-0.912726,0.722582,0.376915,0.579491
0.117697,-0.410475,-0.940704,-0.558399,0.777847,-0.288348
0.251441,-0.453586,-0.919902,0.103538,-0.973921,0.201888
0.456861,-0.519115,-0.906458,0.890269,0.366385,-0.270524
-0.085039,-0.479547,-0.926579,0.077416,-0.193637,0.978014
0.131318,-0.548240,-0.916359,0.945506,0.019393,-0.325027
0.303915,-0.603899,-0.898782,-0.107173,0.474439,0.873740
-0.342259,-0.318991,-0.946427,-0.075576,0.733790,0.675159
0.097384,-0.459147,-0.924262,-0.000814,0.466763,0.884382
0.317312,-0.528979,-0.912862,-0.236791,-0.937081,-0.256532
-0.072979,-0.545363,-0.917495,0.965698,0.233490,-0.113621
0.149184,-0.615967,-0.906322,-0.721218,0.173604,-0.670602
-0.330423,-0.538755,-0.924081,-0.436197,-0.890100,-0.132113
-0.082580,-0.617312,-0.916268,0.774878,0.595166,0.212934
0.076840,-0.668468,-0.898873,-0.555812,-0.379134,-0.739818
-0.466621,-0.562226,-0.922945,-0.803092,-0.278205,-0.526920
-0.294698,-0.617692,-0.907321,0.758274,0.238462,-0.606759
-0.003544,-0.709469,-0.904914,-0.150182,-0.227616,0.962100
-0.168769,-0.754012,-0.878343,0.764207,-0.288418,0.576891
-0.436257,-0.854893,-0.882522,0.703490,-0.411167,0.579693
-0.468855,0.224576,-0.629626,0.903995,-0.415961,-0.098844
-0.423979,0.209438,-0.596470,0.912096,-0.336186,-0.234650
-0.464392,0.219594,-0.554593,0.883081,-0.379938,0.275344
-0.436257,0.208959,-0.521164,-0.606103,0.793325,0.057225
-0.515074,0.231856,-0.473383,-0.573749,0.617420,-0.538150
-0.579378,0.249865,-0.428963,0.840475,0.453989,0.295798
-0.573798,0.243065,-0.315595,0.627194,0.771103,-0.109670
-0.454117,0.202445,-0.257277,0.908570,0.417007,0.024601
-0.496098,0.213940,-0.214401,0.982884,-0.012323,-0.183814
-0.143762,0.295373,0.292799,-0.457240,0.802353,0.383617
-0.486497,0.481318,0.304336,-0.264496,0.775958,-0.572653
-0.361903,0.495690,0.461895,0.269668,0.459606,-0.846193
-0.400307,0.643027,0.664694,-0.405729,-0.311159,-0.859398
-0.535169,0.682501,0.748811,-0.425535,-0.471898,0.772161
0.701803,0.389355,0.511130,0.300228,0.335216,-0.893025
-0.450321,0.741797,0.807130,0.698015,0.335890,-0.632419
-0.435365,-0.408277,-0.946563,-0.420925,0.503449,0.754560
-0.181497,-0.487500,-0.929122,0.938128,0.117917,0.325595
-0.087274,-0.517297,-0.914906,-0.195499,0.699649,0.687220
0.123502,-0.581767,-0.920765,0.489112,-0.396829,0.776722
0.194285,-0.604472,-0.901825,0.204360,0.948431,-0.242314
-0.425989,-0.232868,-0.957873,0.337341,-0.078505,-0.938103
-0.275945,-0.279230,-0.953194,-0.084457,-0.395330,0.914648
-0.171222,-0.312185,-0.941067,-0.371245,0.916800,0.147155
-0.041947,-0.352711,-0.933528,0.976419,0.181291,-0.117219
0.127522,-0.404920,-0.932029,0.344199,0.440257,-0.829278
0.250998,-0.443909,-0.923263,0.785945,-0.481826,0.387472
0.389205,-0.486734,-0.915633,0.064217,0.103697,0.992534
0.539249,-0.533294,-0.910001,-0.294077,0.893033,-0.340603
-0.288000,-0.121258,-0.946881,-0.648642,0.296635,0.700907
-0.010460,-0.207574,-0.935708,0.778127,-0.627450,-0.028713
0.265287,-0.293509,-0.922445,0.425074,0.904276,-0.039963
0.405287,-0.337094,-0.915405,-0.217520,-0.254259,0.942357
0.543943,-0.380491,-0.908047,-0.336234,0.654919,0.676778
0.597754,-0.398793,-0.884884,0.369133,-0.007904,0.929343
-0.446526,0.059512,-0.967547,0.248633,-0.447173,0.859196
-0.289785,0.011326,-0.965685,0.020726,0.365546,0.930562
-0.128798,-0.038200,-0.964549,-0.197962,-0.472634,-0.858736
0.269750,-0.163218,-0.941930,-0.003919,0.185470,0.982642
0.368444,-0.194640,-0.927351,-0.443973,-0.639418,0.627720
0.494822,-0.234301,-0.917767,0.020791,0.178635,0.983696
0.579445,-0.262086,-0.901825,0.301951,0.206853,0.930611
-0.382448,0.158860,-0.939251,0.443585,0.020674,-0.895994
0.198748,-0.018658,-0.950606,0.249055,0.449484,-0.857867
0.620076,-0.149903,-0.933074,0.204142,-0.490394,0.847254
-0.313007,0.986663,0.757577,0.026702,-0.536297,0.843607
-0.292019,0.955334,0.749265,0.048443,-0.535066,0.843420
-0.344045,0.920847,0.212315,0.427938,-0.657088,0.620567
-0.327963,0.963380,0.753035,-0.139196,-0.598255,0.789123
-0.223247,0.968747,0.759620,-0.246896,-0.567116,0.785762
-0.348732,0.931384,0.740045,0.569944,0.190470,-0.799303
-0.281969,0.921421,0.949565,0.766916,0.527376,-0.365670
-0.398522,0.882718,0.731551,-0.645954,-0.037950,0.762432
-0.266345,0.850816,0.903555,0.894100,0.083817,-0.439955
-0.250939,0.847466,0.927854,0.739468,-0.057731,-0.670711
-0.139074,0.813360,0.938346,-0.135051,-0.400343,0.906359
-0.361460,0.809723,0.169757,-0.775025,0.597802,-0.204862
-0.461933,0.877930,0.867492,0.735383,-0.143106,0.662369
-0.385125,0.854746,0.883252,0.959866,-0.280444,-0.002900
-0.532491,0.859441,0.719788,0.673330,0.097406,-0.732898
0.714307,0.461777,0.547920,-0.139492,0.434236,0.889933
-0.405220,0.827252,0.864767,0.919512,0.353904,0.171023
-0.214320,0.767378,0.862814,0.258261,0.921386,-0.290429
-0.051323,0.716794,0.865448,-0.366137,-0.609092,0.703527
0.003829,0.693610,0.850323,0.028368,-0.710345,0.703281
-0.523333,0.851296,0.711567,0.765968,0.578969,0.279441
0.714081,0.457941,0.541334,0.377581,0.261489,0.888288
-0.404995,0.821312,0.859089,0.943153,0.208395,0.258910
-0.237985,0.769389,0.859907,0.847776,0.526699,0.062163
0.645758,0.481318,0.552689,-0.178301,-0.360498,-0.915560
-0.387136,0.815178,0.856319,0.795741,0.594748,0.114330
0.042007,0.681255,0.844419,0.432587,0.354121,-0.829136
0.400148,0.523950,0.496733,-0.462213,-0.622349,0.631697
-0.454117,0.796596,0.692127,-0.476083,0.438998,-0.761988
0.629458,0.454112,0.547012,-0.415225,0.849037,-0.326686
-0.383565,0.778779,0.818348,-0.328338,0.031131,0.944047
-0.308319,0.755976,0.834517,0.200250,0.959598,0.197664
-0.250039,0.738733,0.853548,0.763122,-0.172374,0.622842
0.175751,0.601547,0.487603,-0.346766,0.932302,0.102797
0.457979,0.514085,0.499775,0.803374,0.348956,-0.482515
-0.506366,0.822844,0.711885,0.804242,-0.149440,0.575206
-0.393609,0.792187,0.832247,0.796327,0.451347,-0.402677
-0.126120,0.709801,0.845463,0.056355,-0.142095,0.988248
-0.386243,0.756169,0.137010,0.559750,-0.824979,0.078040
-0.029662,0.657972,0.509768,0.684640,-0.386038,0.618257
-0.225032,0.687383,0.428603,-0.369020,-0.914235,-0.167328
0.140919,0.575586,0.483652,-0.018071,-0.784077,0.620401
-0.515967,0.787305,0.701347,-0.364353,0.793498,-0.487450
0.547957,0.451720,0.559729,0.648716,0.263706,-0.713882
-0.461490,0.774944,0.831020,0.904772,-0.365862,-0.218019
-0.438043,0.768430,0.855319,0.862892,0.433108,-0.260449
-0.196011,0.692651,0.844464,-0.317943,-0.259754,-0.911833
-0.276388,0.675981,0.385818,0.967656,-0.150890,-0.202174
-0.134829,0.632204,0.391541,0.861401,0.401863,0.310635
-0.084371,0.619749,0.496142,-0.608056,0.724926,-0.323651
0.348124,0.485154,0.483969,0.478347,0.336071,-0.811320
0.564256,0.418666,0.506271,-0.540080,-0.838267,-0.074984
-0.434023,0.738733,0.805585,0.803141,0.400954,-0.440682
-0.621577,0.799759,0.889520,0.054275,-0.984707,0.165548
0.488342,0.428916,0.505725,0.821743,0.256062,-0.509087
-0.539189,0.753678,0.699213,-0.385744,0.295372,-0.874046
-0.463275,0.732698,0.797546,0.931128,0.132583,-0.339738
-0.242005,0.656060,0.510494,0.166140,-0.682245,0.711996
-0.196679,0.631245,0.369603,0.708339,0.377478,-0.596462
-0.202034,0.633736,0.398581,0.819934,0.502481,0.274267
0.008960,0.569838,0.477838,0.251599,0.063748,0.965730
0.476731,0.425373,0.516263,0.927575,-0.067229,-0.367540
-0.029886,0.586029,0.653430,0.127987,-0.351991,0.927212
-0.544994,0.748889,0.791369,0.799732,-0.595442,0.076672
-0.466621,0.730208,0.791324,0.895642,0.215290,-0.389198
-0.265670,0.651458,0.499639,-0.808721,0.015659,0.587984
0.097384,0.538223,0.469435,-0.522898,-0.237270,-0.818707
0.425606,0.435816,0.474204,0.643486,0.633614,-0.429488
0.517819,0.407364,0.487376,0.967557,-0.252654,-0.000010
0.106536,0.536883,0.637215,0.777814,-0.532868,0.333253
-0.568884,0.749369,0.881345,-0.395697,0.312704,-0.863504
0.083538,0.554513,0.479473,-0.138540,-0.411605,0.900771
0.474277,0.433518,0.502592,0.819675,-0.032822,-0.571888
-0.150460,0.617165,0.359974,0.543856,0.563766,-0.621601
-0.081686,0.595893,0.377870,0.988093,0.098908,-0.117851
-0.164973,0.622147,0.505180,0.087806,-0.037093,0.995447
0.493254,0.417327,0.513674,0.535713,0.843809,0.031600
0.049155,0.556232,0.640712,-0.556616,0.361087,-0.748194
-0.521998,0.734324,0.785918,-0.323866,0.944997,-0.045733
-0.200250,0.637665,0.369285,0.700678,0.517921,-0.490722
0.044467,0.561120,0.472024,0.263209,-0.322519,0.909232
0.409749,0.447504,0.469844,0.542621,0.678500,-0.495176
-0.233965,0.680103,0.393403,0.893192,-0.444554,0.067678
0.166818,0.554413,0.470752,0.858251,-0.460372,0.226852
0.410200,0.478348,0.488284,-0.590494,-0.115339,0.798757
-0.612650,0.793146,0.708206,0.816322,0.084387,-0.571400
0.541041,0.436775,0.553007,0.461775,-0.068127,-0.884377
0.108545,0.570031,0.648752,-0.916287,0.395747,-0.061669
-0.496990,0.755783,0.798500,0.232057,0.930387,-0.283778
-0.478906,0.749942,0.823571,0.901956,0.408735,-0.139327
0.193393,0.573767,0.473977,-0.693974,0.681674,0.231778
0.416223,0.503830,0.493689,-0.519780,-0.055234,0.852513
0.605119,0.444435,0.520214,0.969658,-0.060970,-0.236740
0.570062,0.454591,0.554551,-0.019048,0.098444,0.994960
-0.441613,0.762489,0.796864,0.950835,0.089879,0.296368
-0.497433,0.779160,0.832292,0.985805,-0.151004,-0.073392
-0.554145,0.795064,0.894971,-0.369628,0.785052,-0.497060
-0.369052,0.771494,0.555687,-0.137555,-0.786843,0.601629
0.720112,0.433518,0.552053,-0.182084,-0.779648,-0.599161
-0.485604,0.798607,0.823253,-0.685741,0.566248,0.457299
-0.365699,0.760958,0.832292,0.721044,-0.691958,-0.035918
-0.389146,0.766992,0.862178,0.957335,0.155206,0.243765
-0.112724,0.681922,0.846599,0.185326,-0.201064,0.961888
0.438327,0.538509,0.511039,0.873015,0.190837,-0.448805
-0.579828,0.845454,0.728554,0.697719,-0.290131,0.654990
-0.445633,0.798514,0.842693,0.491702,-0.801967,0.339231
-0.281526,0.747643,0.845282,0.973499,-0.162685,-0.160725
-0.071418,0.682401,0.840921,-0.088102,-0.408974,0.908283
0.016332,0.637665,0.499730,-0.605462,0.455168,-0.652869
0.398139,0.519161,0.495006,0.419320,0.564806,-0.710750
0.592616,0.456889,0.549692,0.075457,-0.283289,0.956062
-0.460372,0.771593,0.823617,-0.186857,0.909704,-0.370841
-0.364582,0.741417,0.835471,-0.298527,0.866882,0.399246
-0.385125,0.746585,0.866265,-0.483348,-0.426540,0.764486
-0.097093,0.641688,0.507133,-0.354866,0.454455,-0.817032
0.574532,0.433518,0.513038,0.886347,-0.142637,0.440503
0.559568,0.437061,0.543196,-0.101476,0.818957,-0.564812
0.145164,0.561213,0.636488,0.663518,-0.196989,-0.721761
-0.489625,0.751280,0.791141,-0.062614,-0.771384,0.633283
-0.334886,0.696867,0.107169,0.765001,-0.079720,0.639076
-0.186185,0.638431,0.399853,0.819934,0.502481,0.274267
-0.152470,0.623772,0.506180,0.320985,-0.120531,0.939383
0.381171,0.459766,0.478565,0.734813,0.449026,-0.508356
0.035977,0.559494,0.645436,-0.447637,-0.885530,0.124332
-0.191541,0.676174,0.380822,0.959358,0.273546,-0.069323
-0.514850,0.698498,0.529207,-0.091347,-0.583922,0.806654
0.031514,0.531902,0.468890,0.420141,-0.061592,0.905366
0.316862,0.440798,0.537564,-0.171414,-0.824502,0.539271
-0.610415,0.717659,0.764889,0.182469,-0.327103,0.927205
-0.044626,0.541766,0.788553,0.175094,0.658425,-0.731996
-0.330866,0.665351,0.839877,0.381877,-0.197189,-0.902932
-0.190424,0.579515,0.365561,-0.715649,0.555576,0.423298
-0.477564,0.652803,0.663785,-0.339275,0.531047,0.776454
-0.614435,0.691026,0.739954,-0.015780,-0.765541,0.643193
-0.464617,0.641594,0.799226,0.758604,0.495214,-0.423418
-0.058690,0.517916,0.765116,-0.602336,-0.779669,0.171194
-0.467513,0.639676,0.853911,0.104601,-0.087957,0.990617
-0.285097,0.621088,0.493916,0.876870,-0.480464,0.015927
-0.682759,0.712678,0.763027,0.822009,-0.485717,0.297288
-0.582955,0.677998,0.828613,0.219147,0.954931,-0.200202
-0.181497,0.555852,0.794094,-0.028113,0.880295,0.473593
-0.609522,0.701562,0.682816,-0.458397,0.781836,-0.422616
-0.222354,0.595033,0.354161,0.122918,-0.221964,0.967276
0.401042,0.392898,0.509541,0.322566,-0.498082,-0.804901
-0.308986,0.608733,0.830339,-0.326259,-0.483410,0.812324
-0.384233,0.620901,0.839287,-0.402319,0.444793,-0.800187
-0.575807,0.702901,0.680182,0.103394,-0.650202,0.752693
-0.173682,0.581047,0.645663,-0.290440,0.944961,0.150644
-0.646141,0.713058,0.826206,-0.600170,0.156224,0.784468
-0.523333,0.674356,0.835153,0.022823,0.750055,0.660982
-0.527354,0.707883,0.759530,-0.686800,-0.600526,0.409480
-0.732548,0.765939,0.818439,-0.404685,0.490432,-0.771820
-0.477339,0.747643,0.134784,-0.095654,0.934945,0.341656
0.143154,0.527014,0.461396,0.331228,-0.013487,0.943454
0.200091,0.500573,0.564317,0.240846,0.464372,0.852263
-0.265895,0.675508,0.419292,0.302975,-0.947623,0.101075
0.058531,0.569745,0.479655,0.072632,-0.739973,0.668703
-0.547448,0.728863,0.766978,0.783032,0.520851,-0.339964
-0.260539,0.735189,0.131469,0.950840,0.222695,0.215198
-0.185736,0.670233,0.515673,-0.583099,0.046665,0.811060
-0.579378,0.797841,0.605103,0.834622,-0.532036,0.142629
-0.503689,0.753198,0.784011,0.732658,-0.180342,0.656269
0.557558,0.441084,0.510858,-0.620085,-0.402152,-0.673623
0.105868,0.566774,0.635943,0.571720,-0.235297,-0.785985
-0.555488,0.753964,0.792504,0.716556,-0.666425,0.205972
-0.221018,0.687576,0.420700,-0.047923,0.998367,-0.031102
-0.330198,0.691119,0.526346,-0.253613,-0.601020,0.757928
0.520272,0.431793,0.505271,-0.119005,-0.991469,-0.053178
-0.077673,0.631724,0.509223,-0.591089,0.442195,0.674595
-0.239102,0.639869,0.498867,-0.299647,0.903018,0.307847
0.494822,0.413971,0.497232,0.969595,0.177623,-0.168332
-0.158051,0.593981,0.652385,-0.181188,0.540007,-0.821927
-0.371504,0.755783,0.139326,0.105853,0.981459,0.159789
-0.359675,0.729056,0.123793,-0.553156,0.468948,-0.688554
-0.649487,0.706831,0.753035,0.531006,-0.511596,0.675502
-0.677622,0.707216,0.810627,0.518374,0.470256,0.714246
-0.178145,0.556138,0.789552,-0.028113,0.880295,0.473593
-0.442505,0.618024,0.650705,-0.258801,-0.090216,0.961708
-0.496540,0.621953,0.740862,0.948356,-0.184045,-0.258359
-0.373072,0.535925,0.340353,-0.846456,0.451310,0.282545
-0.680974,0.585836,0.665057,-0.293476,-0.371610,0.880783
0.066789,0.313862,0.337355,-0.280579,-0.306498,0.909579
-0.021179,0.302080,0.630311,-0.335219,0.805302,-0.488996
-0.559508,0.356587,-0.006198,0.799831,-0.010357,-0.600136
0.147842,0.111727,0.226486,0.800432,0.169367,-0.574998
0.152087,0.107224,0.255237,-0.732975,-0.657119,0.175905
-0.434697,0.374216,0.255237,0.069497,-0.584854,0.808156
-0.373515,0.241340,-0.567310,0.906463,0.265944,0.328022
-0.415938,0.250444,-0.529294,0.912685,0.385873,-0.134565
-0.412368,0.245842,-0.498772,0.822883,0.527414,0.211420
-0.447419,0.252742,-0.461165,0.530538,-0.836077,0.139660
-0.460596,0.249965,-0.397986,0.872578,0.117167,0.474215
-0.294922,0.096109,-0.575486,0.983505,0.113853,-0.140552
-0.323500,0.101184,-0.538832,0.898329,0.433375,0.072052
-0.455909,0.241820,-0.337760,-0.714215,0.492481,0.497352
-0.390263,0.216624,-0.288843,0.842847,0.526019,-0.113635
-0.406787,0.217870,-0.255642,0.882639,0.470020,-0.005497
-0.570227,0.258583,-0.167710,0.903108,-0.414273,0.113024
-0.456577,-0.935361,-0.894013,-0.346655,-0.674303,0.652032
-0.419291,-0.844643,-0.881977,0.782035,-0.048462,0.621348
-0.351860,-0.866675,-0.873074,0.196482,-0.178963,0.964037
-0.435808,-0.903845,-0.889743,0.837637,-0.529961,0.132310
-0.360118,-0.928947,-0.884111,-0.406542,0.220988,0.886503
-0.445858,-0.792907,-0.915769,0.626143,0.213074,-0.750029
-0.392049,-0.809963,-0.901280,-0.635224,0.472050,0.611276
-0.369276,-0.815325,-0.872211,0.904610,-0.235537,-0.355250
-0.287106,-0.843011,-0.867942,0.672373,-0.336218,-0.659448
-0.475111,-0.826920,-0.897328,0.943422,0.036933,-0.329532
-0.404327,-0.755643,-0.917313,0.486923,0.171449,-0.856452
-0.336896,-0.777775,-0.908365,-0.367359,0.890273,0.269186
-0.249820,-0.804502,-0.869168,0.066736,0.166179,0.983835
-0.161178,-0.834393,-0.868941,-0.193453,0.971907,-0.134064
-0.371729,-0.722689,-0.917449,-0.014231,0.074377,0.997129
-0.285097,-0.752001,-0.915224,-0.694472,0.714153,0.087710
-0.263660,-0.756982,-0.885656,-0.927186,0.283387,-0.244986
-0.211192,-0.773460,-0.869078,0.300647,-0.150433,-0.941797
-0.400307,-0.667890,-0.923853,0.195240,-0.292298,0.936185
-0.328638,-0.691840,-0.916859,0.922225,0.215634,-0.320941
-0.252942,-0.717134,-0.909819,0.354372,0.844858,-0.400793
-0.208515,-0.730834,-0.891288,-0.640280,0.763254,0.086514
-0.147107,-0.750568,-0.878343,0.606776,-0.044190,0.793644
-0.054670,-0.781698,-0.878025,-0.519413,0.841442,0.148947
-0.442731,-0.598724,-0.926851,-0.580195,0.443076,-0.683416
-0.280634,-0.653137,-0.917767,0.696383,-0.020719,-0.717372
-0.206055,-0.678046,-0.910273,-0.332114,-0.714042,0.616315
-0.137731,-0.700558,-0.901780,-0.658681,0.168866,0.733228
-0.066062,-0.724221,-0.894512,0.289155,-0.319207,-0.902494
0.035309,-0.758807,-0.897783,0.284850,0.659595,0.695553
-0.464392,-0.539521,-0.927941,-0.390811,0.183612,0.901972
-0.396287,-0.561840,-0.919357,-0.107239,0.560867,0.820931
