-0.243093,0.786768,-0.248560,0.570244,0.756111,0.321121
-0.681538,0.414404,0.579059,0.972059,0.193179,-0.133356
-0.062902,-0.141074,0.837036,0.597481,0.284823,0.749595
0.271019,-0.549345,0.042400,-0.130054,0.231114,0.964195
-0.277771,0.894418,0.690048,-0.419102,0.587343,-0.692374
-0.103568,0.359752,0.877085,-0.330966,-0.823365,0.461011
0.447890,0.489593,0.603838,0.641937,0.765651,0.041186
0.259317,0.684012,0.678383,-0.088815,-0.857900,0.506082
0.210757,0.023708,0.929569,0.054920,-0.990359,-0.127175
-0.066551,0.534735,0.380266,-0.614863,-0.418079,0.668695
-0.518985,0.329428,0.537586,-0.594206,-0.697866,-0.399877
0.207381,0.074294,0.509594,-0.360660,0.381737,0.851000
-0.630911,0.104135,0.549264,-0.418106,0.731080,-0.539175
-0.781869,0.327085,0.509019,-0.514710,0.551256,0.656651
-0.531398,0.209648,0.557141,0.349851,-0.327113,0.877839
-0.510223,0.453687,0.675144,-0.155053,0.091831,0.983629
-0.482402,0.594143,0.507609,0.395595,0.746269,-0.535338
0.024579,0.489662,0.890657,0.496429,-0.545896,0.674948
-0.526879,0.109442,0.378868,-0.427196,0.104832,-0.898061
0.103515,0.809649,0.773659,0.907629,0.172781,0.382566
0.327145,0.405445,0.699440,-0.179047,0.194495,0.964424
-0.634177,0.441144,0.577413,0.977952,0.167072,0.125289
0.023599,0.744108,0.513526,-0.013599,0.849288,0.527754
0.005418,-0.564851,0.066539,-0.430785,-0.000872,-0.902454
-0.058603,0.165403,0.898938,0.859331,-0.115576,0.498188
-0.061813,0.266713,0.923665,-0.105602,0.356648,-0.928251
0.554152,0.014335,0.580469,0.387921,0.313526,-0.866729
0.550234,-0.781736,0.425213,-0.238453,0.045926,-0.970068
-0.320231,-0.374017,0.660867,0.906041,0.193519,-0.376351
0.363618,-0.656582,0.432880,0.382093,0.804248,0.455182
0.104984,-0.031771,0.744034,-0.066676,-0.131202,0.989111
0.745994,0.566437,0.562287,-0.629606,-0.502478,0.592548
-0.053759,0.457822,0.091069,0.996683,0.080557,-0.011547
0.139768,0.572020,0.896300,-0.344552,0.930220,-0.126387
-0.187837,-0.370020,0.713090,0.702309,0.104464,-0.704165
0.100684,-0.023639,-0.007367,-0.655001,-0.707277,-0.265955
0.448980,0.062440,0.733885,0.405130,0.865753,-0.293840
0.347234,-0.557202,0.048644,-0.163789,0.287589,0.943645
-0.041837,0.293936,-0.518803,0.905754,0.415847,-0.081734
-0.035085,0.066782,0.895059,0.907145,-0.375887,-0.189201
0.067039,0.461062,0.924266,0.756674,0.634424,-0.157955
-0.270312,0.015025,0.568896,-0.359224,-0.069795,0.930638
-0.350989,-0.038456,0.567917,-0.360751,-0.458999,-0.811898
0.248538,0.341833,-0.970297,0.310688,0.378713,-0.871808
-0.762760,-0.086492,0.598900,0.871328,0.468041,0.147396
-0.118976,-0.052791,0.578079,-0.307487,0.242764,0.920064
0.015326,0.168436,0.989394,0.597964,-0.795096,-0.101299
-0.297096,0.830186,0.808809,0.896166,-0.396023,0.200133
-0.142274,0.820469,-0.979884,-0.179812,-0.009863,0.983651
-0.678488,0.289731,0.160547,0.006405,-0.880270,0.474430
0.365960,0.472984,-0.969030,-0.073194,-0.184434,0.980116
0.022944,0.187181,0.996617,0.847754,-0.526012,0.068011
0.217887,-0.218952,-0.190864,-0.429026,0.157732,0.889414
-0.397752,0.335976,0.619695,0.400947,-0.126777,-0.907287
-0.539455,-0.457890,0.461134,-0.708301,0.529066,-0.467332
-0.138028,0.549483,0.653748,-0.447510,-0.535243,0.716414
-0.108742,-0.356030,0.775880,0.796940,-0.604058,0.000866
0.540814,0.225569,-0.972700,-0.537774,0.213512,-0.815605
0.779147,0.396623,0.349152,-0.157083,-0.574253,0.803467
0.732222,0.245417,0.212796,-0.447656,-0.779271,0.438567
-0.659110,0.122054,0.529880,0.846208,-0.043703,-0.531057
0.584909,-0.364714,0.424703,-0.335144,0.154219,0.929460
-0.002803,0.445623,0.719412,-0.181659,0.796053,0.577321
0.426007,-0.533356,0.718314,0.993195,-0.078532,-0.086006
0.347560,0.311165,0.797785,-0.472734,0.717744,-0.511239
-0.659762,-0.322536,0.414802,0.466489,-0.411403,-0.783030
0.764176,0.521503,0.555717,0.573136,-0.499937,0.649290
0.041236,-0.642384,0.049728,-0.324728,-0.045980,-0.944689
0.188927,0.082840,0.891545,0.036711,0.830614,0.555638
-0.596997,0.564990,0.676463,0.331082,-0.696198,0.636941
-0.816544,0.260510,0.395170,0.951406,-0.283679,0.119801
-0.117939,-0.256169,0.734094,0.983306,0.157925,-0.090381
-0.029533,0.045210,0.867746,0.918090,-0.392301,0.056656
0.158824,0.648518,-0.950351,-0.108126,-0.479789,0.870696
0.084679,0.056857,0.433076,-0.537586,-0.560051,0.630352
0.251260,-0.294487,0.789320,0.647244,0.578569,-0.496319
-0.268733,0.520882,0.768186,0.799594,-0.366623,0.475644
0.061544,0.233287,0.875661,0.997596,0.014354,-0.067789
0.050110,0.244177,0.856094,0.958695,-0.259466,0.116540
0.259480,0.624397,0.672244,0.560181,0.718378,-0.412469
0.274013,0.232805,0.788158,-0.031857,0.043454,0.998547
0.580557,0.075741,0.588477,-0.593003,-0.617618,0.516619
-0.482130,0.248932,0.361234,0.484038,0.745716,0.457837
0.353547,-0.807994,0.613634,0.813951,0.579548,-0.040097
-0.775117,0.242040,0.520488,-0.676073,0.576639,0.458708
-0.199596,0.130186,0.706872,0.388966,0.747373,-0.538645
-0.180869,-0.423776,0.718563,-0.056259,-0.920131,-0.387549
0.360571,-0.577877,0.512951,0.581737,-0.382597,-0.717776
-0.450993,-0.062853,0.737829,0.776066,0.578110,0.252014
-0.600153,0.812130,0.599436,0.328832,0.942580,0.058426
0.740984,0.566161,0.580496,0.796270,0.473699,-0.376248
-0.364927,-0.025568,0.690244,-0.070831,-0.714406,0.696137
-0.006451,0.445348,0.920256,0.900737,0.229670,0.368678
0.026377,0.491937,0.767846,-0.847805,0.385390,-0.364282
-0.005308,0.033356,0.841517,-0.351580,0.848024,-0.396542
0.001224,0.201309,0.915919,-0.387553,-0.386051,0.837118
0.411361,0.623984,0.582860,0.812809,0.370570,0.449467
0.138463,-0.530807,0.597816,-0.160564,0.822678,0.545362
-0.286915,0.730945,0.757984,0.126111,-0.714991,0.687666
-0.530906,0.394693,0.640268,-0.062405,-0.661340,0.747485
-0.678870,0.730462,0.542067,-0.166146,-0.603293,0.780021
-0.648657,0.950173,0.572854,-0.450220,0.882328,-0.137111
-0.422847,0.247623,0.508523,-0.407174,0.381726,0.829756
0.681485,0.356582,0.235028,-0.037993,-0.512609,0.857781
-0.016631,0.526809,0.909819,-0.038077,0.750447,0.659833
-0.862924,0.763887,0.375237,-0.185500,-0.524681,0.830843
0.560740,0.057065,0.729300,-0.609579,0.726729,0.316667
0.305914,-0.205237,0.708844,0.720520,-0.224678,-0.656027
0.106074,-0.213025,0.749141,-0.354936,-0.343443,0.869521
-0.181252,-0.387801,0.764045,0.988181,-0.149549,0.033655
0.069056,0.475328,0.829252,0.721115,0.599728,-0.346871
-0.639075,-0.017574,0.566676,-0.612703,-0.351391,0.707898
-0.198672,0.767402,0.769649,0.830240,-0.485787,0.273336
0.002367,-0.380014,0.417806,0.360187,0.903620,-0.231810
-0.106290,0.531702,0.761576,0.301590,0.939155,-0.164411
0.600698,0.595107,0.340087,0.404394,0.308910,-0.860837
-0.636516,0.309993,0.562561,0.479585,0.108611,0.870748
-0.210321,0.545003,-0.983934,0.229757,0.055488,-0.971665
0.036228,0.349483,0.916768,-0.586225,0.528631,-0.613913
0.256157,0.643074,0.672323,0.546329,0.627526,-0.554739
-0.577888,-0.149966,0.228105,-0.805250,0.464739,0.368225
0.186913,-0.696347,0.047834,0.091770,0.164826,0.982044
0.340539,0.093797,0.522382,-0.305414,0.481647,0.821425
0.024087,0.178428,0.943362,0.920310,-0.210285,0.329864
0.661233,0.700000,0.225845,0.919041,0.203968,0.337284
-0.301834,-0.532460,0.476233,0.823976,0.502960,-0.260949
0.270096,0.074776,0.790627,0.470779,0.170380,-0.865643
-0.209504,0.380772,0.296524,0.535032,0.732204,0.421448
-0.007321,0.117781,0.940162,0.040385,0.507326,0.860807
0.362369,-0.033977,0.183288,-0.440097,0.435303,0.785383
0.220392,0.757753,0.573089,-0.050799,-0.995404,0.081180
-0.059527,0.408546,0.723239,0.037722,-0.983283,0.178133
0.347507,0.216058,0.599018,0.247400,0.894298,0.372860
0.098016,0.802757,-0.945322,-0.124988,0.697062,0.706033
0.105256,-0.047002,0.799457,0.660496,-0.091547,0.745227
0.460845,0.019573,-0.976344,-0.099915,-0.220293,0.970303
-0.401074,-0.131633,0.570790,-0.150205,-0.062233,0.986694
0.520021,-0.698415,0.555704,0.704047,-0.682738,0.195414
0.839573,0.114403,0.230952,-0.883635,0.467934,-0.015079
0.396828,-0.804135,0.533145,0.294119,-0.931513,-0.213958
0.024632,0.164645,0.988218,0.597964,-0.795096,-0.101299
-0.471026,0.795383,0.118147,0.187039,0.844846,0.501250
-0.164811,0.127774,0.881709,-0.555056,0.383281,0.738247
0.477884,-0.761613,0.549225,-0.697476,0.714599,-0.053619
-0.360246,-0.314404,0.661076,0.967669,-0.197330,0.157091
-0.141131,-0.180771,0.263542,0.789505,0.298938,0.536021
0.510386,0.463818,0.328840,0.172782,-0.013897,0.984862
0.301834,-0.819366,0.690009,-0.194873,0.893606,-0.404344
0.449794,-0.879600,0.559635,0.599580,-0.478520,-0.641500
-0.350773,0.272985,0.575767,0.756893,0.344821,-0.555168
-0.285500,0.603791,0.773646,0.559780,-0.356986,0.747802
0.456762,-0.220055,0.209465,-0.279871,0.593802,0.754368
0.046954,0.811992,0.724506,0.250669,0.931678,-0.262947
-0.067312,0.127705,-0.157543,0.978891,-0.183095,-0.090819
0.709412,0.315438,-0.967606,0.177715,-0.109563,0.977964
-0.013365,0.268298,-0.591677,-0.289706,0.947182,-0.137535
-0.195895,-0.173466,0.656021,0.995289,-0.083733,-0.048864
0.110755,0.219504,0.939143,0.845410,-0.497022,-0.195577
-0.415391,0.143901,0.605026,-0.495901,0.277674,-0.822787
-0.725686,0.618953,0.208773,0.185253,-0.796039,0.576196
0.919486,-0.343212,0.280040,0.515677,-0.460703,-0.722378
-0.609679,0.832392,-0.149980,-0.437693,-0.848478,-0.297507
0.161871,0.077258,0.929190,-0.468821,-0.861450,-0.195222
-0.178474,0.661612,0.751910,0.873456,-0.330910,0.357173
-0.720134,0.902481,0.329075,-0.630775,0.742274,-0.226170
-0.515719,-0.120055,0.539232,0.652046,0.677944,-0.339452
-0.607829,-0.058649,0.536176,0.830770,0.405739,0.381047
0.568143,0.039077,-0.968520,-0.080784,-0.117982,0.989724
-0.057676,0.148725,0.934101,0.146211,-0.987561,-0.057838
-0.244671,0.928326,0.716016,0.171607,-0.657336,0.733799
0.173304,0.797794,0.616874,0.422398,0.843000,-0.333061
-0.052180,-0.067815,0.885027,0.859385,-0.021746,0.510866
0.199596,-0.264093,0.725211,0.995454,-0.074320,0.059567
0.528022,0.285665,0.493358,-0.485116,-0.336734,0.807015
-0.174719,0.207443,-0.863866,0.506825,0.861101,0.040411
-0.132585,0.353894,0.698133,0.884723,0.454672,-0.102655
-0.167968,-0.200206,0.778583,0.831707,0.115728,-0.543019
-0.400310,-0.425223,0.600873,-0.715268,0.408150,0.567278
-0.453442,0.126947,0.726113,0.722083,-0.033136,0.691013
0.318653,-0.271882,0.669096,0.700938,-0.123491,-0.702450
0.019572,0.340593,0.633058,0.977624,-0.205411,0.045362
0.512725,0.000689,0.721985,0.914399,-0.256690,0.313025
-0.731840,0.350448,0.518712,0.648451,-0.609811,-0.455677
0.092843,-0.516196,0.426963,-0.637689,-0.767597,0.064405
-0.074336,0.306823,0.865852,0.881630,-0.117622,0.457050
-0.146846,-0.587732,0.576838,0.896723,0.341795,-0.281182
0.301232,-0.210958,0.786643,0.221332,-0.494014,0.840810
0.467271,-0.820330,0.405698,0.808970,0.292748,-0.509771
-0.385341,-0.401378,0.661337,-0.679737,-0.686802,-0.257410
0.394432,0.684700,0.430829,-0.038609,0.793475,0.607377
0.904354,-0.249001,0.489531,0.390298,0.824642,0.409431
0.000244,0.102688,-0.981831,0.030711,0.439593,0.897672
0.780506,0.678704,0.519391,0.197737,-0.980255,-0.000329
0.756444,0.363956,0.716760,0.794514,0.114199,-0.596411
0.732385,-0.147898,0.633424,0.849924,-0.419952,-0.318228
0.579085,0.358856,0.684941,-0.651699,-0.400315,0.644233
-0.681864,0.660097,0.532296,0.882902,-0.389721,0.261919
-0.335475,0.589042,-0.994775,0.254011,0.157777,-0.954246
0.092408,0.236871,0.400512,0.103449,-0.008310,0.994600
-0.495906,0.499518,0.672244,-0.149252,0.285025,0.946829
-0.025230,0.254031,0.893465,0.673611,0.436793,-0.596204
-0.543210,0.378153,0.690949,0.911912,-0.367600,0.182450
-0.112224,0.099862,0.760218,-0.366402,0.917917,0.152244
-0.386155,-0.424190,0.712097,0.945394,0.052629,0.321654
-0.215930,-0.514059,0.761629,-0.581108,0.794762,0.175123
-0.237105,0.437216,0.737425,-0.643830,0.630978,0.432839
-0.552630,0.949277,0.485090,-0.040551,0.998977,0.020009
-0.320776,-0.576086,0.010502,0.758865,-0.242644,-0.604357
-0.241677,0.602963,0.776036,-0.669318,0.462292,-0.581635
0.578051,0.652102,0.559727,0.306710,0.339780,0.889089
-0.126814,0.316885,-0.970179,-0.177999,-0.252326,-0.951130
-0.356979,-0.529152,0.668117,0.887174,0.081527,0.454176
-0.128502,0.335838,0.875322,0.070169,-0.724900,0.685270
-0.347613,-0.386216,0.702614,0.678677,0.531568,0.506786
-0.845996,-0.248518,0.371383,0.800405,-0.586419,-0.124355
0.510223,0.125362,0.587588,-0.661356,-0.555452,0.504065
-0.005145,0.242660,-0.548323,-0.183304,0.920081,0.346194
0.095783,0.337630,0.526484,0.475341,-0.809580,-0.344429
-0.044774,0.866093,0.485703,-0.483260,-0.861616,0.155170
0.188874,0.424191,0.517823,-0.119224,0.958737,-0.258086
0.669999,0.372364,0.239077,-0.061511,-0.401791,0.913663
0.302814,-0.778084,0.687187,0.297183,-0.789170,0.537487
-0.517190,-0.564713,0.467025,0.699973,0.713957,-0.017439
0.007212,0.124810,0.724597,0.724580,-0.379119,-0.575545
-0.149949,0.800482,0.604190,-0.608064,-0.770298,-0.192093
0.420289,0.412199,0.424612,0.888661,-0.407641,-0.210027
-0.561392,0.515162,0.686691,0.887281,0.364035,-0.283216
-0.534010,0.012681,0.784984,0.009128,-0.943914,0.330067
-0.082064,0.453481,0.744191,-0.196819,-0.714112,0.671793
-0.323391,0.008684,0.682942,-0.232272,0.714168,-0.660313
0.069382,0.311854,0.876954,0.912437,-0.368187,-0.178599
0.022237,-0.033838,0.771060,0.480754,0.406376,-0.777003
-0.327528,0.282978,0.607704,-0.385724,0.892642,0.233254
-0.123222,0.511372,0.583199,0.805096,0.322243,0.497976
0.651814,0.416747,-0.957927,0.061536,-0.132048,0.989331
-0.533465,0.972158,0.359484,0.330104,-0.912843,0.240310
-0.331502,0.546314,-0.994357,0.330258,0.250970,-0.909914
-0.469773,-0.077670,0.575676,0.274623,-0.268358,-0.923345
-0.104439,-0.054583,0.546612,0.118270,-0.784277,0.609033
-0.167642,0.342729,0.888933,-0.754886,0.494810,-0.430478
0.601732,-0.195934,0.243936,0.597299,-0.004934,-0.802003
-0.104057,0.143143,0.794297,0.466394,0.786384,-0.405064
-0.707561,0.559959,0.511541,0.404565,-0.028366,0.914069
-0.839516,0.728463,0.378489,-0.145770,-0.478244,0.866045
0.189744,-0.296347,0.758507,0.985836,0.162914,-0.039820
0.011352,-0.701516,0.055984,-0.331612,-0.069118,-0.940881
0.512888,-0.149208,0.550218,0.643301,0.613777,-0.457648
-0.176896,0.593177,0.750604,0.930217,-0.148542,-0.335606
-0.161492,0.782494,0.482268,0.206272,0.929754,-0.304973
0.519692,-0.422950,0.709785,0.914673,-0.398740,-0.066175
-0.682954,0.000965,0.593009,0.298614,-0.404455,0.864434
-0.465527,0.853067,0.426637,0.396176,-0.876042,0.274947
-0.108140,-0.244728,0.784892,0.962207,0.268691,0.044304
0.170254,-0.070641,0.774077,0.019195,-0.799202,0.600756
0.589375,0.122537,0.767676,0.880001,0.028278,-0.474129
0.114184,0.340869,0.527280,-0.404763,0.834285,0.374347
-0.236178,0.091247,0.732722,0.643434,0.728190,-0.236076
-0.221263,0.142798,0.860640,0.864447,0.095441,0.493582
-0.006504,0.326533,0.640399,0.940111,0.337349,-0.048858
-0.136885,0.821020,-0.983150,-0.179812,-0.009863,0.983651
-0.225021,-0.294831,0.700550,-0.650438,0.725281,0.225605
-0.077057,0.857822,0.697572,-0.516720,-0.569661,0.639130
-0.152780,-0.136733,0.671160,0.742773,0.641463,0.191869
0.249462,-0.032461,0.788511,0.843237,-0.145184,-0.517564
0.208198,-0.700827,0.632718,-0.495695,0.840833,0.217454
-0.564877,0.432667,0.666118,0.816411,0.571519,0.082700
-0.419907,0.534735,0.462910,0.323969,0.942139,-0.086128
-0.266773,-0.308546,0.587654,-0.158464,-0.578070,-0.800453
0.350936,-0.039421,0.720261,-0.813570,0.573216,0.097612
-0.226490,-0.323570,0.831354,-0.802897,-0.387461,-0.453024
-0.096817,-0.140317,0.797941,-0.244974,0.831312,0.498906
0.085330,0.480565,0.653226,0.966160,-0.045609,-0.253878
0.069654,0.334872,0.891101,-0.767056,0.602854,-0.219527
0.411796,-0.272984,0.223036,-0.101909,0.562460,0.820520
0.276901,-0.433700,0.676933,-0.313983,0.833909,0.453883
0.011079,0.238731,0.206683,0.989776,0.129907,0.058882
0.302106,-0.010544,0.893622,0.965360,0.107054,-0.237949
-0.050383,0.198898,0.697154,0.922763,0.375802,0.085333
0.526334,0.370435,-0.968990,0.004013,-0.011575,0.999925
-0.005418,-0.395244,0.281006,0.043280,-0.838445,0.543266
0.085875,0.504824,-0.980942,0.294035,0.195964,-0.935490
0.628027,-0.113300,0.605366,0.943278,0.036371,-0.330006
0.241026,-0.098483,0.681740,-0.523542,-0.640041,0.562362
0.348650,-0.913370,0.563254,-0.305043,0.838337,0.451817
-0.172922,-0.258649,0.684275,-0.574772,0.792098,0.205468
-0.297152,-0.182701,0.414894,-0.161305,0.471605,0.866931
0.411361,0.149828,0.742571,0.827989,0.234634,-0.509295
-0.089577,0.301930,0.717178,0.339684,-0.260910,0.903627
-0.712243,0.713853,0.592735,0.789358,-0.604815,-0.105416
0.586272,0.339765,0.207636,0.332960,0.277415,-0.901209
-0.576254,0.265472,0.472354,-0.664364,0.056788,-0.745249
0.419854,-0.024466,0.522865,0.843701,0.098192,-0.527757
-0.664390,0.441971,0.658712,-0.562026,-0.457360,-0.689165
-0.728627,-0.035492,0.575166,0.753464,0.657268,-0.017077
-0.582298,-0.269331,0.493619,0.955966,-0.108004,0.272882
-0.547021,0.367884,0.547906,0.481921,0.872960,-0.075451
0.357415,-0.090282,0.806184,0.707975,0.205926,-0.675548
-0.441846,-0.105996,0.586321,-0.326090,0.497087,0.804095
0.194100,-0.388284,0.328984,-0.248682,0.684912,-0.684875
-0.260078,-0.627291,0.617318,-0.516684,0.840866,-0.161191
-0.361332,0.565335,0.789569,0.828479,-0.385060,-0.406634
-0.535645,-0.155548,0.402563,0.328844,0.458509,0.825610
-0.129645,0.101654,0.903850,-0.629784,0.431006,-0.646224
-0.395030,0.233287,0.608801,0.370602,-0.392694,0.841692
0.358229,-0.086217,0.674034,-0.001860,0.519232,0.854631
0.196223,0.788077,0.657053,-0.048319,0.897137,0.439103
0.580719,-0.076155,0.583474,0.383237,-0.070895,-0.920925
0.019027,-0.147416,0.776493,-0.222478,0.882899,0.413513
-0.126760,-0.239490,-0.138485,0.944352,-0.214268,0.249577
-0.617029,0.137836,0.487728,0.807451,0.022817,0.589493
0.344456,0.469125,0.709040,0.974501,-0.218469,0.051183
-0.037644,0.358304,0.847970,-0.002126,0.942427,0.334404
0.361877,-0.942729,0.661533,0.510705,0.027250,-0.859324
0.978064,0.582978,0.567812,-0.653982,0.550955,0.518416
0.289912,0.452723,0.556670,-0.245236,-0.822288,0.513519
-0.856558,0.105720,0.567055,0.939429,0.091796,0.330222
-0.034215,-0.075672,0.873571,0.982350,0.134661,0.129829
-0.183212,-0.475396,0.777551,0.965191,-0.209011,0.157229
-0.689323,-0.506134,0.296041,-0.320561,0.575979,-0.751990
0.672663,-0.875465,0.441227,-0.205669,0.497267,0.842867
0.094697,0.471882,0.867328,0.375139,-0.721178,0.582385
-0.230354,-0.114128,0.678593,0.447704,0.873021,-0.193377
-0.474345,0.338111,0.496219,-0.706028,0.442230,0.553134
0.409730,-0.155755,0.681688,-0.169668,-0.058256,0.983778
-0.371838,0.537216,-0.999229,0.330258,0.250970,-0.909914
-0.144124,0.189318,-0.107985,0.784547,-0.590258,0.189952
0.189582,-0.176844,0.757736,0.915400,0.313061,-0.253053
0.056590,0.047415,0.828899,-0.728384,0.305791,-0.613146
0.666839,-0.558028,0.250010,-0.226577,-0.017845,0.973830
-0.309944,-0.594624,0.675836,0.802933,0.306341,0.511326
0.383926,-0.157753,0.486657,-0.508707,0.170689,0.843850
-0.236344,-0.446933,0.726243,-0.400828,0.804624,0.438084
0.174557,-0.452101,0.642763,0.842120,-0.485884,-0.233989
0.521653,0.070296,0.709916,0.766278,-0.454265,-0.454380
0.197802,-0.127429,0.601290,-0.739495,0.573148,0.353055
0.301232,0.542109,0.564390,0.908628,-0.168919,-0.381919
0.668038,0.506547,0.245503,0.298280,-0.370478,0.879645
0.095458,0.077395,0.763131,-0.231214,0.971163,0.058160
0.157953,-0.739214,0.572671,0.498174,0.866965,0.013944
-0.185388,-0.375121,0.780307,0.893098,-0.448795,-0.030960
0.411418,-0.029703,0.477696,0.634121,0.446868,-0.631030
0.233294,0.035906,0.778074,0.724784,0.146636,-0.673190
-0.213588,0.834941,0.759669,0.627944,-0.772636,0.093377
0.636955,0.252239,0.702196,0.768781,-0.629956,0.110142
-0.532923,-0.123570,0.566467,0.414109,-0.490878,-0.766520
0.728517,0.378084,0.678632,0.033590,-0.996546,-0.075939
0.132528,-0.227084,0.579516,0.903698,0.277468,0.326102
-0.759494,0.197726,0.373944,0.312438,-0.315464,0.896027
-0.257519,0.069676,0.761838,0.129391,0.706009,0.696282
0.110210,0.744521,0.751349,0.782228,0.606138,0.143928
-0.268351,0.629290,0.800384,0.813759,-0.156341,0.559781
-0.596289,0.785459,0.532126,0.722749,-0.523269,-0.451469
0.716270,0.351551,-0.964314,0.178122,-0.094260,0.979483
-0.410002,0.392557,0.639641,-0.069712,0.991650,0.108490
0.648495,-0.190627,-0.970845,-0.108302,-0.095393,0.989531
-0.223768,0.954238,0.185835,-0.254485,0.963547,0.082551
0.792863,0.401378,0.719764,0.870073,0.449932,-0.201333
-0.585673,0.419366,0.711653,0.948235,0.247900,0.198485
0.322248,-0.032185,0.782097,0.066711,-0.987640,0.141833
-0.519148,0.464645,0.697951,0.990513,0.136762,-0.013423
-0.175537,0.360854,0.853691,-0.779185,0.625917,-0.033159
0.792049,0.676292,0.503311,0.171761,-0.963818,0.203843
0.282399,0.481806,0.407866,-0.203442,0.102264,0.973732
-0.023107,0.227223,0.606685,0.290180,-0.860210,-0.419326
0.153052,0.468229,0.842706,0.817977,-0.470719,0.330663
-0.319417,0.119228,0.591703,0.824899,0.240948,0.511356
-0.076512,-0.437354,0.717753,0.548284,0.722750,0.420734
0.465091,0.340593,0.711535,-0.205287,0.244603,-0.947643
0.315549,-0.947967,0.658738,-0.341746,0.578846,-0.740369
0.008627,0.540042,-0.986794,0.325321,0.087856,-0.941513
0.299056,0.772708,-0.953655,0.219251,0.418306,0.881447
-0.202919,-0.321778,0.847708,-0.188644,0.979441,0.071480
0.458233,0.413439,0.420158,0.815173,0.176141,-0.551786
-0.324534,-0.364301,0.683230,0.273156,0.907647,0.318688
-0.184029,0.319848,0.864336,0.915213,0.234584,-0.327653
0.053868,0.212681,0.746254,0.992875,-0.113803,-0.035323
0.014183,0.397243,0.923116,-0.271909,-0.961191,0.046663
-0.130841,0.274845,0.599305,-0.544822,-0.777771,0.313435
-0.159475,0.711716,0.630785,0.600057,-0.198034,0.775058
0.390076,-0.083666,0.827997,-0.782572,0.435198,-0.445178
0.484472,-0.426671,0.709001,0.405862,-0.106862,0.907665
0.009282,0.288560,0.939392,0.388848,-0.344701,-0.854388
0.245163,-0.036458,0.878104,0.867445,-0.196584,-0.457050
-0.660632,0.666230,0.600585,-0.747145,0.633152,-0.202221
-0.525517,0.545210,0.699819,0.998878,0.032331,-0.034592
-0.004381,0.186561,0.960644,0.939918,0.203741,-0.273942
0.299491,0.361820,0.557611,-0.516261,0.302423,-0.801259
0.328016,0.063680,0.534151,0.435650,-0.005352,-0.900100
0.084732,0.376567,0.898429,0.712591,-0.264337,0.649877
0.622528,0.497864,-0.957208,-0.019675,-0.124948,0.991968
0.211574,0.062647,0.922881,-0.049793,0.989068,0.138799
-0.395356,0.238594,0.657523,-0.465504,-0.732621,-0.496561
0.486705,0.045142,0.725133,0.463634,-0.680441,0.567488
-0.409075,0.221709,0.555090,-0.458723,-0.685471,0.565423
-0.210375,0.253480,-0.969278,0.377872,0.700024,0.605954
0.154086,0.286355,0.787609,-0.570057,-0.293037,0.767570
0.129482,0.333632,0.512546,-0.743262,0.106707,-0.660436
0.287081,-0.323501,0.729417,-0.158609,0.773845,0.613194
0.239717,0.381737,0.803519,-0.796743,-0.084991,0.598312
0.525248,0.389938,0.225126,0.574751,0.595301,-0.561497
0.091049,-0.395038,0.515590,0.491911,0.638964,0.591396
-0.489480,0.119228,0.757553,0.692228,0.429480,0.579972
-0.518277,-0.003238,0.563763,-0.638368,-0.091423,-0.764283
-0.826126,0.210682,0.562979,-0.609715,0.597107,-0.521259
-0.142546,-0.079394,0.758768,0.051348,0.525571,0.849199
0.486323,0.297382,0.491542,0.635096,0.194396,-0.747571
0.256214,0.526326,0.753177,0.961484,-0.024506,-0.273765
0.110483,0.461544,0.678619,0.927796,-0.017869,-0.372659
-0.689539,0.107926,0.581541,-0.257509,-0.931545,-0.256735
0.350228,0.660441,0.799391,-0.015692,-0.990099,0.139491
-0.767495,-0.045899,0.602048,0.890543,0.454594,0.016654
-0.211574,-0.198691,0.726923,0.988531,-0.113279,-0.099873
-0.098398,0.199449,-0.882558,0.075956,0.996899,-0.020550
-0.014671,0.490076,0.927610,-0.449912,0.817461,0.359634
0.454748,-0.386974,0.514088,0.534277,-0.532263,0.656691
0.235909,-0.597450,0.392544,0.561612,0.755633,0.337061
-0.453223,-0.032874,0.564769,0.660634,-0.473586,-0.582477
0.737172,0.063198,0.609219,0.562160,-0.195241,-0.803652
-0.329159,-0.536044,0.454929,-0.467918,0.855469,0.221867
-0.358285,-0.085734,0.591455,-0.436876,0.733967,0.520031
0.718612,0.249208,0.700981,0.240895,0.223588,0.944446
-0.327255,0.161406,0.650535,0.892368,0.321531,0.316698
-0.380059,0.741833,0.667464,-0.098318,-0.460910,0.881984
0.023599,0.433977,0.769858,0.639666,-0.179179,-0.747477
0.009391,0.366300,0.898063,-0.698478,0.317105,-0.641540
0.029371,0.249553,0.894210,-0.505602,0.637878,-0.580929
0.476850,0.446589,0.459618,0.557195,-0.795035,-0.239692
-0.344948,-0.349001,0.641705,0.989621,0.076159,-0.121861
0.463839,-0.792213,0.564625,0.752049,-0.263401,-0.604187
0.585238,0.462026,0.523100,0.439750,0.688780,-0.576369
0.643813,-0.097795,0.600977,0.875991,0.335891,-0.346145
0.249136,-0.338319,0.795538,-0.734705,0.568103,0.370766
-0.918452,0.215782,0.392322,0.043615,0.689750,-0.722733
-0.352241,-0.091455,0.585629,-0.560545,0.782232,-0.271850
-0.334442,-0.410544,0.696226,0.592451,0.190187,0.782835
0.348922,-0.649483,0.500438,-0.603375,0.237012,0.761422
0.257303,0.048725,0.853547,-0.558807,-0.243272,-0.792814
0.446312,-0.149621,0.495082,-0.517545,0.270056,0.811922
-0.108904,-0.227980,0.814191,0.787984,0.076074,0.610977
-0.258390,0.396968,0.674308,0.219850,0.973733,-0.059243
-0.484745,-0.386905,0.453048,0.970297,-0.241654,0.011304
0.857592,-0.032874,0.478754,-0.120816,-0.588311,0.799558
-0.215329,0.587043,0.755176,0.027354,-0.859459,0.510473
-0.107542,-0.050311,0.776376,0.003378,-0.997004,0.077276
-0.293341,0.757823,0.671317,-0.285075,-0.109893,0.952185
0.101880,0.635287,0.786238,0.903063,-0.031472,0.428353
-0.466181,0.940042,0.467965,-0.170833,-0.980693,0.095174
-0.308964,0.624259,0.792442,0.743671,-0.318512,0.587795
0.453987,0.499173,0.629479,-0.644429,-0.752498,-0.135864
-0.169383,0.502825,-0.984338,-0.174752,-0.011054,0.984550
0.342390,0.287388,0.677038,0.704222,0.618290,-0.348983
-0.102372,0.428050,0.372206,0.968798,-0.076454,-0.235764
-0.028497,-0.468229,0.643390,0.974850,0.042762,-0.218720
-0.338034,0.365266,0.777591,0.852911,0.031533,0.521103
-0.197745,-0.339214,0.706833,-0.818676,0.405336,0.406782
0.200197,0.088353,-0.972178,0.375331,0.306406,0.874781
-0.124528,-0.209717,0.868699,0.994422,0.068761,0.079985
0.600316,0.721365,0.767794,0.282531,-0.922945,-0.261437
-0.132040,-0.290420,0.809384,0.347436,-0.862722,0.367422
-0.809686,0.176844,0.552921,-0.652028,0.587281,-0.479542
-0.175480,0.457271,0.723448,-0.550679,-0.784248,-0.285845
-0.032417,0.393522,-0.985710,0.084897,0.005117,0.996377
-0.147175,-0.220951,0.025132,0.633257,0.320168,-0.704612
0.013528,-0.676085,0.613190,-0.506242,0.860964,-0.049609
0.263234,0.000965,0.521246,-0.452987,0.199231,0.868971
-0.152454,0.387181,0.881487,-0.219900,-0.970123,0.102499
-0.552301,0.426603,0.690218,0.891695,0.316907,-0.323188
0.262201,-0.238043,0.712802,-0.250252,-0.660672,0.707733
-0.168785,-0.630255,0.492705,0.493539,0.797425,0.347177
0.392798,0.567678,0.072142,0.904099,-0.367279,0.218428
-0.383760,0.197519,0.612498,-0.532368,0.405846,-0.742882
0.697925,-0.967264,0.473817,-0.462706,0.771018,0.437532
0.280276,-0.892419,0.521206,0.622586,0.772832,-0.122955
0.061922,0.354445,0.874564,0.817082,-0.509125,-0.270497
-0.318274,0.229498,0.514140,0.173463,0.535820,0.826321
-0.613816,-0.015162,0.572175,-0.264645,-0.593425,0.760138
-0.231497,0.327912,0.479982,0.059415,0.975676,0.211010
-0.384142,0.039559,0.553209,-0.307968,-0.400401,-0.863038
-0.422465,0.057546,0.720901,0.638153,0.064781,0.767179
-0.174992,0.913232,0.494220,-0.000514,0.960634,0.277818
0.749313,-0.714886,0.435362,0.816619,0.034628,-0.576137
0.005198,0.314817,0.916781,0.789516,-0.561963,0.246701
-0.125288,-0.283805,0.713717,-0.244457,0.190807,-0.950702
-0.095783,0.559821,-0.983529,-0.018074,0.150676,0.988418
-0.283160,0.873467,0.817678,0.896166,-0.396023,0.200133
-0.175101,0.836182,0.461460,0.703227,0.681937,-0.201082
0.120879,-0.056168,0.664890,-0.569462,-0.539811,0.619933
0.208308,-0.418608,-0.140327,-0.358104,0.319472,0.877325
-0.254307,0.127568,0.738587,0.414659,0.892210,0.178939
-0.382673,-0.393039,0.699675,0.617182,0.389266,0.683783
0.596668,-0.282219,0.508027,0.288269,0.223053,-0.931208
-0.526225,0.946382,0.521585,0.360043,0.843300,0.399016
-0.252346,-0.016333,0.460494,0.951937,-0.020317,0.305618
-0.242006,0.472433,0.717204,-0.473622,0.556600,-0.682554
-0.387571,0.171675,0.726518,0.058344,-0.817655,0.572745
-0.462317,0.290972,0.625795,-0.125217,0.987625,-0.094430
-0.179836,-0.118952,0.828938,-0.454550,0.889819,0.040081
0.005471,0.495727,0.908604,-0.420491,0.314516,0.851039
0.111190,0.558029,0.777982,-0.711525,0.198081,0.674164
0.037863,-0.262508,0.610382,0.862456,-0.034969,-0.504922
-0.766462,0.082770,0.534399,0.689685,0.518711,0.505245
0.550942,0.423983,0.334483,0.006974,-0.054665,0.998480
-0.112549,0.258511,0.914325,-0.549898,0.319540,0.771691
0.263072,-0.752584,0.564233,0.669029,0.554914,0.494440
-0.598848,0.689731,0.229959,0.231657,-0.972595,-0.019871
-0.438853,-0.352929,0.598273,-0.252966,0.141158,0.957122
0.290563,-0.302825,0.802121,0.934839,-0.187407,-0.301587
-0.077818,0.139904,0.904659,-0.401969,0.866939,0.294684
-0.542014,0.673467,-0.153128,-0.506698,-0.804213,-0.310643
-0.494925,0.676844,0.554215,0.710701,0.344114,0.613587
0.201068,-0.650930,0.423841,0.392972,0.835622,0.383808
0.927108,0.554376,0.569432,-0.778706,0.405459,0.478768
-0.391110,0.318263,0.333320,0.607216,0.303186,0.734416
-0.188329,0.904962,0.440770,0.400751,0.904445,-0.146211
-0.326328,0.666092,0.820683,0.849206,-0.366818,0.379861
-0.168732,0.452033,0.746672,0.107278,0.487991,0.866231
-0.403031,0.078015,0.763039,-0.361841,0.919400,0.154189
-0.316639,0.766506,0.737999,0.719364,-0.570071,0.396906
-0.262201,0.344177,0.751166,-0.756876,0.533161,-0.377993
-0.538528,0.635768,0.720966,0.254642,0.623880,-0.738872
0.072050,0.340799,0.742166,0.042843,0.426383,0.903528
0.044884,0.196210,0.921287,0.923755,0.141058,-0.356060
-0.393179,-0.317987,0.593963,0.544849,-0.060506,-0.836348
-0.555404,0.004618,0.575010,0.216539,0.640156,0.737097
-0.500587,0.154721,0.624646,0.814139,0.275192,0.511319
-0.107107,0.323983,0.848322,0.697573,0.593670,-0.401183
0.045103,0.493246,0.938908,0.137638,-0.988791,0.057862
0.631021,0.226051,0.723565,-0.860752,0.284918,0.421814
0.615341,0.730875,0.252570,0.638260,0.254735,0.726453
0.263617,-0.277395,0.278355,0.976444,-0.033194,-0.213200
0.732820,0.310338,0.712828,0.503244,0.508693,-0.698554
-0.268298,0.180772,0.875296,0.793936,-0.334903,0.507450
-0.503634,0.362164,0.693052,-0.702391,0.579190,-0.413746
0.014671,0.057891,0.954256,0.777334,0.251749,-0.576519
0.318653,0.618539,0.789138,0.946610,0.226768,-0.229143
0.299491,0.145761,0.782202,-0.286750,0.042009,0.957084
-0.137157,0.492488,0.533211,-0.660915,0.022634,0.750119
0.231935,-0.712543,0.640451,0.988847,0.014135,-0.148265
-0.708704,0.779393,0.487153,-0.024951,-0.127601,0.991512
-0.343911,0.899794,0.672375,0.332746,0.895508,-0.295542
-0.129645,0.290903,0.261152,-0.520454,-0.852392,-0.050551
-0.486104,0.030393,0.759395,0.947881,-0.039996,0.316104
0.133073,-0.081599,0.688559,0.946972,0.301297,-0.111643
0.185445,0.276568,0.792116,0.445784,0.309837,-0.839808
-0.720190,0.688560,0.607012,0.792100,-0.231103,0.564950
-0.259151,0.102481,0.822342,0.197943,-0.808501,0.554207
0.969462,-0.547553,0.315843,0.813321,-0.028479,-0.581117
0.182886,0.113164,0.505885,-0.691720,0.258598,0.674278
0.774629,0.389732,0.728999,-0.087456,0.908124,0.409465
0.639676,0.547347,0.481093,0.514917,0.654980,-0.553048
-0.607394,0.450931,0.277689,0.475764,0.876447,-0.074093
0.160293,-0.229152,0.055971,0.523548,-0.058329,0.849997
-0.643431,0.705652,0.722965,0.344921,0.929201,-0.132720
0.311087,0.717712,-0.954570,-0.466636,0.487226,-0.738148
-0.270857,-0.524122,0.484371,0.919897,0.156712,-0.359488
0.605161,0.059270,0.807947,0.693484,-0.591607,-0.411195
-0.182504,-0.385734,0.747012,0.935448,-0.158701,0.315833
0.368901,0.595452,0.685738,-0.536190,-0.057370,0.842146
0.755955,-0.139284,-0.969252,0.019982,-0.008606,0.999763
-0.008411,0.230807,0.848061,-0.180649,-0.187603,0.965490
-0.533631,0.079325,0.277284,0.902221,-0.407469,0.141303
-0.179129,-0.413990,0.793605,-0.683008,-0.714421,0.151998
0.353331,0.270642,0.793082,-0.489868,0.532657,-0.690149
0.202699,-0.285872,0.781784,0.860566,0.061332,-0.505633
-0.132691,0.231150,0.878692,0.769025,0.577144,0.274781
0.127903,0.290420,0.942853,0.982538,-0.067034,-0.173564
0.087620,0.466368,0.930640,-0.755943,-0.654124,-0.025921
-0.343370,-0.227842,0.580679,0.156952,0.575710,0.802449
-0.077712,-0.580221,0.541270,-0.572510,-0.703752,0.420674
0.537711,0.347898,0.671487,-0.375431,-0.726178,0.575949
0.161655,-0.710062,0.616195,0.424505,0.898338,0.113069
0.103406,0.179945,0.966548,-0.746876,-0.095301,-0.658099
0.104223,0.345830,0.907128,0.739070,0.047206,0.671973
0.159641,0.028050,0.446765,0.315470,-0.143222,-0.938065
0.048532,0.386768,0.914208,-0.716010,0.523310,-0.462035
-0.425353,0.516540,0.438301,0.424293,0.882410,-0.203292
-0.134871,-0.474638,0.692099,0.188286,-0.708740,0.679879
-0.419691,0.456030,0.462636,0.265870,0.519543,-0.812028
0.245598,0.075603,0.909322,0.796486,-0.580119,-0.170501
0.701464,0.279875,0.703972,-0.319496,-0.324561,0.890271
0.215874,0.307719,0.647936,0.482112,0.875949,0.016768
-0.022891,0.437353,-0.616573,0.889865,-0.121690,-0.439694
0.054410,0.594624,0.759095,0.848296,-0.406996,0.338746
-0.067368,0.109304,0.919576,0.168158,-0.964818,0.202113
-0.312067,0.267539,0.583918,-0.454833,-0.138464,0.879747
-0.669072,0.580841,0.298026,0.631205,0.682870,-0.367790
-0.472116,0.142247,0.605836,0.388596,-0.740866,0.547824
0.115546,0.566644,0.893504,-0.153275,0.951076,-0.268255
-0.194861,0.151827,0.671447,0.745511,0.483625,0.458606
-0.316041,0.918677,0.696057,-0.577021,0.715044,-0.394663
0.612836,0.324811,0.230325,-0.363865,-0.473176,0.802313
-0.800485,-0.131082,0.338833,0.881431,-0.096752,0.462296
0.165629,-0.343694,0.555299,0.988424,0.145464,0.043117
0.362531,-0.406754,0.739671,0.512603,0.833401,0.206593
0.159259,-0.342384,0.201941,0.865450,-0.466040,0.183858
0.234328,0.764231,-0.960343,0.409868,-0.155406,-0.898809
-0.202154,0.003653,0.726870,-0.114093,-0.575831,0.809569
0.042272,0.427912,0.672375,0.470419,-0.715787,-0.516096
-0.276193,-0.446037,0.705383,-0.276851,0.960207,0.036821
0.261493,0.127430,0.827462,0.987774,0.154138,0.023318
0.135143,-0.456926,0.461042,0.108837,0.906271,0.408446
-0.499713,0.408546,0.669266,0.842920,-0.486386,-0.230033
-0.080815,0.221089,-0.841660,-0.064927,-0.984172,0.164891
0.309289,0.438663,0.815745,-0.703659,0.252141,0.664296
0.082337,-0.218814,0.787008,0.433069,-0.742465,-0.511075
-0.198782,-0.277188,0.284873,-0.174730,0.982721,0.061068
0.228230,-0.612956,0.434800,0.627716,0.739160,0.244163
-0.406297,0.670089,0.318678,0.861943,-0.310144,-0.401079
0.422904,0.495451,0.646682,0.898406,0.435630,0.055615
-0.427150,0.201309,0.560053,-0.190159,-0.334229,0.923109
-0.434769,-0.316816,0.588973,-0.273618,0.286931,0.918044
0.329378,0.662233,0.814308,0.735758,0.607087,-0.300176
0.003946,-0.117299,0.773790,0.842612,0.486660,0.230581
0.663300,-0.759614,0.425905,-0.612243,0.140319,0.778119
0.102043,-0.370641,0.631294,-0.043412,0.811781,0.582346
-0.235853,0.364231,-0.994409,-0.356882,0.237721,0.903396
-0.483765,-0.565058,0.486461,-0.654736,-0.754527,0.044835
0.110592,0.424949,0.719203,0.036389,0.963296,0.265963
-0.736847,-0.010958,0.605039,0.839815,-0.080344,0.536894
-0.255669,0.788008,0.765913,-0.570619,0.788362,-0.229957
0.262636,0.736113,0.567682,0.043744,0.999038,0.002948
-0.102751,0.319228,-0.975717,-0.359762,-0.112744,-0.926207
-0.151092,0.269814,-0.747613,-0.282067,0.959371,0.006678
-0.042488,0.581254,0.497133,-0.792050,0.169299,-0.586511
0.639457,0.050310,0.228483,-0.139311,0.322073,0.936409
0.981603,-0.546520,0.302676,0.813321,-0.028479,-0.581117
-0.152617,-0.268022,0.826561,-0.502536,0.675879,-0.539115
0.500587,-0.133218,0.687213,0.168212,-0.685196,0.708668
-0.174557,0.118539,0.711365,-0.203512,-0.719441,0.664069
0.555298,0.240938,0.386653,0.841201,0.131259,0.524549
-0.626173,0.622674,0.684627,0.894893,-0.171263,0.412111
0.066986,0.725086,0.497956,0.062579,0.530704,0.845244
-0.549470,-0.000896,0.506107,0.870232,0.368269,0.327221
-0.600044,0.325707,0.482791,-0.679360,0.171565,-0.713467
0.339884,0.085320,-0.970349,0.160173,0.282397,-0.945831
0.517406,-0.146588,0.219980,-0.466871,0.474481,0.746257
0.657805,-0.093453,0.592735,0.753147,-0.059272,-0.655177
0.631184,0.255823,0.740102,-0.868359,-0.164186,0.467970
0.099106,-0.378015,0.584323,0.790947,-0.019079,0.611587
0.530092,0.606134,0.339002,-0.002102,-0.429107,0.903251
-0.055281,-0.265955,0.600624,-0.505013,0.688146,0.520977
-0.371460,-0.370916,0.655838,0.948448,0.009672,0.316785
-0.032527,0.192695,0.265475,0.570496,0.808390,0.145055
-0.336781,0.036940,0.787675,0.614542,-0.098840,0.782668
-0.544027,-0.074086,0.513565,0.690658,0.114365,0.714081
-0.367758,0.304893,0.587654,0.830035,-0.048082,-0.555635
0.433028,0.621434,0.699348,0.362514,-0.837173,-0.409543
0.693623,0.331426,0.703567,-0.546488,-0.170849,0.819855
0.629768,0.482839,0.426414,0.043739,-0.890181,0.453503
-0.173141,0.700414,-0.987277,-0.015792,-0.218138,0.975790
0.095348,0.139766,0.916206,-0.422148,-0.368250,0.828362
-0.525846,0.509304,0.616116,-0.003044,0.900422,0.435007
-0.684422,0.790213,0.533694,0.825488,0.539207,0.166809
0.157408,0.802826,-0.959194,-0.522528,-0.693909,-0.495434
0.471079,0.180635,0.719098,0.646623,0.283816,0.708044
-0.085713,-0.694831,0.567904,-0.542540,-0.836241,0.079692
0.398459,0.505445,0.557245,-0.326242,0.902181,0.282198
-0.516918,0.349690,0.461787,0.847375,0.102691,0.520970
-0.534010,-0.487112,0.297530,-0.390735,0.518761,-0.760403
0.631891,-0.850103,0.411850,-0.018817,-0.531160,0.847063
0.785351,0.349621,0.738378,-0.303181,0.898159,0.318420
-0.132256,-0.673880,0.339930,0.024456,0.962468,0.270293
0.155774,-0.736182,0.192040,0.997611,0.068409,0.009631
-0.236178,-0.467333,0.656439,0.956176,0.231579,0.179161
-0.500587,-0.147898,0.438967,0.979493,-0.125210,-0.157850
-0.463078,0.539904,0.481720,-0.155599,-0.794354,0.587189
0.594545,0.207512,0.718223,-0.786560,0.060098,0.614582
-0.193064,-0.389111,0.769113,0.989215,-0.074869,0.125894
0.704185,-0.085803,-0.966469,0.045885,-0.078933,0.995823
-0.367811,-0.408063,0.697480,0.535208,0.449925,0.714926
-0.404447,0.767953,0.670115,0.137607,-0.400471,0.905918
0.280383,-0.118883,0.741840,0.854616,-0.328820,0.401881
-0.436839,0.311578,0.610669,-0.041150,-0.878159,0.476595
-0.796512,0.018194,0.621158,0.969353,-0.042400,0.241984
-0.228666,0.059959,0.024844,-0.451997,0.821847,-0.346794
-0.341516,0.024328,0.552464,0.280200,0.519190,0.807422
-0.360462,-0.300620,0.340322,0.415765,0.704873,-0.574712
-0.637826,-0.109924,0.398892,0.216537,-0.511449,-0.831584
0.032254,0.144728,-0.983842,0.069434,-0.447071,-0.891800
-0.193010,-0.326671,0.723213,0.979210,0.129112,-0.156452
0.639131,0.287113,0.226642,-0.015861,-0.627504,0.778452
-0.461443,-0.117918,0.388012,0.159242,0.606319,0.779115
0.013202,0.532391,0.909662,0.257861,0.860503,0.439365
0.189798,0.500827,-0.970715,-0.214063,-0.388578,0.896205
-0.021692,0.132391,0.814191,0.477661,-0.795610,0.372619
-0.686439,-0.131358,0.592722,0.808914,0.085455,0.581683
0.665480,-0.898415,0.445916,-0.258614,0.526517,0.809876
0.252512,-0.721709,0.656674,0.460337,0.668823,0.583751
-0.676966,0.137009,0.377470,0.246146,0.968038,0.048110
-0.080649,-0.580634,-0.202542,-0.502123,-0.278223,0.818819
0.663247,0.564576,0.492809,-0.593415,0.672785,0.441836
-0.180491,-0.480771,0.732944,0.415452,0.800564,0.431853
0.402217,0.745624,0.057029,0.731769,0.578693,0.360039
-0.634722,0.333494,0.562000,0.069146,-0.977958,0.197022
0.009172,0.548794,-0.592878,0.960861,-0.102216,-0.257483
0.552301,0.086216,0.771151,-0.770281,0.250035,0.586642
0.655572,0.233219,0.745784,-0.898978,0.110445,0.423841
0.109719,0.541281,0.800488,0.241375,0.733996,0.634813
-0.006561,0.191179,-0.040636,0.749364,0.652210,0.114346
-0.580829,0.337630,0.537417,0.779252,0.489681,0.391124
-0.619206,0.905583,0.580613,0.310029,0.825152,0.472235
0.373746,0.354583,0.852358,0.436368,0.862180,-0.257350
0.261547,-0.067608,0.715193,0.015603,-0.118002,0.992891
-0.556929,0.575259,0.726844,0.852154,-0.513341,-0.101561
0.582135,0.319228,-0.962368,-0.072230,-0.049418,0.996163
-0.793298,0.308132,0.511501,0.601338,-0.330989,-0.727213
0.028281,0.291040,0.782881,0.955962,-0.143474,-0.256029
0.120607,0.640042,-0.958658,-0.148859,-0.611011,0.777500
-0.337761,0.336389,0.144873,-0.460625,0.277709,-0.843032
0.427476,-0.368022,0.517013,-0.591304,0.506275,-0.627731
0.047389,-0.229772,0.800789,0.015500,0.901461,0.432582
0.338961,-0.459131,0.776480,-0.771726,-0.632986,-0.061383
0.472115,0.515644,0.492901,-0.537909,-0.212840,0.815692
0.302814,-0.116816,0.179605,-0.364903,0.389486,0.845663
-0.222462,0.592488,-0.992724,-0.187842,-0.101042,0.976988
0.292251,-0.531150,0.372428,-0.145075,0.621006,0.770263
0.380766,-0.007029,0.500242,-0.471187,-0.812757,0.342649
0.438092,-0.871468,0.403085,0.608364,0.551236,-0.570992
-0.223878,-0.235355,0.553326,0.788092,0.351578,0.505276
0.343423,-0.028118,0.525556,-0.423743,0.258716,0.868048
-0.160947,0.543073,0.773071,-0.333163,-0.079273,-0.939531
0.214458,0.676086,0.654924,0.114480,0.681626,0.722690
0.137974,-0.329979,0.503991,0.736301,0.602811,0.307376
0.242930,0.006961,-0.979793,-0.052364,0.015530,-0.998507
-0.017990,0.252516,-0.632431,0.929250,-0.182664,-0.321135
0.108360,0.697037,0.784892,-0.745589,-0.492681,0.448735
-0.112387,-0.193039,0.842353,-0.801002,0.536587,0.265462
0.226273,-0.492419,0.275533,0.808833,-0.587643,0.021569
-0.042163,0.279119,0.894275,0.847987,0.192441,-0.493846
-0.226001,-0.311509,0.585420,-0.018527,0.526775,0.849803
-0.307765,-0.509235,0.731063,0.072955,0.994445,0.075871
-0.877843,0.150724,0.541309,-0.179805,-0.848285,0.498078
-0.333133,0.125706,0.661429,-0.596775,-0.777198,-0.199555
-0.155448,0.776430,0.690975,-0.438191,0.225109,-0.870238
-0.569286,-0.106615,0.454877,0.565260,-0.428906,0.704642
0.968481,-0.546037,0.301383,0.813321,-0.028479,-0.581117
-0.714093,0.542867,0.513552,0.760629,0.587877,-0.275398
0.153760,0.184838,0.905064,0.810959,0.139483,0.568234
0.591880,0.024397,0.796570,0.859864,-0.468155,-0.203629
-0.257629,0.866161,0.686299,-0.275732,0.866055,-0.417038
0.059311,0.417161,0.918074,-0.665708,0.738564,0.106567
0.138137,0.559063,0.902987,-0.305543,-0.750514,0.585979
0.232261,0.052170,0.453296,-0.066121,-0.360967,-0.930232
-0.386322,0.348931,0.330551,-0.440921,-0.292086,-0.848690
0.051745,-0.535562,0.662134,-0.564934,-0.808215,-0.166251
-0.672829,0.415506,0.542171,-0.337873,-0.652684,-0.678119
0.284629,-0.258098,0.663715,0.656945,-0.196772,-0.727808
-0.092245,-0.713714,0.541714,0.449717,0.887728,-0.098458
0.102751,0.641076,-0.961793,0.420953,0.561833,-0.712139
-0.473202,-0.148036,0.573233,-0.127783,0.397577,0.908627
-0.021801,0.184838,0.453375,0.812565,0.502327,-0.295646
-0.685675,-0.389938,0.400303,-0.083500,0.630126,0.771990
-0.440923,0.032736,0.590776,-0.086458,-0.623124,0.777329
-0.083427,-0.714542,0.609859,0.011089,-0.912423,0.409097
-0.642942,-0.117643,0.524955,0.736094,-0.341609,0.584353
0.347397,0.473604,0.059433,0.811044,-0.438590,0.387099
-0.172324,-0.486285,0.760544,0.931699,-0.234128,0.277706
-0.368572,-0.195383,0.638191,0.599681,0.422287,0.679747
-0.028716,0.680565,0.842052,-0.158178,-0.829055,0.536328
-0.006939,0.317850,0.918936,0.770003,-0.336502,0.542091
-0.173467,0.405996,0.827984,-0.683239,0.555678,-0.473716
-0.238574,0.107030,0.700080,0.608360,0.505548,-0.611816
0.302541,0.336871,0.505323,-0.116946,-0.819091,0.561617
-0.233676,0.036595,0.755320,0.028393,0.566400,0.823641
-0.314134,-0.556995,0.145526,0.122116,0.936222,-0.329510
0.105256,-0.157960,0.059537,-0.138301,-0.351849,0.925783
0.597758,0.633701,0.256881,-0.319595,-0.084019,-0.943822
0.616920,-0.110337,0.555090,-0.122823,-0.628224,0.768277
0.361332,-0.257546,0.539115,0.851911,0.483500,-0.201184
0.507771,0.285114,-0.954047,0.100811,0.163370,0.981401
-0.144560,-0.316264,0.760153,0.899086,-0.078585,0.430662
0.352132,0.558098,0.694006,0.469183,-0.769528,-0.433237
-0.177115,0.622192,0.768382,-0.629730,-0.541165,-0.557298
0.492965,0.661131,-0.965294,-0.291888,-0.156715,0.943526
-0.134379,-0.380497,0.710085,-0.489120,-0.393148,-0.778586
0.786823,0.461613,0.236935,-0.643949,0.301481,-0.703163
-0.747137,-0.071951,0.592866,0.795158,0.538276,0.279254
-0.490407,0.742661,0.382826,-0.190663,-0.868217,0.458090
0.358285,0.455754,0.762517,0.025591,-0.910815,0.412022
0.848773,-0.049483,0.486239,0.803247,0.148530,-0.576830
-0.605543,0.662440,0.724219,0.554053,0.828800,-0.078201
0.676202,-0.671674,0.421947,0.744382,0.262875,-0.613834
0.473803,0.353687,0.717648,-0.273323,0.104884,-0.956187
-0.376304,-0.424948,0.708348,0.945394,0.052629,0.321654
-0.379188,-0.287387,0.607652,0.830035,-0.137655,-0.540456
0.083971,0.433426,0.349426,0.413090,0.883730,0.219950
0.269604,-0.868091,0.622712,-0.759208,-0.647832,-0.062593
-0.311303,0.190006,0.334130,0.377795,0.639585,0.669479
-0.014345,-0.168297,0.762621,-0.066565,0.508457,0.858510
-0.715562,0.638869,0.618663,0.952517,0.178179,0.246908
-0.460902,-0.271537,0.596562,0.701888,0.679488,0.213656
0.793192,-0.336388,0.448934,-0.818505,0.561866,-0.119816
-0.637497,-0.146107,0.396058,-0.146297,0.533440,0.833090
0.506575,-0.005445,0.742989,0.111734,0.971037,-0.211195
-0.024087,-0.109235,0.802709,0.739443,-0.472671,-0.479381
-0.820411,-0.285389,0.359628,0.799089,-0.601054,-0.013791
0.845833,-0.151619,0.502763,-0.796259,0.257849,0.547253
0.103133,-0.515162,0.054822,-0.405939,0.239342,-0.882003
-0.106346,0.433977,0.694345,0.913732,0.230851,0.334368
0.032038,0.309649,-0.987813,-0.016400,-0.077458,0.996861
-0.503089,0.206961,0.540512,0.743106,0.379155,0.551394
-0.692805,0.038525,0.390128,0.329529,0.159676,0.930545
-0.047824,0.236871,0.885824,0.883063,-0.258379,-0.391714
0.526118,0.209648,-0.959612,0.681195,-0.054767,0.730051
-0.742289,0.483804,0.514297,0.787529,-0.372849,0.490695
-0.097744,-0.111302,-0.090612,0.932560,-0.315118,0.176160
-0.087181,-0.233150,0.813067,0.643823,-0.455149,0.615086
-0.030022,-0.009855,0.864598,0.723904,0.315123,0.613727
-0.089906,0.349070,0.204750,0.869030,0.391406,0.302636
0.029424,0.214197,0.949449,0.122269,0.903982,0.409716
0.180328,0.645211,-0.958502,-0.142936,0.063987,0.987661
-0.063720,0.266024,-0.832726,0.103728,0.993449,-0.047948
0.665968,0.512750,0.552543,-0.225701,-0.665315,0.711628
0.175208,0.584080,0.741186,0.479111,0.275441,-0.833418
-0.060507,0.227291,0.042661,0.992051,0.031246,0.121894
0.035630,0.304135,0.881396,0.792373,-0.589167,-0.158200
0.135143,0.813233,-0.941482,0.159689,0.766984,0.621478
0.694058,0.210407,0.675967,0.151957,0.929360,-0.336450
-0.361987,-0.476016,0.418028,-0.156229,0.462790,0.872593
-0.526497,0.342316,0.690936,0.893140,-0.344865,-0.288737
-0.204497,-0.449620,0.720548,0.867740,-0.481744,-0.122273
0.762162,0.692626,0.365832,-0.515717,-0.757317,0.400634
-0.704893,0.383805,0.496650,0.901816,0.211832,0.376637
0.005527,0.073329,0.925637,0.088427,0.993940,-0.065303
-0.350500,0.092281,0.642933,0.689756,0.719666,0.079479
-0.633958,-0.156099,0.308097,0.673436,0.133547,0.727082
0.648930,-0.596554,0.432932,0.991933,0.094895,-0.084051
0.631782,0.230599,0.685006,0.516454,-0.855924,0.025887
-0.020984,0.219504,0.512285,-0.507455,0.772549,0.381651
-0.310054,-0.464714,0.672963,0.995017,-0.011863,0.098995
-0.584530,0.737078,0.612798,0.408330,-0.894189,0.183555
-0.755630,0.162095,0.368836,0.151339,-0.495200,0.855496
-0.617900,-0.369469,0.316326,0.297250,-0.373319,0.878792
-0.035411,-0.060165,0.882232,0.830162,0.113043,0.545941
-0.172486,-0.612405,0.631177,-0.565703,0.813649,0.133997
0.379896,0.344934,0.862194,0.907403,-0.411183,-0.086878
0.011405,-0.476844,0.632143,0.945698,-0.324821,0.012141
-0.543100,0.393866,0.695234,0.858117,-0.136600,0.494951
0.035467,0.065059,0.875191,0.099586,-0.590296,0.801020
-0.017176,0.482908,0.760740,0.850183,0.526447,-0.006465
0.549962,0.754377,0.762713,-0.281191,0.926267,0.250922
-0.314134,-0.503514,0.017712,0.822797,0.517773,-0.234341
-0.037863,0.089732,0.682550,-0.752613,0.645239,-0.131302
0.124853,-0.220744,0.746254,0.377622,0.833675,-0.402973
0.002477,0.155066,0.964967,0.954214,-0.169489,-0.246475
-0.721985,0.301241,0.507178,-0.672486,0.250177,-0.696544
0.114021,0.022261,0.207088,0.639630,0.674229,0.369173
-0.677292,0.460785,0.580313,0.939491,0.309182,-0.147524
-0.027789,-0.076085,0.880547,0.924042,0.032498,0.380906
-0.491277,-0.164025,0.492653,0.474956,-0.879526,0.029166
-0.915349,0.216403,0.434931,0.847756,0.527315,-0.056993
0.545715,0.173053,0.216166,0.605754,-0.133199,-0.784423
0.571084,0.739973,0.556004,0.399671,0.444385,0.801739
