-0.280268,0.245805,0.400707,0.976309,-0.172305,-0.130892
-0.561028,0.816527,0.378045,-0.698019,-0.263052,-0.666013
0.018481,-0.492154,0.791758,-0.421139,0.271414,-0.865434
-0.045290,0.264898,0.116710,-0.489080,-0.780077,0.390233
0.037040,-0.295854,-0.909743,0.324273,-0.140382,-0.935489
-0.243460,-0.653491,0.129613,0.796236,0.482942,0.364383
-0.523858,-0.421005,0.215433,0.091832,0.080965,0.992477
-0.334451,0.127584,0.037181,-0.394856,0.914851,-0.084475
-0.120558,0.378194,0.845854,-0.163777,0.965114,0.204285
-0.717490,0.675200,0.828242,0.618682,0.363903,0.696281
-0.453489,0.215336,0.649292,-0.784577,0.144297,0.603007
0.113082,0.320845,-0.938185,-0.173328,0.095187,0.980253
-0.558706,0.137921,0.633906,0.635483,-0.739862,-0.220830
-0.557262,-0.260522,0.715306,-0.612276,0.007561,-0.790608
0.608868,0.034480,0.555312,0.131257,-0.774359,0.618983
0.565355,0.398809,0.638020,-0.494986,0.052592,-0.867308
0.001210,-0.015751,-0.923446,-0.206501,0.261131,0.942957
-0.454467,0.467950,0.694922,-0.698935,0.661176,-0.272646
-0.321925,0.204939,0.039442,-0.702618,0.689019,-0.177709
-0.556749,0.282291,0.725387,0.488039,-0.319571,0.812215
0.307693,-0.053881,0.759831,0.848266,-0.529133,0.021514
0.833485,0.113416,0.540708,0.503402,0.322850,0.801470
-0.329810,-0.432619,0.167355,-0.674703,0.150093,-0.722667
0.309704,-0.023898,0.529862,0.227139,-0.303322,0.925421
-0.241965,0.415166,0.415039,0.849018,-0.105143,-0.517798
0.281608,0.346207,0.233233,0.824080,0.556647,-0.105055
-0.162058,0.589393,0.857245,-0.684349,-0.124173,-0.718503
-0.304550,-0.100400,-0.656449,0.899608,-0.395827,-0.184463
-0.045702,-0.268001,-0.920607,-0.094669,0.079966,0.992292
-0.548860,0.484920,0.387804,0.257657,-0.049998,0.964942
-0.400387,-0.059293,0.672362,-0.670123,-0.681918,-0.293125
0.379507,-0.021040,0.159110,-0.413376,-0.346882,-0.841899
-0.369095,0.239235,0.891365,0.671789,0.455353,0.584254
-0.263512,-0.178119,0.856395,-0.007193,0.926628,0.375911
0.410954,-0.089758,0.843916,-0.466479,-0.391519,0.793165
0.547621,0.584832,0.559324,0.288255,-0.076743,0.954474
-0.450808,0.523901,0.771646,-0.371063,0.003446,-0.928601
-0.495039,0.214608,0.914010,-0.511850,-0.165632,-0.842956
0.404563,-0.367549,0.606807,-0.532300,-0.804668,-0.262993
-0.068644,0.354718,0.910899,0.367419,0.702659,-0.609322
0.595618,0.496961,0.538345,0.276804,0.067826,-0.958530
-0.335380,-0.115180,-0.557726,0.902257,0.430004,0.032079
0.673568,-0.175747,0.709492,0.345651,0.890144,0.296932
-0.433278,-0.334467,-0.943065,0.242219,-0.462366,-0.852964
-0.303622,0.620167,0.694735,0.909663,-0.053240,0.411921
-0.660783,0.404221,0.375852,-0.099651,-0.755605,0.647403
0.495039,0.287703,0.497220,0.817087,-0.181841,0.547085
0.134218,0.679517,0.288689,-0.632166,0.679834,-0.371742
-0.521073,0.102226,0.716139,0.485819,0.851888,0.195619
0.128909,-0.010398,0.649972,-0.627844,-0.213879,-0.748377
-0.081636,0.216431,0.927628,0.798890,-0.562412,0.213233
-0.298414,-0.142179,0.663692,0.612083,0.057260,0.788718
-0.229489,0.301388,0.650567,0.534416,0.844411,0.037014
0.345225,0.359279,-0.923072,0.111470,-0.242747,-0.963664
-0.254387,-0.144732,0.835025,0.351591,-0.894283,0.276842
-0.362443,-0.061482,0.653338,0.865010,0.463058,0.193224
-0.917620,0.128620,0.874824,0.651895,-0.556501,0.515111
-0.316563,-0.086963,-0.825845,0.994501,0.096580,-0.040500
0.522826,0.288007,0.654001,0.857955,0.114043,0.500907
0.497100,0.747022,0.551538,0.925014,0.175591,0.336924
-0.564222,-0.261676,-0.956359,0.301536,-0.022111,-0.953198
-0.491533,0.198856,-0.974499,-0.242573,0.096272,0.965345
0.617682,-0.241062,0.823719,-0.311626,-0.771863,-0.554181
0.191340,-0.120227,0.564373,0.964590,-0.133386,-0.227538
0.818790,-0.079239,0.560140,-0.266790,0.284588,0.920779
-0.780283,0.010398,0.468863,-0.686052,0.478966,0.547653
0.321047,0.645889,0.647966,0.976858,0.185380,0.106688
-0.324656,-0.057285,-0.708064,0.985691,-0.157908,0.058972
0.964636,-0.127402,0.571564,-0.375355,0.194079,0.906334
0.523238,-0.026210,0.709508,0.058809,0.266315,0.962090
0.468951,0.243252,0.110607,0.347946,0.100681,0.932093
0.254233,0.536550,0.199385,-0.355007,0.776405,-0.520735
-0.775229,0.196911,0.793713,0.715690,-0.212673,0.665250
-0.256656,0.020190,0.948029,0.783070,0.331678,0.526110
0.128494,-0.032962,0.539586,0.442476,0.894510,0.063769
0.338781,0.580151,0.259091,-0.039860,-0.769725,0.637129
-0.354196,-0.078326,-0.515819,0.893508,0.381897,0.236217
-0.790282,0.423195,0.833818,-0.453399,0.520545,-0.723507
-0.186803,0.203663,0.936791,-0.247162,-0.898192,0.363542
-0.390438,0.047070,-0.328811,0.958522,-0.222367,0.178295
0.084213,0.345476,0.294283,0.801745,0.352459,0.482677
-0.231757,0.053577,-0.946499,-0.127466,0.200550,0.971356
-0.833846,0.323766,0.797776,0.867082,0.444221,0.225468
0.609897,-0.213027,0.172642,0.183291,0.563653,0.805419
-0.345792,-0.030286,-0.233522,0.162374,0.985934,-0.039596
-0.070963,-0.020435,0.857109,-0.691319,-0.405826,-0.597815
0.569842,-0.336234,0.501403,-0.622482,-0.550474,-0.556322
0.814769,-0.138044,0.454328,-0.040393,0.990675,0.130123
0.430390,0.067807,0.541898,-0.288293,0.016371,-0.957402
-0.117670,0.141997,0.937777,0.998400,0.046754,-0.031810
0.279390,0.082461,0.375512,0.845277,-0.278215,0.456183
-0.761825,0.742946,0.854338,0.980874,0.157693,0.114103
-0.064518,0.709133,0.855885,-0.286432,0.091580,0.953714
-0.099728,-0.252494,0.837388,0.642431,-0.409854,-0.647536
-0.063231,0.484007,0.892742,0.373185,-0.488789,0.788555
0.040133,-0.984370,0.506061,0.077066,0.111600,-0.990760
-0.744711,0.423132,0.812414,-0.272251,-0.549044,0.790209
0.220156,-0.083010,0.605804,0.677683,0.730602,0.083471
-0.638716,0.578084,0.790092,-0.565251,0.481887,-0.669534
0.312230,0.153796,-0.916526,0.114156,-0.096191,-0.988795
-0.335430,-0.016601,-0.579623,0.914370,0.235745,0.329168
0.284701,0.482608,-0.924585,-0.180509,0.043498,0.982611
-0.553914,0.634943,0.806583,0.773991,0.480423,0.412470
-0.196906,0.433227,0.458136,0.930441,-0.299895,0.210575
-0.294808,0.173984,0.365227,-0.523997,-0.846376,0.095257
-0.326771,0.160789,0.410602,0.804756,-0.543072,-0.239669
0.578451,-0.352895,0.213988,-0.159939,0.674366,0.720868
-0.396986,0.036547,0.667891,0.449316,0.178877,0.875282
-0.106122,0.684506,0.381071,0.733053,0.495078,-0.466403
0.408531,0.854902,0.558423,-0.236186,0.766983,0.596618
-0.380281,0.194844,0.167712,0.986987,0.027561,-0.158420
-0.082048,-0.484430,-0.911732,-0.227515,0.135961,0.964236
-0.754660,0.478109,0.848200,-0.817682,0.548378,0.175151
-0.172370,0.136949,-0.947281,0.194560,-0.105164,-0.975237
-0.113032,0.136039,0.040190,0.631839,0.753195,-0.182966
-0.269702,0.086536,0.965353,0.914076,0.099187,0.393226
-0.310377,0.464973,0.379116,0.802137,0.278231,-0.528359
0.353318,0.933412,0.736591,0.106696,0.484641,0.868181
-0.356515,-0.091462,-0.679009,0.934758,-0.351723,-0.050174
-0.504834,0.552967,0.382312,-0.191028,0.041080,-0.980725
-0.493078,0.042935,-0.963295,0.148583,-0.243043,-0.958568
0.211085,-0.062392,0.630455,-0.613632,-0.784376,-0.090614
-0.663565,0.489964,0.792812,0.715069,-0.530621,0.455102
0.069518,-0.020130,-0.922188,-0.103578,0.187961,0.976700
0.284701,0.121809,0.044474,-0.149383,-0.759102,0.633599
0.201702,0.441683,0.169599,0.636106,-0.568793,0.521387
-0.566852,0.152760,0.866833,0.764271,0.472350,0.439062
-0.554169,0.853562,0.713487,0.456193,0.870075,-0.186699
0.360433,0.225491,0.340678,0.970574,0.023678,0.239635
-0.280630,-0.065131,-0.940328,0.594363,-0.518944,-0.614354
-0.355124,-0.281683,-0.937216,-0.327513,0.105425,0.938947
-0.630727,0.345476,0.750276,0.708393,-0.489649,0.508354
0.047559,-0.280588,0.820931,0.965964,-0.243049,0.088544
-0.304292,0.189187,0.035854,0.815627,-0.578006,0.025722
-0.521123,0.120409,-0.717023,0.050170,0.425791,0.903430
-0.090657,0.733277,0.394026,0.744768,0.320211,-0.585479
0.598969,-0.347970,0.500791,0.440666,0.097947,0.892312
-0.715634,-0.140356,0.687731,0.697352,0.257643,0.668820
0.532722,0.829967,0.534333,0.996129,0.085897,-0.018682
0.118752,-0.552421,0.451063,0.081833,0.114174,0.990085
0.079622,0.478777,0.406062,0.366508,0.705063,0.607090
-0.310478,0.199951,0.999235,0.873327,-0.161468,0.459596
0.102563,0.018304,0.584842,0.680613,0.691827,-0.241125
0.835288,0.269033,0.557301,0.755317,-0.100321,0.647635
-0.459571,0.832706,0.601928,0.490598,-0.206297,-0.846614
-0.293209,0.240453,0.359005,0.777029,0.595031,0.205340
-0.153037,0.247142,0.951259,0.197713,0.418875,-0.886258
-0.062612,0.559655,0.332109,0.204274,-0.585731,0.784341
0.239747,0.013379,-0.916628,-0.113367,0.209812,0.971147
-0.192526,0.407138,-0.958195,0.288668,-0.278167,-0.916130
0.397807,-0.424835,0.649479,-0.416427,-0.705092,-0.573963
-0.266451,0.344258,0.167695,0.989728,-0.060322,0.129613
-0.374715,0.096569,-0.159229,-0.509064,0.841676,0.180099
-0.236861,0.127098,0.772003,0.847429,-0.207031,-0.488879
0.824876,-0.243066,0.512606,-0.326846,0.896555,-0.298932
0.279494,0.486561,0.393567,0.271622,0.348027,0.897273
0.020596,0.803941,0.865864,0.047288,-0.036236,0.998224
0.381363,0.219352,-0.911256,0.246492,-0.033488,-0.968566
-0.604485,0.121077,0.702232,-0.423626,0.879365,-0.217388
0.055702,-0.175201,0.181738,0.035779,-0.647712,0.761044
-0.788995,0.437362,0.883511,0.796978,-0.566553,0.209386
0.385797,-0.219107,0.626681,0.497108,-0.647055,-0.578104
-0.444930,-0.522683,0.170211,-0.195727,0.315227,-0.928613
-0.384252,-0.319327,0.862362,-0.490006,0.252389,-0.834382
-0.226500,0.115057,0.956495,0.656922,0.196263,0.727966
0.792293,-0.081125,0.559851,-0.547589,-0.070756,0.833750
0.086428,0.359220,-0.939817,-0.172525,0.044586,0.983996
-0.364919,0.377340,0.671342,-0.486511,0.092840,0.868728
0.342544,0.063427,0.840584,-0.076139,-0.632712,0.770635
0.388840,0.686269,0.570783,0.816022,0.500961,0.288351
-0.135662,-0.367853,0.412676,-0.494221,0.843556,-0.210139
-0.141332,-0.693870,0.696248,0.495230,0.445023,0.746125
-0.429307,-0.434568,0.657231,0.237172,-0.022812,0.971200
0.552158,-0.024083,0.528077,-0.062230,-0.357233,0.931940
-0.254749,0.243007,0.811564,0.987888,-0.102202,-0.116755
-0.295991,0.551263,0.093878,-0.537381,-0.053701,-0.841628
-0.414824,-0.530771,0.654069,0.261981,-0.297132,0.918193
0.195616,-0.334044,0.771136,-0.082776,0.088679,-0.992615
-0.213199,0.094565,-0.101698,-0.472726,0.880224,0.041665
0.048279,-0.095660,-0.920029,-0.141387,0.113664,0.983407
-0.692230,0.706034,0.834226,0.711246,0.301140,0.635172
-0.067303,0.524082,0.918193,0.075314,-0.658193,0.749073
-0.884317,0.582646,0.864725,0.108516,-0.438046,0.892379
-0.422143,0.244343,0.886588,0.509998,-0.180833,0.840953
-0.045856,0.663405,0.396576,-0.660320,-0.677996,0.322953
0.087202,0.286426,-0.937998,0.193184,-0.097325,-0.976324
0.040237,-0.213695,0.500518,0.220966,0.750544,-0.622783
-0.175255,-0.756019,-0.907652,-0.191195,0.108977,0.975484
0.288465,0.320967,0.821271,0.429687,-0.621004,0.655533
-0.461219,0.671674,0.703303,-0.325963,0.674419,0.662500
-0.441475,-0.044090,-0.268612,-0.420106,-0.884811,-0.201545
-0.033226,0.245378,0.798813,-0.319643,-0.428063,0.845335
0.091377,0.659511,0.294470,0.860187,-0.428760,0.276123
0.434411,0.771040,0.270210,0.072559,0.794282,0.603201
0.392807,0.005532,0.888305,0.770326,-0.564919,0.295743
-0.318624,-0.085746,-0.499125,0.900873,0.402865,-0.161639
0.609073,-0.142060,0.704459,0.323255,0.821999,0.468853
-0.193712,0.002310,0.800377,0.809174,-0.541892,0.227136
0.827657,-0.157868,0.576002,-0.327239,0.169575,0.929602
-0.168502,0.643577,0.628245,0.118566,0.457708,0.881161
-0.362755,-0.035148,-0.505517,0.961694,-0.273972,0.009118
-0.640006,0.841403,0.407219,0.030525,0.189832,0.981342
0.523031,-0.473243,0.553901,0.558955,-0.361201,0.746393
-0.577264,-0.377218,0.507795,0.575936,0.378276,0.724711
-0.367034,0.188883,0.197395,-0.619000,0.782113,0.071680
-0.098029,0.201655,0.922018,-0.733485,0.494722,0.466100
-0.253462,0.453052,-0.749358,-0.206448,-0.032671,-0.977912
-0.843384,0.069021,0.820166,0.899761,0.431503,-0.065082
-0.225983,0.294818,0.798966,0.993637,-0.035009,-0.107055
-0.499780,0.551326,0.386121,0.202423,-0.029371,0.978858
-0.261451,0.008027,-0.798252,0.820269,-0.392715,-0.415853
-0.015542,0.376127,0.923480,-0.275819,0.956045,0.099510
0.175255,-0.275054,-0.904728,-0.238309,0.234224,0.942522
-0.256864,0.219898,0.745261,0.886219,-0.462993,-0.015904
-0.048795,0.457977,-0.950120,-0.224324,0.166190,0.960239
-0.381571,0.196911,0.153228,0.768563,-0.635739,-0.071740
0.058279,-0.190709,0.662535,0.059294,-0.795584,0.602934
0.772237,-0.059779,0.560259,0.801151,0.363688,-0.475277
0.616961,-0.074373,0.536985,-0.117828,-0.604186,0.788084
-0.116638,-0.072246,0.620748,-0.380766,0.911013,-0.158342
-0.108133,-0.056189,0.846313,-0.614662,0.289390,0.733788
0.391108,-0.049560,0.173782,-0.503298,-0.368576,-0.781564
-0.560871,-0.298040,0.183829,-0.421599,0.410918,-0.808332
0.912617,0.041109,0.549056,-0.667312,0.315083,-0.674846
-0.127931,0.250668,0.963159,-0.239743,-0.970817,0.006069
0.286608,0.252008,0.405688,0.649990,-0.402986,0.644294
0.545251,-0.472512,0.544227,0.773182,0.058809,0.631451
0.048487,0.284359,0.541592,0.410458,-0.531071,-0.741274
0.040856,0.457005,0.881471,0.305166,-0.406703,0.861084
-0.788530,0.269705,0.805529,0.782214,0.310848,0.539922
0.586956,0.029009,0.678499,-0.260794,-0.882281,-0.391875
-0.139220,-0.106787,0.645654,0.312443,-0.947693,-0.065256
0.081120,-0.113171,-0.916118,-0.105433,0.089154,0.990422
-0.101122,0.681280,0.378980,0.727014,0.560258,-0.396941
0.122824,0.614633,0.261250,0.779110,0.378141,-0.499996
0.056630,-0.537278,-0.898234,-0.207869,0.236425,0.949154
0.366464,0.345780,0.339148,0.998658,-0.010536,0.050710
-0.382034,-0.325165,0.849254,-0.417499,-0.309710,-0.854268
-0.428329,0.012343,0.675337,0.639258,0.293920,0.710606
-0.762703,0.063245,0.812924,-0.192549,0.878564,-0.437093
-0.373528,0.206821,0.074378,-0.548649,0.835893,-0.016326
0.252377,-0.367490,-0.894834,0.204328,-0.098205,-0.973964
-0.370951,-0.234251,-0.940294,-0.313201,0.113632,0.942864
0.129422,-0.412917,-0.895565,-0.142935,0.215979,0.965879
0.218403,0.599062,0.841689,0.022096,0.883432,-0.468039
-0.115093,0.066285,0.637544,0.173037,0.324323,0.929985
-0.320068,0.010157,-0.175210,-0.401176,-0.908003,-0.120777
0.136486,-0.153065,-0.915524,0.221670,-0.103927,-0.969568
0.388427,-0.013925,0.896211,0.905689,-0.387658,0.171606
-0.326771,-0.101981,-0.664678,0.860812,-0.459834,-0.218072
0.296765,0.154100,0.833478,-0.388980,0.689051,0.611477
0.086274,-0.325406,0.455586,-0.005683,-0.213823,0.976856
0.299600,-0.203904,0.764557,0.346643,-0.146981,-0.926410
0.405283,0.290988,0.694888,0.800696,0.530658,0.278008
0.434669,-0.309413,0.417266,-0.636203,-0.771004,-0.028250
0.920093,0.046034,0.557879,-0.704318,0.305848,-0.640619
0.554735,-0.126185,0.703966,-0.401288,-0.812897,-0.422098
-0.147468,0.836173,0.826746,0.824746,0.531871,-0.192113
-0.015596,0.401849,0.851244,0.761131,0.283693,0.583265
-0.561903,0.961324,0.388416,-0.444998,-0.799866,0.402731
-0.778322,0.041718,0.009010,0.218476,-0.312177,0.924562
-0.340999,-0.264412,0.666990,0.460285,-0.206706,0.863371
0.315789,-0.239481,0.566974,-0.601079,0.797629,0.049930
-0.543137,-0.065859,0.486578,-0.631502,0.364435,-0.684392
-0.503701,0.609644,0.774128,-0.422533,0.028507,-0.905899
0.166747,0.415653,0.511909,0.245034,0.735177,0.632039
-0.249904,0.447581,0.208599,0.788464,0.506532,-0.348927
-0.420082,0.484067,0.746145,-0.268433,0.877990,-0.396329
-0.081790,-0.098150,0.617024,0.347408,-0.937363,0.025649
0.568551,0.538736,0.537716,-0.797343,0.105663,0.594205
0.070755,0.669848,0.239149,0.988072,-0.008799,-0.153743
0.268204,0.123995,0.285119,0.223916,-0.819857,0.526969
-0.229438,-0.475066,0.490675,0.492122,-0.117105,-0.862614
-0.378220,-0.013806,-0.320379,0.969985,-0.140872,0.198203
-0.332387,-0.261068,-0.933170,-0.313606,0.088735,0.945398
-0.287178,-0.562514,-0.921253,-0.181287,0.173000,0.968094
0.078181,-0.934748,-0.884497,-0.149084,0.069084,0.986408
-0.250936,-0.079057,0.592696,-0.323767,-0.435005,-0.840206
-0.394097,0.440892,0.661039,-0.142863,0.976738,-0.159917
-0.033226,0.687000,0.429167,0.748336,0.205850,-0.630570
0.207268,0.109827,0.656075,-0.325632,0.941606,0.085682
-0.784200,0.460108,0.889172,-0.825076,0.217133,-0.521634
-0.123960,-0.227804,0.086653,0.877716,-0.315020,0.361078
-0.221654,0.288312,0.115792,0.972595,-0.189727,0.134394
-0.396316,-0.008880,-0.324629,0.977787,-0.158997,0.136574
0.569584,-0.114022,0.695398,0.345370,0.508089,0.789028
0.292332,0.422709,0.689397,-0.449846,0.775136,-0.443625
-0.231345,0.200560,0.914452,0.128205,-0.520884,0.843945
0.367497,0.261736,0.385050,-0.891027,0.254639,-0.375806
-0.327029,0.474884,-0.968158,-0.149291,0.014713,0.988684
-0.325018,0.027428,-0.520698,0.770170,-0.637741,0.011190
0.440701,-0.107151,0.861852,0.639345,0.655587,-0.401802
0.597321,-0.321758,0.210639,-0.022373,0.703711,0.710134
0.305736,0.043785,-0.913160,-0.205108,0.169844,0.963890
-0.063282,0.669121,0.598817,0.732807,-0.563357,-0.381606
0.050702,0.047129,0.507200,0.300038,0.949292,-0.093925
0.314191,0.758209,0.618061,0.201930,-0.109046,0.973310
-0.288310,0.200255,0.037742,0.859679,-0.493381,-0.132391
0.369145,-0.295854,-0.886996,-0.150203,0.182725,0.971623
-0.170563,0.056557,-0.945972,-0.210197,0.234546,0.949108
0.490451,0.787702,0.568334,-0.623680,-0.366516,-0.690427
-0.503956,0.333375,0.695177,0.735316,-0.103993,0.669698
0.082923,-0.345658,0.894323,-0.298478,0.846397,0.441047
-0.546592,0.782472,0.362745,0.788205,0.220150,0.574688
-0.592320,-0.371016,0.186192,0.507488,-0.239391,0.827736
-0.047197,0.075104,0.532769,-0.620176,-0.364413,0.694684
-0.574586,0.590793,0.715850,-0.644002,0.058332,-0.762797
-0.910918,0.497202,0.835960,-0.372104,0.825146,-0.425057
0.041165,0.467345,0.646929,0.507079,-0.044832,-0.860733
-0.382962,-0.007540,-0.529760,0.914127,-0.389395,0.112887
-0.539477,-0.229507,-0.322912,-0.733761,0.626253,-0.263443
0.262380,-0.055522,0.787967,0.862370,0.314089,-0.397072
-0.005130,0.620590,0.466041,0.434723,0.631059,0.642480
-0.301406,-0.099731,-0.912735,0.991839,-0.051196,0.116766
-0.393323,-0.089454,-0.947264,-0.268055,0.284854,0.920329
-0.008069,0.406956,0.177369,0.585329,0.628167,-0.512637
0.374299,-0.155619,0.839598,0.926431,0.359019,-0.113273
-0.279598,-0.016905,-0.698951,0.914005,-0.394667,-0.093983
0.021883,0.247201,-0.940923,0.186223,-0.159070,-0.969545
-0.481430,-0.210715,0.692848,0.435929,0.248198,0.865080
0.421007,0.622721,0.203941,-0.780991,0.280459,-0.558028
-0.557932,0.160362,0.829874,0.677599,0.235734,0.696627
0.890141,-0.050841,0.582343,-0.255038,-0.586107,0.769048
-0.013636,-0.765265,0.714575,0.807627,0.529761,-0.259022
0.020284,-0.223424,0.596420,-0.093712,-0.939171,0.330417
0.093388,-0.381539,0.896295,0.987916,0.032958,0.151443
-0.545044,0.602470,-0.835552,0.870483,-0.289515,-0.398046
-0.182215,0.331490,0.311164,-0.516707,0.466351,-0.718005
-0.355587,0.536246,0.613097,0.475268,0.824366,-0.307475
-0.232994,-0.138470,0.839768,0.308099,0.534881,0.786751
-0.369199,-0.377708,0.164856,0.845606,0.173291,0.504896
-0.420182,-0.137617,0.868244,0.660126,-0.002949,0.751149
-0.204486,-0.275662,0.036433,0.996918,0.017648,-0.076438
-0.148758,0.624907,0.339743,0.040647,-0.690209,0.722467
0.152984,0.744769,0.296901,-0.410947,0.728256,-0.548421
0.025492,0.118887,-0.936094,-0.208084,0.142721,0.967642
-0.180204,0.447399,0.431972,0.923047,-0.218385,-0.316690
-0.058798,0.754378,0.597134,-0.021060,0.354703,0.934742
-0.141436,0.274022,0.953894,-0.091119,0.397814,0.912930
-0.346566,-0.072855,-0.265313,0.085863,0.988829,-0.121836
-0.129630,0.824069,0.591693,-0.242832,0.853733,0.460623
-0.891790,0.434931,0.818585,0.307953,-0.530271,0.789922
-0.355691,0.199405,0.132436,0.572714,0.663670,-0.481187
-0.337028,0.218680,0.370242,0.930827,0.361533,-0.053434
-0.279701,-0.464851,-0.689499,0.805471,-0.276206,-0.524334
0.251295,-0.363414,0.874960,0.476020,0.866799,0.148542
-0.296095,0.547737,0.287601,0.472858,-0.406540,0.781748
-0.065242,0.058988,0.577906,-0.083486,0.996508,-0.001487
0.018689,0.812760,0.870471,0.047288,-0.036236,0.998224
-0.057096,0.692835,0.545519,0.029645,-0.992574,0.117975
0.533342,-0.170458,0.612162,0.228374,-0.875130,0.426606
-0.429669,-0.103261,-0.949542,0.183791,-0.191112,-0.964208
-0.240624,0.243738,0.928427,0.333888,0.918255,0.212899
0.438898,0.286185,0.561449,0.586508,-0.756385,0.289639
0.029513,-0.385733,-0.910151,0.341186,-0.233716,-0.910477
0.632892,-0.163706,0.703983,0.231408,0.835431,0.498503
-0.604693,0.556678,0.814709,0.215568,-0.743761,0.632732
0.691868,-0.190709,0.692253,-0.547650,-0.831414,-0.093968
-0.498597,0.433896,0.382975,-0.098182,-0.138412,0.985496
0.450546,0.385428,0.615052,0.387192,0.919299,-0.070506
-0.338318,-0.206884,0.824978,-0.658315,-0.153357,-0.736955
-0.463900,0.424835,-0.982234,0.258285,-0.163297,-0.952168
0.371722,0.084833,0.539110,0.025438,-0.666601,0.744981
-0.327699,-0.085137,-0.674062,0.924985,-0.358221,-0.126811
0.294188,-0.191318,0.602710,0.813149,0.580453,0.043158
0.051476,0.715640,0.437871,-0.696208,-0.160377,0.699695
0.468900,-0.236014,0.873498,0.204191,-0.729615,-0.652662
-0.446786,-0.006386,-0.253549,-0.679745,0.733418,0.006751
-0.503751,-0.063368,0.885313,0.746455,-0.011218,0.665342
-0.052454,0.382938,0.028391,-0.647883,-0.259955,-0.716010
-0.159223,0.324375,0.951225,0.377051,-0.634076,-0.675115
-0.149116,0.028096,-0.940480,-0.175458,0.220138,0.959559
-0.345021,-0.538736,0.653270,-0.399839,0.411675,-0.818933
0.330119,-0.005169,0.809677,-0.198701,0.668704,-0.716487
-0.160872,-0.046521,0.967053,0.113607,0.460222,0.880505
-0.252481,0.248114,0.775709,0.998176,0.000803,-0.060359
0.423637,0.257297,0.657401,0.723509,0.546295,0.422014
-0.049103,0.726466,0.424117,0.854942,0.245429,-0.456990
-0.342236,0.049746,-0.091260,0.135270,0.962386,-0.235615
-0.283773,0.116883,0.290831,0.855397,0.369402,-0.363096
0.065809,-0.364813,0.912650,0.877475,-0.463997,0.121425
-0.332853,0.031499,-0.474116,-0.296349,0.923730,-0.242693
0.391725,0.332703,-0.925095,-0.196420,0.285062,0.938168
0.017295,-0.506812,-0.904643,0.325984,-0.094861,-0.940604
-0.051064,0.660242,0.877323,-0.464428,-0.882070,0.079109
0.048175,0.644063,0.226705,0.959929,-0.154663,-0.233699
-0.225467,0.069143,0.943336,0.631809,0.515309,0.579028
0.534578,-0.223060,0.854066,0.701257,0.431569,0.567439
0.432039,-0.285394,0.389011,-0.768078,-0.637253,-0.062959
-0.299912,-0.413344,0.473657,-0.120103,0.153804,0.980775
0.175771,0.102471,0.268833,0.322353,-0.744210,0.585013
0.323520,-0.248296,0.444501,-0.518533,-0.220500,-0.826138
-0.555304,0.701108,0.727206,0.816878,-0.499087,0.289175
-0.465807,0.455242,0.387549,0.533142,0.705986,-0.466201
-0.520608,-0.255292,-0.951038,-0.276119,0.091333,0.956774
-0.881945,0.421550,0.809167,-0.377437,0.515786,-0.769095
0.244746,0.465579,-0.033985,0.346928,-0.068735,0.935370
-0.837298,0.350765,0.787049,0.932064,-0.146891,0.331181
-0.374403,0.057284,-0.268544,0.926257,-0.336667,-0.169422
-0.018431,-0.934567,0.571395,-0.327577,0.822929,0.464199
0.143963,0.918877,0.695194,0.144740,0.971484,-0.187803
0.524887,0.435113,0.641897,0.166840,-0.525752,0.834116
0.571748,-0.506263,0.538787,0.773182,0.058809,0.631451
-0.232478,-0.617428,-0.913483,0.236089,-0.128756,-0.963164
-0.378166,0.139929,0.215093,-0.802598,0.500166,0.325070
-0.192577,-0.748176,0.171588,0.890330,0.414351,0.188745
-0.290837,0.022439,-0.338077,-0.796852,-0.012821,-0.604039
-0.276866,0.363659,0.879788,0.397761,0.635422,-0.661834
-0.926075,0.082038,0.865592,-0.488282,0.350294,-0.799296
0.732440,0.112258,0.603917,-0.252825,0.904534,-0.343363
-0.474986,0.805767,0.733105,0.190581,0.929629,0.315387
-0.019410,-0.272196,0.849816,0.535226,-0.385251,-0.751741
0.610464,0.123085,0.877833,-0.582795,0.610568,-0.536244
-0.116949,-0.016419,-0.930110,-0.105615,0.215576,0.970759
-0.375023,-0.031867,-0.364105,0.557766,0.823710,0.101976
0.572780,0.716916,0.500434,0.859253,0.289329,0.421868
-0.529270,0.903492,0.587885,0.449944,-0.253454,-0.856336
-0.299188,-0.097909,-0.534299,0.955919,0.084580,0.281187
-0.185771,0.126125,0.903232,0.218655,0.957564,0.187778
0.935301,-0.090126,0.557930,-0.170557,0.670511,0.722029
0.289239,-0.003710,0.791027,0.930890,-0.357131,-0.076821
-0.292539,0.242157,0.392921,0.891451,-0.417180,-0.176852
0.067457,-0.299503,0.849850,-0.785762,-0.560987,-0.260522
0.515916,0.024688,0.924398,0.181816,0.961269,-0.207135
-0.080037,0.762284,0.400299,0.819365,0.334146,-0.465818
-0.445754,0.005232,0.681814,-0.529137,-0.431222,-0.730795
0.162109,0.597544,0.827800,-0.169380,-0.834210,0.524790
0.487975,-0.344440,0.783938,-0.582700,-0.682404,0.441345
-0.222632,0.261313,0.650550,0.730291,0.683054,-0.010602
-0.172316,-0.703844,-0.907023,0.160428,-0.047329,-0.985912
-0.083851,0.170276,-0.943847,0.155926,-0.144837,-0.977092
0.343989,0.490755,-0.928529,-0.153194,0.116351,0.981323
0.215156,-0.535941,0.451641,-0.351256,0.932685,-0.081962
0.604381,0.106360,0.891348,-0.582795,0.610568,-0.536244
-0.462768,-0.329727,-0.947077,0.321080,-0.120230,-0.939389
-0.874984,0.328205,0.752061,-0.160475,-0.963110,-0.216025
-0.473541,0.537641,-0.988831,-0.271721,0.318984,0.907974
0.503440,0.005169,0.694973,0.036346,0.646607,0.761957
-0.325688,0.056071,-0.113701,0.231487,-0.952918,0.195860
-0.263258,0.417111,0.210520,0.991481,0.103908,-0.078539
0.030492,0.792995,0.607521,-0.234897,0.190005,-0.953269
0.411212,0.572672,0.264055,0.029326,-0.898986,0.436994
0.334090,0.090063,0.864283,-0.618999,0.340707,-0.707643
0.459879,-0.311662,0.320974,-0.459456,0.884982,-0.075553
-0.325635,0.010339,-0.586814,0.977917,0.186980,-0.093361
0.457661,-0.316346,0.582496,0.761412,0.595742,-0.255623
0.399510,0.288070,0.328930,0.996317,-0.058172,0.062997
-0.085553,0.327051,-0.949661,0.204000,-0.158299,-0.966088
0.345792,0.121382,0.858248,0.692054,-0.266141,-0.670992
0.441321,0.644735,0.596947,-0.455203,-0.558234,0.693661
0.383324,-0.379775,0.790568,0.660815,0.535942,0.525442
0.003170,0.369861,0.198263,0.865594,0.397260,-0.304846
0.244388,0.364387,-0.038660,0.188272,-0.160100,0.968980
-0.197784,0.144431,0.572687,-0.648928,-0.108842,0.753025
-0.222787,0.409814,0.820132,0.878575,-0.237608,0.414306
-0.544477,0.487474,0.791197,-0.516360,-0.790833,0.328566
0.343318,-0.635671,0.426412,-0.456440,0.402276,-0.793622
-0.019667,-0.228535,0.493072,0.859587,0.349380,-0.372886
0.375539,0.257478,0.128117,0.686291,0.139824,0.713760
0.378220,-0.236741,0.634671,-0.304950,0.488403,0.817599
0.380951,0.146254,0.855154,0.300555,0.472898,0.828272
-0.932569,0.383606,0.837898,-0.248946,-0.323632,0.912846
-0.593145,-0.164924,-0.964911,-0.337634,0.172825,0.925275
0.881325,-0.232425,0.539994,0.903047,-0.324581,-0.281340
0.317542,-0.134091,0.792353,0.877000,0.409352,-0.251598
0.045391,0.059474,0.809388,-0.201734,0.581394,0.788216
-0.098391,-0.003587,0.774315,-0.846524,0.363362,-0.389057
0.008120,0.585322,0.867462,0.746867,0.511529,0.424885
0.232016,0.361224,0.228014,0.728801,-0.018610,0.684473
-0.126795,0.448126,-0.637765,0.991385,-0.128116,0.027238
-0.042351,-0.665287,0.725149,0.745509,0.480717,-0.461657
-0.382034,-0.548773,-0.928461,-0.160716,0.189075,0.968721
0.247327,-0.569143,-0.886843,-0.240652,0.199270,0.949936
-0.208712,0.433045,-0.964469,-0.228434,0.230976,0.945763
0.217733,0.167114,0.572534,0.139044,-0.661232,0.737183
-0.267741,-0.435358,0.107989,0.898271,-0.017991,0.439074
-0.154478,0.833861,0.562010,0.683233,0.514883,-0.517773
0.093596,0.592860,0.653321,-0.449478,0.033046,0.892680
-0.445546,0.211810,0.585692,-0.180894,0.975073,-0.128495
-0.101843,-0.036365,0.860883,0.043334,-0.735995,0.675599
-0.228098,0.274630,0.702691,0.126679,-0.990546,0.052648
-0.010851,-0.906773,-0.891246,0.311881,-0.176456,-0.933592
-0.259595,0.267211,0.741419,0.936188,-0.350697,0.023733
-0.143550,-0.111531,0.782476,0.967676,0.250654,-0.027853
0.338573,0.185784,0.839785,-0.096354,0.925552,0.366154
-0.794046,0.410727,0.837082,0.629983,-0.643758,0.434393
0.846889,0.189796,0.551759,0.806077,-0.106225,0.582200
-0.379818,0.229262,0.900155,0.609763,0.505724,0.610272
-0.370177,-0.039587,-0.479659,0.973512,-0.171247,0.151490
0.055652,0.509184,0.472246,0.488988,0.571918,0.658635
-0.224281,0.268001,0.709135,-0.229899,-0.973148,-0.011337
-0.375643,0.063609,-0.068870,-0.662435,-0.706489,0.249104
-0.548860,-0.236804,0.191088,-0.072503,-0.430950,0.899458
0.283927,0.195148,-0.057734,-0.215146,0.127367,-0.968241
-0.285683,0.256265,0.045783,-0.810561,0.584873,-0.030248
-0.295013,0.537704,0.401013,0.809832,0.012011,-0.586539
0.444773,0.242398,0.113905,-0.594000,-0.063717,-0.801938
0.477305,-0.302542,0.869060,-0.175241,0.250988,0.951996
0.637272,0.043844,0.874178,-0.494420,0.283968,-0.821529
-0.221242,0.623266,0.302460,0.340563,0.574917,-0.743967
0.958758,-0.120896,0.579997,0.320382,0.176812,-0.930641
-0.076532,-0.497202,0.813298,-0.051663,0.627790,-0.776666
-0.579174,0.397714,0.699104,0.635402,-0.491574,0.595499
-0.151489,0.593164,0.201986,0.995480,-0.075914,-0.057075
-0.406728,0.678058,0.713708,0.785191,0.149866,0.600845
-0.388119,0.142546,0.176620,0.951092,0.256554,-0.172059
0.486118,-0.141633,-0.030924,-0.075942,0.150101,0.985750
-0.397087,-0.013561,0.478060,0.434375,0.460100,0.774356
-0.547262,0.862322,0.383690,0.733465,-0.280385,0.619204
0.137311,-0.070847,0.727767,-0.338624,0.874084,0.348298
0.823120,0.004255,0.582360,0.281917,0.615422,0.736056
0.071324,-0.751339,-0.894000,-0.193889,0.108001,0.975060
0.328470,-0.254257,0.545553,-0.564282,0.348866,0.748250
0.265831,-0.099427,0.613540,-0.649346,-0.760038,-0.026284
-0.376672,0.241062,0.884939,0.675110,0.365096,0.641039
0.384560,0.361042,-0.919366,-0.153662,0.386889,0.909233
-0.173760,0.361955,0.304942,0.705313,-0.325791,-0.629599
0.174069,-0.355449,0.696605,-0.363692,0.645660,0.671455
-0.485140,-0.348274,-0.948471,-0.385669,0.118887,0.914946
-0.090503,0.269519,0.776967,-0.117878,0.803854,0.583030
0.396725,-0.159449,0.840907,-0.181285,0.485485,0.855243
-0.638304,0.511492,0.766138,-0.430350,0.847532,-0.310626
0.304600,0.154464,0.837677,-0.394160,0.692777,0.603902
-0.583554,0.116274,0.651468,-0.259793,0.941027,0.216741
-0.717852,0.612198,0.864980,0.794039,-0.548206,-0.262624
-0.232789,0.338119,0.883494,-0.152084,-0.818949,0.553348
0.495297,-0.368889,0.560021,0.850438,0.262510,0.455898
-0.152779,0.424898,-0.955305,-0.248939,0.177849,0.952050
0.397653,0.478473,-0.057208,0.221860,0.168972,0.960326
-0.314295,-0.036243,-0.863212,0.977479,0.150444,0.147991
-0.495401,0.111954,-0.970929,-0.166036,0.163174,0.972526
0.389510,-0.251521,0.587970,0.654855,0.743857,0.133571
0.050548,-0.494771,-0.903589,-0.108128,0.075000,0.991304
-0.511794,0.297921,-0.759287,0.977105,0.139350,-0.160773
0.738934,0.121809,0.607827,0.034946,-0.893222,0.448255
-0.016213,0.114935,0.783394,-0.623888,0.086864,0.776672
-0.176749,0.597422,0.555754,0.761751,-0.530270,-0.372222
0.481685,-0.091157,0.871933,-0.415283,-0.406021,-0.814056
-0.303313,0.212174,0.551011,-0.080435,0.954373,-0.287581
0.224436,-0.565189,0.479795,-0.394277,0.409806,0.822560
0.492304,-0.442046,0.770932,-0.517881,-0.462496,0.719650
-0.393635,0.083252,0.660376,-0.097754,0.037825,-0.994492
0.305066,0.289284,-0.922069,-0.307830,0.107881,0.945306
-0.584224,-0.352832,-0.953741,-0.333753,0.093230,0.938039
-0.687588,0.063427,0.541609,0.754613,-0.050829,0.654198
-0.713419,-0.015873,0.494976,-0.620125,0.550445,0.558977
-0.346824,0.233946,0.351456,0.999692,0.018629,0.016396
-0.003840,-0.239844,0.851193,0.458336,-0.362510,-0.811489
-0.379611,-0.550109,-0.717669,-0.712174,0.395791,0.579791
0.934527,0.040259,0.519355,0.914697,0.027178,0.403226
0.309550,-0.634090,0.438024,-0.707566,0.442558,-0.550901
0.115093,0.230480,0.613471,-0.691480,-0.141046,-0.708492
-0.688775,-0.282351,0.215042,-0.549666,0.236853,-0.801104
-0.066787,-0.432073,-0.913415,0.149686,-0.133713,-0.979650
-0.121433,-0.182436,0.082964,0.927364,-0.217956,0.304123
0.178811,-0.413767,0.766189,0.930971,-0.318563,-0.178358
-0.011109,-0.207430,0.636762,-0.369381,-0.908917,0.193459
0.234797,-0.025175,0.526020,0.066202,0.051760,0.996463
-0.374403,0.284177,0.890124,0.741391,0.283495,0.608252
-0.827915,0.253893,0.834277,0.960474,0.137998,0.241756
-0.076736,0.227317,0.024481,-0.357468,-0.408601,-0.839799
0.495655,-0.091644,0.534945,0.160906,-0.488453,-0.857626
-0.018635,-0.507725,-0.908468,0.189613,-0.146693,-0.970839
-0.388994,0.096510,-0.010557,0.675281,0.725932,-0.130450
-0.294446,-0.197761,0.852808,-0.369626,0.849995,-0.375348
-0.379869,-0.140174,0.611822,0.661260,0.646576,0.380360
0.405645,-0.517880,0.462539,-0.571274,0.815365,-0.093950
-0.065809,-0.150147,0.170925,-0.014757,-0.628836,0.777398
0.164840,-0.146313,0.567246,0.896043,-0.308753,0.319028
0.472972,0.773716,0.562401,0.788235,0.360052,0.499048
-0.526381,0.101435,-0.970402,-0.065190,0.222066,0.972850
-0.076790,-0.641754,0.694395,-0.321855,-0.278917,0.904773
-0.004306,-0.149843,0.477618,0.849017,0.306096,-0.430668
0.180047,0.085441,-0.921015,-0.128460,0.201991,0.970926
-0.246861,-0.394307,0.171010,0.870075,0.230373,0.435772
-0.734142,0.066163,0.811870,-0.243175,0.944387,-0.221360
-0.373012,0.312942,0.615257,-0.524183,-0.818936,-0.233613
0.468126,-0.340732,0.877051,0.202465,-0.405099,-0.891573
-0.024513,-0.178423,0.502151,0.886300,0.448324,-0.116092
-0.228406,0.418206,-0.757451,0.209141,-0.098261,0.972936
0.288002,-0.510583,0.442852,-0.552568,-0.184378,-0.812818
0.487304,0.797070,0.516771,-0.722724,-0.687449,0.071297
0.004614,-0.481695,0.542136,0.555818,0.488983,-0.672282
-0.127931,0.416929,0.773941,0.239272,-0.847244,0.474264
-0.072253,-0.691072,-0.901923,-0.262084,0.051009,0.963696
0.305736,-0.530530,-0.884004,-0.348272,0.121307,0.929511
-0.480914,-0.296886,0.884786,0.850061,-0.099935,0.517116
0.247635,-0.501033,-0.889410,0.194480,-0.084370,-0.977271
0.129992,0.183957,0.534673,0.855172,-0.145497,-0.497505
-0.214228,0.516845,0.905102,0.803447,-0.539193,-0.252476
0.114681,0.029191,0.833461,0.495391,-0.318537,-0.808160
-0.183039,0.117002,0.822614,0.795090,0.522138,0.308552
0.084933,0.197883,0.070264,-0.023001,-0.722768,0.690708
-0.359662,0.134395,0.180055,0.951806,0.293521,-0.088946
0.099986,0.094079,0.337668,-0.226874,-0.944533,-0.237458
-0.072253,0.795853,0.854338,0.458515,0.767844,-0.447414
-0.144891,0.402153,0.882236,0.123063,0.992292,-0.014572
0.120763,-0.372174,-0.901991,-0.263967,0.239077,0.934432
-0.319603,0.782840,0.699138,0.375517,-0.832279,0.407798
0.433637,0.747812,0.288468,0.207634,-0.840742,-0.500040
0.127569,0.141755,0.559630,-0.639641,0.692444,0.333736
0.357597,0.060510,0.845480,-0.799226,0.387118,-0.459758
-0.293568,-0.526391,-0.923854,0.171891,-0.090631,-0.980938
-0.025441,-0.884577,-0.893338,0.340138,-0.124383,-0.932113
0.016678,0.138593,0.790959,-0.370550,0.262333,0.890996
-0.323778,-0.334712,0.657486,0.227931,-0.016591,0.973536
-0.277898,0.245438,0.595994,0.208685,0.969768,-0.126491
-0.197526,0.039164,0.951140,0.165275,0.548057,0.819950
-0.153500,0.028886,0.781660,-0.584575,0.390584,-0.711137
0.515195,0.456763,0.575883,0.868254,0.057369,0.492791
-0.597991,-0.093834,-0.967070,-0.363787,0.176921,0.914526
0.519834,-0.362260,0.561704,0.783179,0.612864,-0.105017
-0.487100,-0.270614,0.191870,-0.102367,-0.385424,0.917044
-0.843538,0.218680,0.829177,0.992144,0.045471,0.116549
-0.225518,0.789832,0.333180,0.476277,0.737045,-0.479505
-0.212217,0.219656,0.918056,-0.131820,-0.770148,0.624096
0.005285,-0.804731,0.730402,-0.740685,-0.670037,0.049365
0.033688,-0.222696,-0.916985,0.161912,-0.180653,-0.970128
0.367443,0.012529,0.767022,0.843832,-0.536286,-0.018589
-0.156439,0.705852,0.169684,0.307431,0.419000,-0.854356
0.238560,0.527668,-0.931946,-0.118236,0.022061,0.992740
-0.728110,-0.057043,0.015216,0.181370,-0.297580,0.937311
0.254130,0.323706,0.806515,0.429687,-0.621004,0.655533
-0.212579,0.398441,0.196341,0.658812,0.705076,-0.262364
0.275473,0.004255,0.813791,-0.109473,0.948300,-0.297896
-0.304137,0.490636,0.388246,0.743348,-0.237697,-0.625247
-0.437919,-0.295486,0.709032,0.456904,0.461532,0.760412
0.081374,0.713453,0.575084,0.652809,0.389598,0.649656
0.500813,-0.162307,0.724248,0.003715,0.549420,0.835538
0.577522,0.102044,0.892403,0.246865,-0.386974,0.888431
0.317026,0.518303,-0.932660,-0.200644,0.066760,0.977387
-0.757445,0.091521,0.775454,0.794544,-0.251190,0.552815
-0.121329,-0.385855,0.814913,0.899898,0.002545,-0.436092
0.380281,0.692957,0.523810,-0.047456,0.498398,0.865648
0.403738,-0.265630,0.439095,0.630613,0.552387,0.545156
0.982420,-0.006995,0.515156,0.912259,-0.068327,0.403876
0.374299,0.351132,0.673416,0.426638,0.318984,0.846303
0.136949,0.173193,-0.039459,-0.116772,-0.259704,0.958602
-0.426371,0.256569,0.902654,-0.654642,0.113040,-0.747439
0.063128,0.652823,0.252886,0.907934,0.239438,-0.343984
0.431214,-0.243248,0.764999,0.720808,0.389860,0.573101
-0.369457,-0.304610,0.463151,0.136995,0.120286,0.983241
0.266193,-0.333862,0.857092,0.685769,0.492347,0.536018
-0.174018,0.641327,0.886809,0.047356,-0.788175,-0.613627
-0.272949,0.410059,0.857721,-0.213604,0.281063,-0.935616
-0.127673,0.396678,0.891671,0.073478,-0.187618,0.979490
-0.301869,-0.061419,-0.915779,0.774825,-0.596344,-0.209810
-0.254183,-0.263317,0.661923,0.224589,0.365583,0.903277
-0.278465,0.188883,0.454736,-0.728231,0.685233,0.011637
-0.278465,0.693321,0.667619,-0.496515,0.394462,-0.773222
-0.314653,-0.113171,-0.873923,0.869170,-0.494514,-0.000462
-0.059622,-0.197579,0.859251,0.294106,-0.277286,-0.914666
-0.228252,0.236559,0.761327,0.880856,-0.410572,-0.235633
-0.321097,-0.317564,0.659798,0.153351,-0.020380,0.987962
0.426010,0.499633,-0.924262,-0.155048,0.161904,0.974550
0.123444,-0.135976,0.859234,-0.018390,0.182622,0.983011
-0.420597,0.739480,0.762347,-0.145961,-0.502968,-0.851891
0.042659,-0.544270,-0.899866,-0.178728,0.229227,0.956823
-0.257896,-0.179945,0.619286,0.630892,0.572095,0.524102
0.126949,-0.066530,0.846840,0.483613,-0.378424,-0.789249
-0.066221,-0.358307,0.855069,0.524940,0.122158,-0.842327
-0.476326,0.214972,0.573129,-0.236478,-0.924382,-0.299325
-0.027710,0.094260,0.525645,-0.341436,-0.754900,0.559954
0.188813,0.227377,-0.926914,-0.197038,0.156111,0.967887
0.268512,0.165351,0.823413,-0.083506,0.677940,0.730359
-0.058899,0.470322,-0.951599,-0.249334,0.146870,0.957215
-0.271401,0.180795,0.895173,-0.015050,-0.994686,-0.101844
0.979019,-0.033994,0.558270,-0.088041,0.603878,0.792199
-0.335225,-0.074373,-0.701807,0.980061,-0.197350,0.023084
-0.448898,0.402884,0.671546,0.982253,-0.183857,-0.037101
0.381055,0.810020,0.695993,0.981735,0.140174,0.128636
-0.174276,0.549867,0.274528,0.580740,-0.148032,-0.800517
-0.320585,0.036001,0.511280,0.928521,-0.245469,-0.278557
-0.125404,0.373937,-0.953299,-0.188690,0.064875,0.979892
-0.250678,0.014838,0.957515,0.620203,0.246259,0.744785
-0.241087,0.264048,0.646946,0.607525,0.792059,-0.059622
0.562262,-0.345902,0.853250,-0.631904,-0.278819,-0.723158
0.491688,-0.144550,0.361419,0.906826,-0.096951,0.410205
0.459930,0.370956,0.677496,0.838840,-0.243499,0.486884
0.351257,-0.163283,-0.895905,0.190094,-0.078230,-0.978644
-0.152829,0.488870,0.824858,0.852759,-0.503707,0.138136
0.316356,0.219593,0.397545,0.776879,-0.466209,0.423212
-0.280784,-0.158417,0.813910,0.449159,0.838870,0.307497
0.286558,-0.347666,0.868244,0.429793,0.816458,0.385584
-0.366826,0.245865,-0.964825,0.338567,-0.096125,-0.936020
-0.551437,0.373328,-0.737934,0.954317,-0.163431,-0.250141
0.617836,-0.236136,0.828480,-0.311626,-0.771863,-0.554181
0.592937,0.112077,0.477397,-0.711291,-0.369623,-0.597866
-0.108907,-0.312334,0.845922,-0.712760,0.275147,0.645188
-0.074367,0.539104,0.838357,0.686381,0.706402,-0.172853
-0.304345,-0.007481,-0.683514,0.934758,-0.351723,-0.050174
0.210103,-0.093165,0.259023,0.926412,0.086283,0.366491
-0.304087,-0.364082,-0.925367,0.244385,-0.153893,-0.957389
0.407294,-0.195694,0.618197,-0.193772,0.975118,-0.107691
-0.074726,0.602592,0.614610,-0.373121,0.721987,0.582680
-0.276763,-0.331122,0.658795,0.018872,0.205195,0.978539
-0.127673,0.646316,0.634178,0.162508,0.456323,0.874849
0.484520,0.316042,0.521633,0.937919,-0.193861,0.287622
-0.027710,-0.769945,0.507115,0.029753,0.331523,0.942978
0.126899,-0.571028,0.450791,0.023460,0.144955,0.989160
0.437866,-0.122414,0.841094,0.750263,0.031288,-0.660399
0.238406,-0.243979,-0.901549,0.126116,-0.171625,-0.977057
-0.085915,0.657930,0.865609,0.757241,-0.652534,-0.028034
-0.568967,0.642604,0.771255,0.834463,0.243467,0.494363
-0.281970,0.306432,-0.760817,0.296288,-0.229292,0.927167
-0.522930,0.352468,-0.983101,-0.215282,0.181111,0.959610
-0.289393,-0.074069,-0.423131,-0.432362,0.410556,-0.802812
-0.091790,-0.533629,-0.915285,-0.125770,0.164989,0.978244
-0.161076,0.873936,0.850649,0.371900,0.910093,0.182818
0.552108,-0.220811,0.477040,0.374741,-0.816034,-0.440065
0.025596,0.374664,0.626562,0.829546,-0.177389,0.529516
-0.144425,-0.159145,-0.919825,-0.043474,0.171055,0.984302
-0.595206,-0.139747,-0.963040,-0.362406,0.159974,0.918188
-0.332233,0.177087,0.342701,0.945237,0.317786,-0.074423
-0.602887,0.532475,0.394944,0.227681,-0.429959,0.873669
-0.175151,0.168513,-0.006664,-0.150172,-0.942284,0.299247
-0.575411,0.270373,0.871712,0.221163,-0.400281,0.889304
-0.544477,-0.473548,-0.945207,-0.272207,0.285578,0.918884
-0.139633,0.307895,-0.953452,-0.205678,0.148860,0.967232
-0.041476,0.393030,0.638241,0.806029,-0.513177,-0.294900
-0.331925,0.119496,0.662399,-0.494450,0.007511,-0.869173
-0.420286,0.420274,0.743187,0.329985,0.912564,-0.241529
0.628613,-0.104475,0.517434,-0.097549,-0.576454,0.811286
-0.251810,0.050473,0.936519,0.820755,0.347330,0.453568
0.286300,0.617977,0.812975,-0.223987,0.970715,-0.086849
-0.326409,-0.021285,-0.241087,0.403427,0.864281,-0.300440
-0.249595,0.180249,0.893694,0.363622,0.923950,0.118725
-0.550563,0.501886,0.388790,0.218106,-0.151024,0.964169
-0.204175,-0.645585,0.728158,0.069618,0.788836,0.610648
-0.648977,0.498724,0.773125,-0.396307,0.849222,-0.348945
-0.232015,0.236741,0.744479,-0.586123,0.807164,0.070330
0.137827,0.155073,0.825028,-0.067567,0.414413,0.907577
0.204691,-0.178850,-0.906054,0.229089,-0.204776,-0.951622
0.099678,0.602347,0.842930,-0.513674,0.715078,-0.474134
0.749865,0.072487,0.570170,-0.215202,-0.789019,0.575445
-0.338831,-0.248055,-0.937148,-0.313606,0.088735,0.945398
-0.221654,0.179091,0.885738,0.737280,0.673717,0.050239
0.181803,-0.363414,0.895785,-0.150615,-0.837737,-0.524892
-0.510762,0.326379,-0.977729,-0.225380,0.190836,0.955398
-0.211239,0.176356,0.936400,-0.572598,0.563848,-0.595153
-0.379560,-0.348879,0.846874,-0.417499,-0.309710,-0.854268
0.485190,-0.245197,0.864640,-0.572743,-0.611963,-0.545406
0.108545,-0.191804,0.507642,-0.183540,-0.756515,-0.627693
-0.136024,-0.084896,0.683344,-0.331267,0.848163,0.413379
0.338315,0.607395,0.265296,-0.321939,-0.789931,0.521885
-0.035649,0.202200,0.781116,0.728462,-0.232553,-0.644409
-0.559222,0.614997,0.703796,0.725528,-0.127788,0.676224
-0.529320,-0.163342,0.193791,0.085120,-0.462964,0.882281
-0.174380,-0.465460,-0.917989,0.189216,-0.134065,-0.972740
0.470291,-0.221479,0.850427,-0.003788,0.544159,0.838974
-0.723368,0.013865,0.741198,0.920886,-0.215529,0.324834
0.482871,-0.336779,0.879329,0.277904,-0.482798,-0.830467
-0.383736,0.166078,0.215569,0.989216,0.077039,-0.124565
0.285938,0.512164,-0.932779,0.141892,-0.020877,-0.989662
-0.279393,0.196061,0.750344,-0.737876,0.599705,0.309665
-0.256709,0.414194,-0.747539,0.186935,0.055982,0.980776
-0.432092,0.597544,-0.990871,0.295717,-0.169530,-0.940112
-0.396212,0.566166,0.616701,0.444184,0.864223,0.236260
0.039154,-0.533447,-0.902705,-0.228635,0.163636,0.959661
0.169273,0.521284,-0.028544,0.330624,-0.145629,0.932459
-0.382549,0.443869,0.889036,0.728270,-0.596763,0.336892
-0.151335,-0.184202,-0.924211,-0.216348,0.000699,0.976316
0.712075,0.088604,0.603424,0.116175,-0.899148,0.421943
-0.230983,-0.448371,0.666259,-0.350329,0.402032,0.845955
0.746772,0.150329,0.547015,0.415509,-0.232028,-0.879497
-0.266401,0.522015,0.949865,-0.383268,0.617710,-0.686687
0.168707,-0.192713,0.831387,0.665411,0.738108,-0.111468
-0.031524,-0.071274,0.597542,0.872229,0.153199,0.464486
-0.534270,0.282169,0.629537,-0.786921,0.616814,0.017211
-0.069314,0.770736,0.847163,0.903168,0.268562,-0.334906
-0.347340,0.632449,0.352510,-0.198824,0.858985,0.471820
-0.992115,0.194781,0.911936,0.041067,-0.749090,0.661194
0.295271,0.329664,0.796484,0.511300,0.857583,0.055896
0.653719,0.076563,0.572670,0.041192,0.875573,-0.481327
-0.533033,0.887072,0.580473,0.365411,-0.171490,-0.914913
-0.478438,0.171185,-0.967937,-0.272240,0.132568,0.953053
0.347028,0.895219,0.731524,0.106696,0.484641,0.868181
-0.170872,-0.227317,-0.929838,-0.221674,0.046931,0.973991
-0.482871,-0.366577,-0.943711,0.474737,-0.219575,-0.852298
-0.252534,0.189432,0.792098,0.986523,0.156019,-0.049302
-0.319244,-0.097664,-0.543156,0.933458,0.311886,0.177153
0.078385,-0.524996,-0.901073,-0.126637,0.267801,0.955116
-0.342853,0.434931,0.703371,0.992050,-0.022531,0.123810
0.103853,0.180004,0.795889,-0.592596,0.109793,0.797982
0.442092,-0.128434,0.839530,0.802457,0.039198,-0.595421
0.147414,-0.031440,0.222047,0.913976,-0.384458,0.129766
-0.491637,0.612198,0.679400,-0.529026,0.077577,-0.845052
-0.266143,0.324252,0.851702,0.836723,0.203597,0.508373
-0.559068,0.224764,0.923395,-0.396237,0.163800,-0.903419
0.444826,0.140415,0.069992,-0.617595,0.306560,-0.724291
-0.025750,0.421736,0.856854,-0.237339,0.962534,0.131146
0.174585,-0.052845,0.717176,-0.533748,0.680734,0.501711
0.393477,0.391631,0.686439,0.264697,0.096700,0.959471
0.338007,-0.467223,-0.035719,-0.591476,0.010548,-0.806253
0.215106,-0.237109,-0.902960,-0.178039,0.144582,0.973344
-0.402861,0.152638,0.001258,0.987474,-0.075640,0.138467
-0.181957,0.057162,-0.942742,-0.171816,0.240815,0.955242
-0.172936,-0.340064,0.663164,0.286788,0.538059,0.792619
-0.705118,0.679213,0.840618,0.789032,0.039461,0.613084
0.003428,-0.498843,0.541558,0.555818,0.488983,-0.672282
-0.311664,0.171430,0.345574,-0.544852,-0.824462,-0.152968
0.360124,0.793054,0.297615,0.110246,0.944065,0.310784
0.405438,0.564826,0.585080,0.025301,0.183771,0.982643
-0.366260,-0.249695,-0.942045,-0.317733,0.094582,0.943451
0.422913,-0.139079,0.824723,-0.637813,0.329888,0.695966
0.315169,0.121382,0.551147,0.127214,-0.613963,0.779016
-0.599435,0.516481,-0.816545,0.870483,-0.289515,-0.398046
0.106792,-0.047070,-0.918431,-0.156444,0.125848,0.979636
-0.155098,0.275358,-0.950477,0.197355,-0.179629,-0.963735
-0.225263,0.889870,0.833444,-0.651055,0.752174,0.101794
-0.087306,-0.467041,-0.911358,-0.133643,0.135285,0.981752
0.775642,-0.072792,0.556553,-0.590069,-0.318326,0.741948
0.239385,0.054426,-0.917019,-0.077105,0.247362,0.965850
0.454826,0.704148,-0.060676,0.253463,0.029929,0.966882
0.031266,-0.252735,0.556910,0.868342,0.199703,0.453983
-0.392965,-0.018549,-0.332262,0.938041,0.137669,0.318004
-0.327749,0.534969,0.401863,0.846138,-0.203909,-0.492414
-0.399667,-0.250426,-0.941008,-0.214821,0.084697,0.972974
0.193917,0.075591,-0.919757,-0.051117,0.278380,0.959110
0.139837,0.555706,0.783972,0.931867,-0.191166,0.308348
0.321872,0.646435,0.829806,-0.263305,0.953900,-0.144030
-0.666145,0.416506,0.709713,-0.620740,0.508317,-0.596905
0.032452,0.557347,0.314972,-0.475662,0.841343,-0.256688
-0.324606,0.798711,0.427653,0.266135,-0.304965,0.914422
0.344501,-0.200378,0.599344,0.447822,0.781724,-0.434007
-0.082048,0.221174,0.075466,0.399796,0.772848,-0.492818
0.147776,-0.486316,0.454939,-0.155796,-0.015696,0.987665
-0.335276,0.541717,0.608677,0.358563,0.893474,-0.270440
-0.557881,-0.146985,0.204808,-0.020945,-0.433556,0.900883
0.290683,0.510216,-0.932643,-0.162713,0.056604,0.985049
0.570770,-0.512832,0.538413,0.773182,0.058809,0.631451
0.150665,-0.274812,-0.907448,-0.213239,0.218276,0.952305
-0.517568,0.511555,0.799493,0.187724,-0.265411,0.945683
-0.309911,0.536364,-0.972884,-0.156476,0.186661,0.969883
-0.144271,0.604051,0.323983,-0.120096,-0.935595,0.332022
-0.362959,0.023048,0.883307,-0.640745,0.694666,-0.326934
0.228148,-0.733823,0.436919,0.359290,-0.616820,0.700317
-0.071221,0.227258,0.079631,-0.044682,-0.964637,0.259767
0.420078,0.400023,0.598613,-0.783689,-0.419527,-0.458070
0.070912,-0.608063,0.495537,0.075608,0.258857,0.962952
-0.467302,0.338787,0.388773,0.028625,-0.454386,0.890345
-0.773889,0.299621,0.801839,-0.439320,0.316540,-0.840714
-0.377137,0.197579,0.516244,0.113940,-0.986870,0.114482
-0.217991,0.783385,0.319172,0.646249,0.479085,-0.594003
0.354813,0.658780,0.595961,-0.712382,-0.013728,-0.701657
0.138497,-0.293055,-0.909284,-0.248299,0.241696,0.938046
0.129114,0.202505,0.593377,0.690403,-0.113554,0.714457
-0.309087,0.233765,0.396865,0.896355,-0.428926,-0.112117
-0.586389,-0.058138,0.510549,-0.518008,-0.264488,-0.813458
