-0.376537,-0.608891,0.525054,0.654077,-0.311581,-0.689276
-0.275785,-0.498701,0.423701,0.030126,0.022192,0.999300
-0.184879,-0.195404,0.142052,0.167704,0.232059,0.958136
0.006723,-0.629369,0.610363,-0.428247,0.569376,-0.701723
0.240908,0.191108,0.794468,-0.746281,0.322654,-0.582202
0.235226,-0.157344,0.914640,0.331536,0.716653,-0.613589
-0.202542,0.203495,0.646363,0.303703,-0.527992,0.793088
-0.311900,-0.656941,0.448464,-0.562366,-0.723009,0.401251
0.282649,-0.132417,0.881017,0.944427,0.025411,0.327738
-0.438191,0.519579,0.188816,0.316214,0.195391,0.928348
0.281693,-0.528722,0.446175,0.436379,0.345761,0.830676
0.480551,-0.398100,0.400817,0.432528,0.360287,0.826506
-0.649707,-0.606443,0.380541,-0.620614,-0.164639,0.766637
-0.232414,0.469132,0.360189,0.016703,-0.362934,0.931665
0.053581,0.613985,0.572176,-0.237569,-0.450739,0.860462
0.133801,0.555645,0.199082,0.363639,0.410112,0.836406
-0.006610,0.013137,0.467781,0.122613,0.927410,0.353379
0.160240,0.430868,0.619593,-0.623243,0.469028,-0.625764
-0.347173,-0.242607,0.601836,0.070225,-0.524080,0.848769
0.613648,-0.122976,0.585677,0.161808,-0.190238,0.968312
0.384355,0.639012,0.651490,-0.606125,-0.443960,0.659934
-0.295756,-0.871878,0.540446,-0.009665,0.638204,0.769806
0.013866,-0.395006,0.083577,-0.198414,0.033454,-0.979547
-0.478693,-0.227921,0.593846,0.328891,0.057426,0.942620
-0.128119,-0.667731,0.355344,0.921140,-0.030178,0.388061
-0.487864,-0.863936,0.539040,0.654715,0.227350,0.720874
0.265547,-0.542908,0.576791,0.222730,-0.174892,0.959064
0.322026,0.074876,0.796194,0.671819,-0.260643,0.693343
-0.400501,0.128122,0.416912,0.601820,0.787544,0.132619
0.239107,0.439410,0.616768,-0.026790,-0.982919,0.182079
0.695497,-0.383116,0.631265,0.584427,0.450937,0.674611
0.297669,-0.036115,-0.110692,0.123771,0.954865,-0.270025
0.022192,0.061687,0.850808,0.548505,0.754805,0.359739
0.255310,-0.165533,-0.141617,0.767528,-0.614940,0.180969
-0.065283,-0.198300,-0.884955,0.019335,0.294314,0.955513
-0.942678,0.076025,0.342598,0.939829,-0.260970,0.220490
-0.286192,0.460089,0.534859,-0.691514,0.074208,-0.718541
0.323713,-0.099001,-0.751552,-0.666211,0.622602,0.410523
-0.112931,-0.082718,0.731659,-0.144091,0.711451,0.687805
-0.481900,-0.038862,0.612485,0.185876,-0.850161,0.492623
-0.293731,-0.304194,0.461913,-0.545600,0.520230,0.657025
-0.014597,0.625625,0.568789,-0.396256,-0.852263,0.341508
-0.432397,0.334964,0.507808,-0.664264,-0.677618,0.315575
0.320958,-0.159938,-0.686774,0.886032,-0.309897,0.344834
0.056620,-0.805642,0.479836,0.117807,-0.553208,0.824671
-0.178467,-0.465233,0.603754,0.408056,0.281647,-0.868427
0.451523,-0.094007,-0.953350,-0.193664,0.353242,0.915267
0.192642,0.227622,0.819116,0.112533,0.037688,-0.992933
0.243327,-0.050950,-0.097269,-0.026822,0.913245,0.406527
-0.410908,0.529371,0.555327,0.088194,-0.149133,0.984876
-0.484151,-0.020829,0.627174,0.151138,-0.374313,0.914903
0.335078,-0.592208,0.662446,0.000205,0.064454,0.997921
-0.480101,0.514387,0.381730,0.376151,-0.113935,0.919527
-0.297444,0.137713,0.396637,0.761840,0.611656,-0.213252
0.026523,0.092906,0.774563,0.072995,-0.914642,0.397620
0.371193,-0.048200,-0.967963,-0.067678,0.031975,0.997195
0.299299,0.456644,0.458435,0.805944,-0.032131,-0.591120
0.332432,-0.083666,0.445702,0.952816,-0.209319,0.219834
-0.564987,-0.698102,0.393760,0.895198,0.387261,0.220568
-0.553569,-0.071876,0.603690,-0.751587,0.501003,-0.429084
-0.270498,0.340510,0.659569,0.899936,0.368057,-0.233772
0.529492,0.443108,0.736019,0.017960,-0.970082,0.242113
0.253227,-0.080818,0.874075,0.752076,0.658944,-0.013200
0.210024,-0.129271,-0.706960,0.990555,-0.135754,0.019297
0.285349,-0.048850,0.344477,0.886575,-0.054834,-0.459324
-0.105504,-0.680868,0.307237,-0.536143,0.353206,0.766679
-0.342785,-0.630668,0.105502,-0.624918,-0.107874,0.773202
-0.565607,-0.844556,0.557948,0.610493,0.358927,0.706024
0.605322,-0.228571,0.634256,0.651017,0.570525,-0.500678
0.153545,-0.150548,-0.857494,0.952913,-0.302714,-0.017900
-0.155796,-0.092257,0.327717,-0.158011,0.140640,0.977370
-0.052795,0.262536,0.585434,-0.217958,0.596779,0.772237
-0.311113,-0.669779,0.107240,-0.143990,0.317942,0.937112
0.287487,-0.097452,0.948377,0.729140,-0.643634,0.232572
0.090316,-0.328321,0.711499,-0.159816,0.443278,0.882022
-0.118781,0.428371,0.037515,0.973386,0.105812,-0.203280
0.834051,-0.140759,0.579949,0.279070,-0.095275,0.955533
0.707310,0.458492,0.676534,0.063077,-0.759966,0.646894
0.146627,-0.128720,0.084651,-0.690512,0.672104,-0.267338
0.352179,-0.199849,0.126749,-0.523004,-0.740551,0.421961
0.020336,-0.319779,0.097844,-0.654840,0.513426,-0.554597
0.139257,-0.496153,0.336512,0.351538,-0.172272,0.920187
0.348410,-0.040310,-0.963360,-0.045741,0.240117,0.969666
0.066239,-0.417033,0.717661,0.969714,0.196031,0.145692
0.345315,0.022777,0.919498,0.460697,0.563155,-0.686013
-0.310326,-0.011088,-0.070409,-0.003117,-0.096005,0.995376
-0.283549,0.668130,0.171123,-0.507347,0.447336,0.736539
-0.637555,-0.042606,0.532891,-0.710559,0.176877,-0.681044
0.168453,0.283566,0.767673,0.162385,-0.576598,0.800728
0.580345,-0.317532,0.681047,-0.547259,-0.825723,-0.136706
-0.381882,-0.304843,0.381372,-0.066757,-0.662799,0.745816
0.380644,0.509939,0.187615,0.279776,-0.650492,0.706106
-0.173627,0.272728,0.521589,-0.126479,-0.424423,0.896587
0.102635,-0.787810,0.323818,-0.316780,0.129806,0.939575
0.111354,-0.459239,0.597655,-0.061660,-0.285596,0.956364
-0.027312,-0.067431,0.870816,0.092476,-0.213112,-0.972642
0.048182,-0.063386,0.943558,-0.175108,0.492929,0.852266
-0.066577,0.033618,0.690494,0.936330,0.250952,-0.245579
0.356060,-0.051148,0.363973,0.977354,0.123898,-0.171548
-0.285574,-0.188261,0.765320,0.882978,0.175316,0.435446
0.136163,-0.382216,0.746515,0.237619,0.774389,-0.586394
0.404383,0.243857,0.561016,-0.073650,-0.394276,-0.916036
0.409050,-0.171728,0.877514,-0.652837,-0.215970,-0.726059
-0.130762,0.695605,0.412975,0.367378,0.899214,0.237586
-0.567463,-0.439060,0.389912,0.668009,-0.555528,-0.495130
0.350604,-0.131418,0.283931,-0.501024,0.610081,-0.613822
0.525778,0.155295,0.723235,0.579851,0.038133,0.813830
-0.461818,0.089211,0.593232,-0.687168,0.117280,-0.716969
0.375524,0.456693,0.543962,0.487336,-0.817461,-0.307021
0.388012,0.405243,0.544818,0.300649,0.520800,0.798985
0.115011,-0.752198,0.473687,0.513089,-0.598666,0.615093
0.119456,0.114836,0.209067,0.808485,0.252138,-0.531769
0.368043,-0.095955,-0.091171,0.811531,-0.581178,0.060417
-0.466374,0.370829,0.534552,-0.683995,0.045166,-0.728087
0.121536,-0.054895,-0.088524,0.001057,0.325968,0.945380
0.486906,0.787112,0.215523,0.489473,-0.256032,-0.833585
0.495682,0.159091,0.513535,0.769117,-0.637282,0.048280
-0.428347,0.506994,0.553512,0.405401,-0.061679,-0.912056
0.418728,0.259741,0.642387,-0.305388,-0.049141,0.950959
-0.502771,0.061489,0.624183,0.602009,0.797109,0.046926
0.352179,-0.192407,0.754313,-0.157916,-0.143033,-0.977038
0.605772,0.428422,0.729652,0.422812,0.832498,-0.358019
-0.417095,-0.588760,0.095095,0.953926,-0.117851,-0.275929
-0.482632,-0.858290,0.440205,-0.330987,0.937720,0.105492
-0.058476,-0.447553,0.510876,0.644622,-0.390740,0.657103
-0.085928,-0.023628,0.051859,-0.420388,-0.327931,-0.846011
-0.304812,-0.352997,0.594907,0.343977,0.710514,0.613881
-0.358592,0.582916,0.367757,0.223337,-0.046200,0.973646
-0.917195,0.063087,0.322514,0.074819,-0.409652,0.909168
0.253452,0.721278,0.196487,0.465885,-0.004793,-0.884832
-0.487694,0.454446,0.540817,0.994567,-0.079870,0.066759
-0.149157,-0.354595,-0.866379,-0.197329,-0.528257,-0.825836
0.791241,0.323227,0.533325,0.289959,0.094769,0.952335
0.152532,-0.011637,0.802215,0.400236,-0.099797,-0.910962
0.353023,-0.090059,0.499895,0.923191,-0.383345,-0.027663
0.138525,-0.390110,0.095619,-0.402407,-0.058376,-0.913598
-0.217507,0.629969,0.422614,-0.405221,0.470151,0.784063
-0.322532,0.466083,0.533172,-0.547785,0.152159,-0.822666
0.186735,-0.131119,0.913540,0.235704,-0.847965,0.474763
-0.267066,-0.685313,0.461810,0.632081,0.488769,-0.601314
0.047619,0.362936,0.622751,-0.544440,0.623144,-0.561495
0.671027,-0.166234,0.734293,-0.259973,-0.095036,0.960928
0.523809,0.242256,0.540114,-0.430502,0.271896,-0.860663
0.184091,0.182017,0.882296,-0.664179,0.334320,-0.668653
0.189267,0.593156,0.622380,0.038798,-0.214896,0.975866
-0.497088,0.010588,0.318781,0.067159,0.181509,0.981093
0.219531,-0.040859,0.954258,0.308645,0.866721,-0.391834
0.071808,-0.454044,0.728962,0.933535,0.190198,0.303870
-0.415633,-0.497503,0.425452,-0.002481,0.094989,0.995475
0.102579,0.710989,0.428968,0.151153,-0.090881,0.984324
0.210530,0.479769,0.609046,0.939707,-0.341160,-0.023670
0.079121,0.737711,0.157495,-0.150084,0.054747,0.987156
0.159171,0.108491,0.171673,0.513226,-0.538187,0.668546
0.165921,-0.841059,0.307799,0.223126,0.402582,0.887774
-0.293394,-0.553996,0.528646,0.983087,0.125302,0.133567
0.969567,-0.283865,0.700146,-0.705437,0.547491,0.450125
0.404944,0.794106,0.198315,0.259804,-0.366470,-0.893421
-0.244283,-0.987610,0.473278,0.821393,0.457163,0.341049
0.306163,-0.099150,0.861662,0.360001,0.449797,0.817363
0.158553,0.260640,0.581611,-0.530338,0.216077,0.819788
-0.481337,0.552447,0.566909,-0.782805,-0.115809,-0.611395
0.116474,0.141707,0.014593,0.592767,0.530631,0.605854
-0.123281,0.936962,0.378317,0.215461,-0.465500,0.858421
0.637612,-0.114385,0.722736,0.171347,0.720642,0.671800
-0.515485,-0.156243,0.406621,-0.329869,0.054120,0.942474
0.274772,-0.189310,-0.088754,-0.408064,0.107061,-0.906654
-0.537423,0.034716,0.640278,0.744780,0.167084,0.646054
-0.259585,-0.382817,0.560223,0.927407,0.369445,0.058532
-0.375075,0.180319,0.494142,-0.384682,0.594403,0.706190
-0.491971,-0.358241,0.422294,-0.752113,0.581956,-0.309280
0.165190,-0.350650,0.770306,-0.519331,0.656012,-0.547671
0.271679,0.781118,0.186081,-0.260125,0.431084,0.864003
0.626474,-0.479918,0.733411,-0.027212,0.761854,0.647177
-0.442354,-0.479668,0.149518,-0.244065,0.759786,0.602625
-0.243609,-0.205044,0.136452,-0.196614,-0.163671,0.966724
0.043399,-0.497903,0.717111,0.708499,0.682825,-0.178268
-0.278824,-0.314934,0.567076,0.739193,0.026153,0.672985
-0.986275,-0.047151,0.344924,0.839464,0.439385,0.319751
-0.643688,0.063538,0.539372,-0.796506,0.157520,-0.583751
-0.600373,-0.429121,0.412668,-0.252291,0.230778,-0.939729
-0.453042,0.541209,0.550239,-0.158441,0.110962,0.981114
-0.184654,-0.640359,0.108647,0.141325,0.308119,0.940792
-0.206368,0.804194,0.379365,0.817423,-0.009712,-0.575957
-0.234383,-0.654795,0.535153,-0.083801,0.173245,-0.981307
0.144151,-0.250101,0.748573,0.019638,-0.633275,0.773678
-0.026580,0.264637,0.751437,0.621154,-0.385095,0.682546
-0.328271,0.102049,0.389771,-0.706789,-0.699391,0.106310
0.068771,-0.817633,0.322258,-0.262319,-0.409764,0.873660
0.081372,-0.625823,0.326247,-0.086833,-0.321971,0.942759
-0.324783,0.367034,0.313079,-0.524361,-0.117869,-0.843299
0.440048,0.072029,0.863912,-0.064618,-0.703288,0.707962
0.100498,0.359589,0.178691,-0.752278,0.222495,-0.620141
0.584395,0.063785,0.631968,0.649082,0.594522,-0.474590
0.289567,0.227574,0.541111,-0.293390,-0.358837,0.886092
0.721655,0.487061,0.687222,-0.050801,-0.845411,0.531695
0.031700,0.626125,0.361774,-0.179812,-0.820704,0.542322
-0.149720,0.177322,0.712279,0.923186,0.117324,-0.366008
-0.204625,-0.117933,0.677390,0.496060,-0.511233,0.701830
-0.429471,-0.548599,0.422218,-0.265291,0.360680,0.894165
0.044918,-0.766283,0.237933,0.094046,0.795374,0.598778
0.608415,-0.405393,0.695723,0.491168,0.759019,0.427369
-0.361743,0.876524,0.388173,0.367530,-0.257858,0.893550
0.833377,-0.056093,0.554803,0.498127,0.204783,-0.842575
0.090709,0.819730,0.580972,0.906477,0.221664,-0.359395
0.177961,-0.098202,0.894581,-0.181968,0.349992,0.918909
0.659888,-0.160938,0.554176,-0.674460,-0.589788,0.444133
0.229207,0.669731,0.576242,-0.512268,-0.274597,0.813743
-0.521054,-0.826023,0.482521,0.743615,-0.213978,0.633443
0.413495,-0.559691,0.453245,-0.421186,0.579376,0.697800
-0.016285,-0.256192,0.705286,0.933392,-0.017805,-0.358417
-0.401739,-0.019481,0.513088,-0.095294,-0.366325,0.925595
0.429360,0.480119,0.536700,-0.563603,0.819372,0.104791
0.054594,0.690260,0.163337,-0.209209,0.283939,0.935740
0.266841,-0.081718,-0.351316,0.158936,0.810544,-0.563699
0.243045,-0.772326,0.331769,0.447308,0.641750,0.622955
0.511040,-0.542606,0.400932,0.580495,0.169337,0.796461
0.075296,0.301200,0.585510,0.621079,-0.219524,-0.752377
0.396956,-0.109491,0.790083,-0.095345,0.207825,-0.973508
0.589458,0.023127,0.646095,-0.640976,0.027856,-0.767055
0.454223,-0.040011,0.878780,-0.518599,0.679440,0.519054
-0.368154,0.664084,0.356264,-0.139201,0.155378,0.977998
0.544117,0.031368,0.642643,-0.541395,-0.312321,-0.780607
0.076084,0.733467,0.602219,0.306521,0.547981,-0.778307
-0.167554,-0.516582,0.612715,-0.643724,0.730784,0.227099
-0.581864,-0.809989,0.477484,0.925915,0.376915,0.024811
-0.285518,0.131119,0.623505,-0.560570,-0.767818,0.310189
-0.177284,-0.545304,0.512078,0.117631,0.913172,0.390231
-0.154501,-0.446154,0.237166,0.269894,0.450664,-0.850917
-0.027705,0.647451,0.095428,-0.784007,0.472121,0.403031
-0.417377,0.595056,0.376348,0.028593,0.573728,0.818547
0.082271,-0.351949,0.869166,0.339874,0.429439,0.836700
0.040700,0.016585,0.143586,0.134869,-0.586450,0.798678
-0.287373,0.507442,0.293506,-0.206566,0.840816,0.500359
0.218743,0.039362,0.899069,-0.226176,0.968313,-0.105902
0.209631,-0.221178,-0.783308,0.993140,-0.087972,0.077032
0.301887,-0.155194,0.906957,0.770900,0.584848,0.252320
0.340252,-0.122427,-0.696592,0.916140,0.295751,0.270589
0.450736,-0.571279,0.617151,-0.057495,0.472981,0.879195
-0.166484,-0.670978,0.501608,0.791131,-0.409756,0.454105
-0.566170,-0.453346,0.412617,0.291090,-0.278710,-0.915198
0.294630,-0.266884,0.898775,-0.627467,0.746322,-0.222011
-0.353360,0.124027,0.600200,0.127894,0.229934,0.964766
0.260652,-0.132067,0.807853,0.425904,0.110043,0.898051
0.135995,0.096903,0.734664,-0.593456,0.480591,0.645633
0.493545,0.587513,0.510608,0.145793,0.012203,0.989240
0.277080,-0.045304,0.319778,0.905507,-0.412781,0.098335
-0.073440,0.735763,0.355305,0.960498,0.061166,0.271482
0.093523,0.696654,0.422179,-0.625820,0.160111,-0.763357
0.170815,-0.380369,0.617663,0.124725,-0.362485,0.923606
0.916856,-0.077474,0.658764,0.675864,0.212701,-0.705668
0.830170,-0.106394,0.643065,-0.141982,-0.160867,0.976710
-0.162771,0.367333,0.739944,-0.326808,0.944741,0.025713
-0.099880,-0.082916,-0.077121,0.141668,0.260259,0.955089
0.254184,-0.299450,0.641978,0.124187,0.912121,0.390657
-0.185949,-0.587711,0.636187,0.742326,0.084782,0.664654
-0.172503,-0.503896,0.233536,0.419530,0.284008,-0.862168
-0.591034,-0.299801,0.625857,0.863726,-0.108850,0.492066
0.321014,-0.384414,0.846602,0.015481,0.829280,0.558618
-0.619892,0.004195,-0.097115,0.371076,0.633566,-0.678893
-0.465586,0.492357,0.546736,0.134331,-0.349993,0.927071
0.694202,0.419779,0.554483,0.236842,0.390578,-0.889581
0.008015,0.245604,0.741695,0.173954,-0.911241,0.373337
0.149834,0.094656,0.151474,-0.216524,-0.399799,0.890661
0.326638,0.566733,0.345359,0.621309,0.331375,-0.710046
-0.213119,0.924325,0.392533,0.427471,-0.358374,0.829962
0.197087,-0.716083,0.593501,-0.809382,0.208115,-0.549170
-0.577645,0.042859,0.310676,-0.247291,0.451127,0.857514
0.293619,0.558791,0.632454,0.580284,-0.215167,-0.785477
-0.315895,-0.882667,0.454575,-0.132125,-0.354279,0.925759
0.485500,-0.491058,0.604917,-0.750995,0.010854,0.660219
-0.461761,0.633567,0.365098,0.082092,0.542087,0.836303
0.304081,0.661188,0.415532,0.390371,0.296923,0.871463
0.036987,-0.711986,0.487698,0.349071,0.383878,-0.854861
-0.220151,0.240061,0.425605,-0.389961,0.011631,0.920758
-0.187411,-0.130518,-0.137488,-0.400649,0.915937,-0.023216
-0.303125,-0.374274,0.125176,0.170553,-0.341146,0.924409
-0.500915,-0.645055,0.499281,-0.359708,0.762073,0.538381
-0.090373,0.176575,0.042885,-0.376661,0.464360,-0.801558
-0.041600,-0.255643,0.709965,0.942797,0.226359,-0.244737
-0.142802,0.002049,0.722097,-0.303762,0.691315,0.655601
-0.468568,0.233567,0.410392,-0.309373,-0.702462,0.640964
-0.654433,0.223677,0.261750,-0.761068,-0.252226,0.597626
-0.542261,-0.646204,0.416465,-0.082345,-0.938392,0.335618
-0.171603,0.126625,0.614390,0.360027,-0.761580,-0.538866
-0.262678,-0.026972,0.583784,-0.503869,0.188141,-0.843042
-0.051782,-0.647353,0.311327,-0.533701,0.214747,0.817953
0.108654,-0.324425,0.624349,-0.778918,0.475233,0.409194
0.029730,0.450748,0.116905,-0.262546,0.480521,0.836761
0.295418,-0.044554,-0.024041,-0.615661,-0.785624,-0.061294
-0.313195,-0.824324,0.537007,0.234896,0.316146,0.919171
-0.334177,0.825824,0.390666,0.329618,0.147014,0.932598
0.767166,-0.159341,0.743945,0.293064,-0.324476,-0.899349
-0.123562,-0.124326,0.438543,-0.238634,-0.378398,0.894354
-0.147469,0.282767,0.715641,0.133472,-0.160339,0.977996
-0.249289,-0.612836,0.660848,0.928534,-0.152858,0.338319
-0.532136,-0.084815,-0.102804,0.838674,0.325495,-0.436668
0.219420,-0.087611,-0.291422,0.295017,-0.949256,0.108987
-0.277191,-0.082766,0.413282,-0.438092,0.388124,0.810824
-0.063427,0.741756,0.586149,0.912908,0.007938,0.408088
-0.664163,-0.499649,0.375210,0.592940,-0.698949,0.399866
0.373667,-0.107943,-0.267005,0.626001,0.756948,-0.187489
-0.369955,-0.602946,0.102727,0.695932,0.374610,-0.612655
0.632661,-0.225824,0.635305,-0.172040,-0.534820,0.827266
0.384580,-0.433517,0.658687,0.703051,0.047665,0.709541
-0.204230,0.008241,0.677148,0.847316,0.073693,0.525951
0.308300,-0.036063,0.742053,0.007324,0.111288,0.993761
-0.210980,-0.233665,0.699162,0.981576,0.175027,-0.076637
0.086321,-0.040508,0.932729,-0.232500,-0.972522,-0.011999
0.555481,-0.369878,0.725242,0.693796,0.710938,0.114957
0.546930,0.515835,0.684319,0.412006,0.549856,-0.726574
-0.204961,-0.652496,0.536457,0.131320,-0.217568,0.967171
-0.027761,-0.163636,-0.082119,0.241871,0.345146,0.906848
0.446685,-0.078620,0.588975,0.357516,-0.713036,0.603127
0.235058,-0.008692,0.924905,-0.378215,0.376410,0.845735
0.267009,-0.709440,0.690469,0.436731,-0.855573,0.277958
-0.414227,-0.138460,0.419610,0.316021,-0.055944,-0.947101
-0.140158,0.115284,0.583657,0.768122,-0.620957,-0.156208
-0.374062,-0.299002,0.587326,0.294900,0.182212,0.937994
0.041657,-0.209489,0.825675,-0.394412,-0.809456,0.434995
0.184316,0.168782,0.149352,0.180958,-0.220217,-0.958519
0.093241,-0.250549,0.807917,-0.368395,0.921217,-0.125074
0.671251,-0.177621,0.518726,0.458834,-0.828182,0.321848
0.001828,0.204894,0.604802,-0.099378,0.739492,0.665790
-0.503221,-0.252198,0.596006,0.208620,0.337826,0.917797
0.076027,0.037612,0.844045,0.842860,0.519161,0.141628
-0.541473,-0.352348,0.606975,-0.611120,-0.310937,0.727908
0.446067,0.415383,0.534898,0.233309,0.362786,0.902194
0.718336,-0.281118,0.637964,-0.379296,0.925133,-0.016214
-0.184992,0.435364,0.574273,-0.633275,-0.284912,-0.719575
0.141451,0.331019,0.754377,0.570286,0.067442,0.818673
-0.501983,-0.683816,0.537007,-0.576302,0.618963,-0.533630
-0.226170,-0.358491,0.593079,0.446410,0.517618,0.729925
-0.228814,0.428121,0.436996,-0.508008,0.309043,0.804003
-0.398589,0.257341,0.527086,0.161529,0.138037,0.977166
0.284280,-0.063188,0.749519,-0.453534,-0.589552,-0.668382
-0.548956,0.007893,-0.083104,-0.484247,-0.197431,0.852365
0.282086,0.210388,0.750120,0.750380,0.407384,0.520546
0.748208,0.508042,0.684345,-0.131525,-0.684647,0.716910
0.451693,0.763637,0.197510,-0.465876,0.638899,0.612183
-0.089303,0.653597,0.582787,0.562276,0.264236,-0.783597
-0.529435,0.048203,0.319036,-0.091854,0.315551,0.944452
0.020673,-0.637661,0.681660,0.246906,0.886871,0.390508
-0.474362,0.469781,0.530104,0.831091,-0.166800,0.530534
0.058421,0.391058,0.134100,0.925241,0.231131,-0.300846
0.709674,-0.337361,0.626612,0.992949,0.047177,-0.108753
0.323883,-0.222626,0.917235,0.121161,-0.848446,0.515227
0.491183,0.156194,0.728642,-0.145462,-0.829929,0.538571
0.325401,-0.269231,0.870330,0.149225,-0.986975,-0.060107
0.375861,0.055294,0.935580,-0.454362,0.735622,-0.502410
0.335021,0.494805,0.153327,-0.548270,0.740828,-0.388038
-0.258065,0.436114,0.407912,0.593497,0.196047,-0.780594
0.004754,-0.844556,0.317924,-0.176041,0.380100,-0.908038
0.351954,0.125125,0.786542,0.719544,-0.385752,0.577454
0.439878,-0.000948,0.745121,0.491229,0.395328,0.776151
-0.033499,0.240909,0.720115,0.229311,-0.961207,-0.153289
0.038336,0.317181,0.613418,0.560484,-0.581788,0.589391
0.535172,-0.071379,0.561080,0.227544,-0.080713,0.970417
-0.028886,0.841507,0.615310,0.522442,-0.775915,0.353567
-0.393863,0.452498,0.527266,0.057146,-0.515977,0.854694
0.070795,0.178822,0.449013,0.798816,0.588254,0.125895
0.225775,-0.137512,0.984058,-0.288495,-0.928344,-0.234411
0.695892,-0.452846,0.638936,0.824945,0.366322,0.430435
-0.441061,-0.595056,0.479683,-0.351880,0.291225,-0.889589
0.293899,0.328321,0.134471,0.527241,0.004397,0.849704
-0.339803,0.684416,0.371413,-0.255331,-0.657536,0.708838
-0.331365,-0.573675,0.519595,-0.639318,0.355856,0.681645
-0.129974,-0.226025,0.772326,0.120739,0.726954,0.675989
-0.956122,-0.015783,0.360035,0.892382,0.196267,0.406365
0.060839,-0.291359,0.387330,-0.570606,0.801621,-0.178361
0.254858,-0.049950,-0.104620,-0.295790,0.951595,0.083524
0.360055,0.061639,0.926631,-0.652197,0.648869,0.391930
0.337440,0.396752,0.546774,-0.106350,0.374223,0.921220
-0.110342,-0.620479,0.531548,-0.614642,-0.010548,-0.788736
0.372936,-0.236662,0.867568,0.339599,-0.515550,-0.786690
0.245015,-0.646253,0.587275,-0.512863,-0.132401,-0.848199
0.744438,-0.297801,0.657191,0.087147,-0.922476,0.376091
-0.785111,-0.381268,0.325633,-0.726468,0.679081,0.105324
-0.507497,-0.455544,0.591928,0.804409,0.097385,0.586040
0.096223,-0.471778,0.489130,-0.456752,0.344669,-0.820110
-0.254972,0.746503,0.385374,-0.583277,-0.032879,0.811608
0.826457,0.058142,0.571985,0.177448,-0.427916,0.886228
0.284505,-0.311889,0.853199,0.475898,-0.644662,0.598274
-0.004304,0.418731,0.535818,-0.043573,0.674397,-0.737082
-0.684472,-0.208342,0.646504,0.714606,0.238811,0.657501
0.272635,-0.330370,0.757803,-0.766713,-0.134619,0.627717
0.323995,-0.131567,0.929470,0.059980,-0.850609,0.522367
0.253620,-0.050648,0.538464,0.855718,-0.485137,-0.179967
0.434647,0.257393,0.672174,0.104058,0.823955,0.557019
-0.110736,-0.413786,0.367540,0.006221,-0.315191,0.949008
0.566113,0.935215,0.202662,0.404344,-0.524798,-0.749061
-0.542543,0.169880,0.305881,-0.619038,-0.037592,0.784461
0.278935,-0.682368,0.668007,0.790359,-0.583388,-0.187058
0.155121,-0.054996,0.965636,0.772647,0.586822,0.242191
-0.446630,-0.755293,0.475438,-0.575491,-0.510199,-0.639146
-0.005035,-0.502997,0.634832,-0.558158,0.829511,-0.019280
-0.498889,-0.664734,0.550060,-0.205533,0.644622,-0.736355
-0.646331,0.239012,0.271914,0.769675,0.283154,-0.572210
-0.298568,0.049950,0.597732,0.305093,-0.485042,0.819544
0.381037,0.273725,0.559111,-0.241050,0.087494,0.966561
-0.121593,0.523777,0.431358,0.455419,-0.309682,-0.834680
-0.641100,-0.600001,0.376629,0.793863,0.509047,0.332646
-0.085928,0.765585,0.597016,0.886882,-0.448123,0.112370
0.711361,0.480970,0.710885,-0.498440,0.639669,-0.585133
0.542374,-0.087062,0.755170,-0.398867,0.695451,0.597707
-0.023712,0.464934,0.319087,0.154857,-0.381036,0.911499
-0.088628,-0.552197,0.484771,0.357042,0.151559,0.921711
-0.410345,-0.381418,0.562665,0.787003,-0.591749,-0.174524
0.282761,-0.180218,0.904412,-0.044647,0.922466,0.383488
-0.159396,0.593357,0.195413,0.161475,0.713406,0.681893
0.226620,-0.775225,0.332358,0.053446,0.828798,0.556989
0.581301,0.256692,0.623607,-0.652177,0.684195,-0.326409
0.148482,0.011640,0.967081,0.918592,0.359145,0.164935
-0.351447,0.347903,0.696081,0.244064,-0.726169,0.642737
0.030237,-0.507143,0.618174,0.806571,-0.180412,-0.562934
0.261554,-0.066483,-0.478021,0.973576,-0.227817,-0.015794
0.328271,-0.301197,0.713353,-0.705107,0.442018,-0.554476
0.193766,0.183867,0.258861,-0.426618,-0.741803,0.517422
-0.140438,0.182767,0.698715,0.913238,-0.092833,0.396709
0.091161,0.415036,0.231145,-0.457617,-0.237548,-0.856830
0.330014,-0.023225,-0.404627,0.984394,0.156789,-0.079913
-0.019942,-0.731467,0.476065,-0.231871,-0.312556,0.921165
0.576913,-0.231418,0.789367,-0.451759,0.754334,0.476334
-0.244172,-0.082766,0.125995,0.842602,-0.481431,0.241342
-0.325403,0.298450,0.680638,0.147154,-0.379553,0.913392
-0.458611,0.414834,0.535869,0.862337,-0.115313,0.493030
-0.315276,0.364485,0.296792,-0.442532,0.338005,0.830613
0.240120,-0.325724,0.301688,-0.627647,0.680542,-0.378050
0.049981,-0.129619,0.848366,0.816801,-0.576429,-0.023774
-0.313027,0.937212,0.397480,0.073290,-0.336629,0.938781
-0.666527,-0.524923,0.374047,0.851941,0.493694,0.174539
-0.657583,0.228921,0.259104,0.790137,0.298697,-0.535223
0.306275,-0.037661,-0.238036,0.966412,-0.249222,0.062745
0.241639,-0.652298,0.327615,0.511044,0.208577,0.833864
-0.067083,-0.121826,-0.599049,-0.013440,-0.939096,0.343391
-0.675978,-0.777371,0.571000,0.475561,0.363279,0.801168
-0.057183,0.548752,0.519160,0.718766,0.630038,-0.293984
-0.266110,0.141408,0.625640,0.508653,0.770328,-0.384535
-0.066295,-0.078172,0.719860,0.336661,-0.143771,-0.930585
0.268529,-0.652896,0.681200,0.999983,0.005366,-0.002467
-0.035356,-0.688712,0.600749,-0.553034,0.529425,-0.643322
-0.423959,-0.154444,-0.097320,-0.451048,-0.341386,0.824628
-0.232977,-0.597601,0.651145,0.822937,-0.386456,0.416444
0.193880,0.019832,0.213209,-0.647755,-0.310652,0.695636
-0.537366,0.342007,0.400766,0.451068,-0.203954,0.868873
0.511715,0.135414,0.660362,0.970289,-0.218901,-0.103065
-0.127725,-0.790158,0.528237,-0.108903,0.500346,0.858949
-0.579502,-0.481668,0.393965,0.952563,-0.298863,0.057493
-0.104886,0.210339,0.718939,0.783448,0.557564,0.274465
0.648075,0.363336,0.651503,-0.186896,-0.672454,0.716154
0.266841,0.061389,0.525655,0.131507,-0.115710,0.984539
-0.404439,0.241957,0.418651,-0.750208,-0.029640,0.660537
0.211487,-0.493704,0.598192,-0.224042,-0.856735,0.464554
0.106798,-0.277920,0.644842,0.303041,-0.834774,-0.459695
0.126093,-0.728970,0.706168,0.898262,-0.337867,-0.281018
-0.615842,-0.684114,0.553780,-0.606454,-0.257440,-0.752289
-0.619161,0.246152,0.297482,0.781276,0.615526,0.103612
-0.226000,0.858442,0.188752,-0.097455,-0.670144,0.735805
-0.032599,-0.830818,0.312478,0.455733,0.070880,0.887290
-0.090373,-0.480168,0.085443,-0.286268,0.076786,-0.955068
0.465756,-0.199001,0.793765,-0.497409,0.161100,0.852426
0.074172,0.341507,0.153519,0.903461,-0.125258,-0.409962
0.143533,-0.177773,0.826173,-0.034389,0.505622,0.862069
0.559081,0.241458,0.720716,0.951545,0.149139,0.268923
-0.200012,-0.663786,0.288776,-0.249549,0.083061,0.964793
-0.263466,-0.714785,0.124180,0.032363,0.549748,0.834704
-0.020055,0.065584,0.787846,-0.683044,-0.600408,-0.415886
-0.524936,0.290359,0.280403,-0.480426,0.305424,0.822136
0.368886,-0.045404,-0.344093,-0.636085,-0.737353,0.227390
-0.215032,-0.707742,0.203160,0.940009,0.319712,0.119025
0.266278,-0.316782,0.848290,-0.595420,0.428453,-0.679634
0.252721,0.011539,0.863874,-0.417129,-0.114032,0.901665
0.103705,0.121579,0.325850,-0.497306,0.144750,0.855415
0.553962,0.123726,0.715833,0.820885,-0.039802,0.569705
0.376592,-0.157344,0.896755,0.628206,-0.198140,-0.752394
0.204455,0.505046,0.624477,0.956846,-0.057175,0.284915
0.175821,0.335815,0.434478,-0.357585,0.086338,0.929881
0.044187,-0.665984,0.237435,0.386303,-0.862180,-0.327745
0.229039,-0.067782,0.627698,0.406702,0.910099,-0.079457
-0.162264,0.197654,0.712279,0.976584,-0.144660,-0.159241
0.704441,-0.476723,0.642835,0.842147,0.445854,0.303319
-0.241190,-0.499451,0.076801,0.017733,-0.944698,0.327462
-0.666639,-0.014387,0.534450,0.788907,0.028432,0.613855
0.301044,-0.071379,-0.654852,0.989380,-0.128130,-0.068635
0.199899,0.283267,0.826953,0.816497,-0.345575,0.462505
0.028549,0.292456,0.033054,0.674630,-0.308586,0.670558
-0.252609,-0.604595,0.102472,0.187594,-0.123751,-0.974420
0.171940,0.740058,0.430374,0.220534,-0.144692,0.964587
-0.468230,-0.850299,0.435948,0.955566,-0.268511,-0.121636
-0.108204,0.270231,0.052447,-0.010289,-0.196579,0.980434
0.600146,-0.094007,0.759631,0.476380,0.056899,-0.877396
0.027818,0.494954,0.224714,0.184957,0.683582,0.706050
0.200743,-0.077071,0.991601,0.993898,-0.022283,0.108031
0.054876,-0.593906,0.688321,0.033867,0.433268,0.900629
-0.525892,0.089961,0.615847,0.783062,0.621859,-0.010245
0.008015,-0.110190,0.323549,-0.005628,-0.278854,0.960317
0.276742,0.087912,-0.570476,0.894010,0.403304,-0.195171
0.567519,0.519631,0.678362,0.352900,0.524791,-0.774633
0.242934,-0.085364,0.978893,-0.586734,-0.759217,-0.281662
-0.427954,-0.130119,0.592018,0.440705,-0.054262,0.896010
-0.926252,-0.053447,0.345934,0.433313,-0.820830,0.372126
0.242427,-0.282966,0.273141,0.794163,-0.541934,0.274977
0.170197,0.115933,0.217619,0.809886,0.235619,-0.537185
0.024611,0.184715,0.440832,0.020545,0.965271,0.260441
0.207269,-0.443008,-0.077479,0.513085,-0.480793,0.711043
0.097291,0.171828,0.264665,-0.538864,-0.059687,0.840276
-0.279274,0.274225,0.673006,-0.633355,0.310087,-0.709018
0.213231,0.188062,0.525629,-0.318276,-0.353568,0.879596
0.000027,0.069081,0.854132,-0.344303,-0.915681,-0.207322
0.734369,0.552846,0.695902,-0.428568,0.466461,-0.773785
0.733749,-0.379469,0.625563,0.796523,0.403484,0.450280
0.271511,-0.053096,-0.608036,0.929590,0.350397,-0.114387
-0.149609,-0.314636,0.788204,0.444962,0.756209,0.479747
0.127837,0.589961,0.409830,0.817756,-0.420520,-0.392987
0.921976,0.017731,0.553038,0.657852,0.742480,0.126305
0.210587,0.838510,0.415608,-0.513060,-0.583672,-0.629362
0.211543,-0.480269,0.772786,0.385865,-0.913838,0.126524
0.055945,0.292057,0.576446,0.300794,-0.589498,-0.749676
0.559418,0.472876,0.672379,-0.549634,-0.431849,0.715128
0.050376,-0.346952,0.780981,-0.120534,0.719053,0.684423
-0.023430,-0.813435,0.468714,0.030948,-0.472709,0.880675
-0.663713,-0.186364,0.644024,-0.723856,-0.217651,-0.654721
0.229320,-0.041658,0.910498,0.106947,-0.876329,0.469690
-0.429078,-0.510439,0.428086,-0.032076,0.161339,0.986378
-0.364443,-0.683416,0.504970,0.404023,-0.368720,-0.837144
0.449329,0.259841,0.514520,0.598446,-0.615862,0.512422
-0.680816,-0.654246,0.563087,0.772079,0.479349,0.417276
0.537085,0.224476,0.492799,0.834976,-0.536040,0.124406
-0.524654,-0.766033,0.537544,0.134951,-0.422391,0.896311
-0.515260,-0.078422,-0.072352,-0.317586,0.328879,0.889369
0.055720,0.147152,0.456978,-0.664784,-0.061649,-0.744487
-0.228982,0.581519,0.235530,-0.197918,-0.978443,-0.058973
-0.450512,0.096504,0.309448,-0.323435,0.076327,0.943167
0.033274,0.656743,0.572253,0.037961,-0.696401,0.716648
0.256546,0.389960,0.361825,-0.505938,0.372059,0.778203
-0.326864,0.035715,0.601133,-0.330611,0.203622,-0.921539
0.256884,0.147704,0.162379,0.912335,0.017385,-0.409075
-0.883555,-0.023326,0.331194,-0.609798,0.558101,0.562734
-0.610160,-0.517481,0.401955,0.998140,0.053755,-0.028763
0.212331,-0.254046,0.912850,0.333355,0.884139,0.327372
-0.419289,-0.623976,0.430655,-0.141569,0.465963,0.873405
0.201868,0.279121,0.815460,-0.704489,-0.484897,-0.518238
-0.086941,-0.346354,0.089700,-0.365135,0.388700,-0.845925
0.227013,-0.081218,-0.765768,-0.605645,0.795483,0.020027
0.544905,-0.072928,0.281975,0.188369,0.315021,0.930204
0.232639,0.339961,0.739471,0.992565,0.050990,0.110524
-0.279386,0.551447,0.529030,0.009398,-0.486631,0.873557
-0.069164,-0.488211,0.363883,-0.544853,0.033880,-0.837847
0.173741,0.081717,0.799620,0.214805,0.105234,-0.970971
0.371700,-0.229671,0.723874,-0.278416,0.813902,-0.509949
-0.207437,0.688410,0.412259,-0.446892,0.323432,0.834074
0.099092,-0.046554,0.895233,0.921610,-0.332418,0.200332
0.489888,0.807194,0.199951,-0.592403,0.134764,0.794290
0.042724,-0.528621,0.658419,0.788314,-0.376832,0.486372
-0.146007,0.403048,0.527764,-0.569312,-0.108940,0.814871
-0.303125,-0.626174,0.128590,0.321316,-0.265368,0.909030
-0.445899,0.118781,0.501978,-0.351347,0.726936,0.590016
0.018592,0.218431,0.308182,0.443008,0.211077,-0.871315
0.290131,0.104595,0.360457,-0.613802,0.716125,0.332284
-0.512165,-0.390859,0.591775,0.841836,-0.014747,0.539532
0.276630,-0.696602,0.568252,0.445236,0.058784,0.893482
-0.376817,0.169081,0.587952,-0.383187,-0.875921,-0.293138
0.263466,-0.356043,0.874842,0.903379,-0.398386,-0.158731
-0.075353,0.295654,0.438019,0.087321,0.064995,0.994058
0.414958,-0.513637,0.823054,0.945653,0.323509,-0.032906
-0.382218,0.235016,0.426731,0.763672,0.639564,-0.088105
0.094985,0.790109,0.060680,0.203300,-0.732855,-0.649301
-0.669677,0.004445,-0.110283,0.409508,0.684478,-0.603153
0.061176,-0.015384,0.659199,-0.173224,0.794813,0.581606
-0.218913,-0.752497,0.521666,0.227812,0.597119,0.769124
0.259923,-0.178721,0.369930,-0.549330,0.450349,0.703862
0.057463,-0.106894,0.747422,-0.327763,0.109185,0.938430
0.371754,-0.331718,0.775560,-0.043545,0.945792,0.321842
-0.302788,0.291008,0.663174,0.930275,-0.340148,-0.137435
0.280737,0.366832,0.150157,-0.682583,0.421176,-0.597237
0.406745,0.329721,0.701335,-0.052759,-0.343980,0.937494
0.357073,0.030319,0.918961,-0.203729,-0.757272,0.620511
0.093973,0.078272,0.147779,-0.275150,0.913514,-0.299642
0.092678,-0.818129,0.334441,0.112628,-0.109967,-0.987533
0.824319,-0.263436,0.643960,-0.582939,0.649120,0.488698
0.356678,-0.095803,-0.530065,0.806198,-0.563161,0.181366
-0.510421,0.078870,0.632978,0.846027,-0.468888,0.253737
-0.548786,0.056593,0.635535,-0.672628,-0.500028,-0.545475
0.138189,0.700550,0.417718,0.066145,-0.261595,0.962909
-0.222795,-0.114634,0.752447,-0.426534,-0.538692,-0.726553
0.086153,-0.109439,0.942931,-0.725519,0.017249,0.687986
-0.823531,0.038563,0.315955,0.526456,-0.746717,0.406519
-0.191686,-0.385863,0.371848,-0.252969,0.570588,-0.781304
0.796360,-0.212437,0.642924,0.947181,0.163765,-0.275734
0.256827,-0.172627,0.204912,-0.770327,0.357856,0.527764
0.364554,-0.043158,0.203199,0.983214,-0.128678,-0.129354
0.340759,0.823925,0.198366,-0.326692,0.232134,0.916180
0.641662,-0.445053,0.651285,0.587026,0.420557,0.691760
0.064832,-0.308691,0.312823,0.236559,0.342650,0.909193
0.488033,-0.554044,0.395473,0.580495,0.169337,0.796461
0.582257,0.003646,0.601695,-0.779281,-0.621239,-0.082359
0.194836,-0.255945,0.617944,-0.531563,0.800434,0.277033
0.291986,-0.039460,-0.536662,0.885994,-0.434384,-0.162252
0.675864,-0.170429,0.733948,-0.286487,-0.220026,0.932477
0.131832,-0.612787,0.339005,0.281819,0.089022,0.955329
0.125700,0.174575,-0.012573,-0.738989,-0.668651,-0.082469
-0.026187,-0.415185,0.627046,0.813710,-0.389865,0.431141
-0.482800,-0.364784,0.120702,0.730311,0.063725,-0.680136
-0.158383,0.545852,0.428533,0.536896,-0.102377,-0.837414
-0.094029,-0.311288,0.691773,-0.566216,-0.819401,-0.089341
-0.709560,-0.245406,0.316659,0.963913,-0.143333,0.224337
-0.066688,-0.143405,0.859604,0.880801,0.206789,-0.425944
0.106010,0.111939,0.313232,-0.543888,0.277867,0.791818
0.899193,-0.038712,0.563317,0.610094,-0.232233,-0.757531
-0.231907,0.695455,0.365980,0.901852,0.329195,-0.279812
0.517677,0.022179,0.722544,-0.473580,0.276207,-0.836320
0.185724,-0.654944,0.731161,-0.634582,0.596780,0.491081
0.267911,-0.157042,-0.586265,0.775717,0.628031,-0.061972
-0.681828,-0.331568,0.331859,-0.465239,0.764924,0.445471
0.127444,-0.788209,0.270508,0.687942,0.724193,-0.047761
0.111974,-0.153746,0.423598,-0.499945,0.852408,-0.153149
-0.178860,-0.399301,0.094315,-0.597378,0.261778,-0.758032
-0.875454,-0.080919,0.327998,-0.651186,0.267310,-0.710283
-0.422778,-0.841757,0.316275,0.941430,-0.293415,0.166183
0.247883,-0.071727,-0.647667,0.990711,-0.135727,-0.008365
0.228757,-0.120180,0.987203,0.511545,0.683989,0.520077
0.027761,0.316434,0.670679,-0.619159,-0.594604,-0.512922
0.279892,-0.372875,0.845222,-0.369910,0.488847,-0.790060
0.271454,-0.055145,-0.478264,0.973576,-0.227817,-0.015794
-0.253902,0.072626,0.609762,0.844138,-0.381612,-0.376568
-0.254297,0.162587,0.668160,-0.395971,-0.522981,-0.754783
0.172841,0.289261,0.817032,0.634227,-0.771848,0.044806
-0.374905,-0.238561,0.451430,0.935739,-0.097165,-0.339044
0.119117,0.416532,0.231490,0.854309,0.170122,0.491136
0.281693,-0.114037,-0.088563,0.438563,0.423970,-0.792409
0.679183,0.419831,0.541993,0.227054,0.288763,-0.930087
-0.478187,-0.133317,0.603894,-0.530288,-0.658114,-0.534491
-0.168621,0.732317,0.384504,0.906687,-0.167578,0.387086
-0.355161,-0.506094,0.081864,-0.576685,0.438386,-0.689386
0.010209,0.221479,0.693614,0.100198,0.921342,0.375618
-0.150002,0.469531,0.058520,-0.790542,0.348152,0.503820
0.493488,-0.100748,-0.955754,-0.193664,0.353242,0.915267
-0.272354,-0.037511,0.063544,-0.533964,0.647061,0.544238
0.007059,0.849501,0.612165,0.400019,-0.803488,0.440899
0.270891,0.285414,0.601964,-0.538004,0.804350,-0.252138
-0.301325,-0.165484,0.598589,-0.031914,0.267455,0.963042
0.069334,-0.484915,0.325799,0.060956,-0.303613,0.950844
-0.444211,0.479321,0.545470,0.160143,-0.414190,0.895992
0.586589,0.205644,0.735213,0.525651,0.477611,0.703974
0.313983,-0.031368,0.461376,0.955387,-0.281119,0.090603
-0.148932,-0.543106,0.629526,-0.196656,0.461585,0.865024
0.117487,0.141658,0.719719,0.387424,0.516968,-0.763313
0.325682,0.233366,0.687541,-0.023030,0.998076,0.057574
-0.459681,-0.277920,0.600647,0.405671,0.338500,0.849028
0.331196,0.520380,0.422115,0.136851,0.470066,0.871957
0.019773,0.641457,0.565081,-0.623222,-0.033303,0.781335
-0.508622,-0.351897,0.608164,0.208415,0.023627,0.977755
-0.258460,-0.644006,0.432471,-0.472568,-0.190478,-0.860464
-0.071301,-0.087263,0.325876,-0.036385,-0.057339,0.997692
-0.075634,0.195456,0.709415,-0.289019,-0.595235,0.749775
-0.144264,-0.120079,0.726891,0.204743,0.562853,0.800798
0.833488,0.025774,0.563931,0.251486,-0.362718,0.897324
0.459399,-0.391109,0.627622,0.913213,0.385485,-0.132072
0.349591,0.247302,0.800183,0.220132,-0.342553,0.913345
0.037044,0.246954,0.592542,0.401476,-0.736908,-0.543860
0.426096,0.395554,0.406480,0.963293,0.213057,0.163322
0.459061,-0.491857,0.674910,0.493440,0.227248,0.839569
-0.016230,-0.146954,0.326413,0.248529,-0.074327,0.965768
0.081596,-0.458291,0.710182,0.858761,0.383174,0.340157
0.301832,-0.094705,0.927053,0.244037,0.891463,-0.381759
0.143869,0.385314,0.161791,-0.501993,0.719935,-0.479267
-0.600484,-0.091458,-0.110730,0.628328,0.496100,-0.599240
-0.433748,0.108543,0.625717,-0.538950,0.609379,-0.581541
-0.365961,-0.550249,0.425311,0.151219,0.232536,0.960760
-0.170366,-0.222726,0.674028,0.794035,0.536661,-0.285488
-0.544005,0.284615,0.403847,0.386723,0.165187,0.907281
0.133912,0.509591,0.648409,-0.539320,0.538458,-0.647454
0.298736,0.468181,0.157278,-0.574077,0.629061,-0.524136
0.007454,-0.492107,0.481920,-0.441685,0.347674,-0.827065
-0.290805,0.827123,0.379071,-0.568840,-0.055841,-0.820550
-0.009142,-0.241808,0.839392,0.185727,0.979732,0.075044
-0.457993,0.575574,0.372628,-0.042499,0.278302,0.959553
0.256997,-0.234314,0.907966,-0.113327,0.993476,0.012768
-0.508283,-0.720580,0.453654,0.792017,0.610243,0.017667
0.723567,-0.058242,0.643589,-0.220409,-0.040294,0.974575
0.298511,-0.456242,0.715973,0.743530,0.527114,0.411476
-0.477851,-0.564935,0.490473,-0.751692,0.402083,0.522771
0.323038,-0.110290,0.218041,-0.619064,0.206555,0.757690
-0.539955,-0.708190,0.548858,-0.411671,0.400923,-0.818406
0.286924,-0.058791,0.033437,-0.892421,0.124466,-0.433696
-0.129974,-0.126174,0.563560,0.002693,0.905348,0.424662
0.202261,-0.499698,0.599637,-0.235758,-0.791081,0.564454
-0.487301,-0.194456,0.411658,-0.422315,-0.025283,0.906097
-0.264647,-0.065584,0.724679,0.124268,0.890259,0.438174
-0.060163,-0.151399,0.836196,0.348671,0.181992,0.919406
0.285011,0.336614,0.654277,0.907982,-0.398868,-0.128348
0.298850,-0.027722,-0.021752,-0.615661,-0.785624,-0.061294
-0.005260,0.751847,0.552770,-0.795373,0.542041,-0.271245
-0.537761,0.268131,0.395793,0.613486,0.263837,0.744329
-0.127106,-0.203495,0.693869,-0.407195,0.126897,-0.904483
0.243777,-0.068532,-0.542734,0.798254,-0.600984,-0.040110
-0.027255,-0.735113,0.309576,-0.582246,-0.624932,-0.520049
-0.378618,-0.115034,0.501838,0.082572,0.054064,0.995118
0.610273,-0.236464,0.101462,-0.360159,-0.822389,0.440412
0.569713,0.359589,0.668697,-0.656501,0.312442,-0.686576
-0.442410,0.138561,0.604815,-0.524027,0.481445,0.702571
0.394932,-0.318629,0.838408,0.922207,0.333977,-0.194920
0.308975,0.256793,0.126148,-0.606954,-0.032090,-0.794089
-0.270666,-0.167581,0.136836,0.358981,-0.005862,-0.933327
-0.501083,0.592806,0.192064,-0.214637,-0.199484,-0.956105
-0.279610,-0.543057,0.425209,0.147775,0.263181,0.953362
-0.865104,-0.024326,0.337394,-0.620665,0.597256,0.507996
-0.578826,-0.297054,0.333431,0.517259,-0.541226,-0.662961
-0.164572,0.126024,0.445817,-0.371829,0.363633,0.854116
-0.348129,0.891509,0.385054,0.242154,-0.419628,0.874799
0.248728,-0.098851,-0.065001,0.932581,0.125848,-0.338311
-0.284337,0.824376,0.377128,0.331615,0.147432,0.931824
-0.359379,0.160789,0.562333,0.776924,0.486248,0.399940
0.878098,-0.014286,0.559801,-0.019365,0.299549,0.953884
-0.608472,-0.196703,0.632914,0.822321,0.139262,0.551719
-0.367312,-0.269280,0.414061,0.990450,0.095546,-0.099393
0.067983,0.087013,0.325582,-0.564801,0.480889,0.670631
0.152589,0.087312,0.884380,-0.681116,0.497207,-0.537462
-0.199281,-0.340760,0.577213,0.993562,0.080914,0.079295
0.198604,-0.056544,0.270546,-0.003362,0.285660,0.958325
0.031643,0.199449,0.180494,0.567444,0.474560,0.672904
0.170422,0.589211,0.501838,0.156830,0.496975,0.853475
0.049588,-0.524826,0.347379,0.259353,-0.091794,0.961410
0.783703,-0.152298,0.652704,-0.148254,0.361974,0.920324
-0.383849,-0.368531,0.478392,-0.688367,-0.418176,0.592689
0.732906,-0.430169,0.619337,0.900831,0.204564,0.382958
-0.111579,-0.295703,0.691108,0.516630,0.782951,-0.346529
0.147244,-0.449949,0.789904,0.277471,0.453636,0.846891
0.143363,0.342309,0.610005,0.037655,0.494781,0.868201
-0.401851,-0.787810,0.537979,-0.001176,0.046085,0.998937
-0.478864,-0.004095,0.624758,0.911964,-0.277233,0.302430
-0.814362,0.068681,0.333546,-0.080012,0.146761,0.985931
0.255365,0.315882,0.450611,0.277888,-0.017916,-0.960446
0.377548,-0.161139,0.798610,-0.573954,0.080911,-0.814880
-0.165978,-0.458141,0.572100,0.826626,0.511529,-0.234582
0.297330,-0.175474,0.759107,-0.198662,0.165802,0.965942
0.186735,0.804145,0.411083,0.321679,0.448053,0.834129
-0.253509,-0.230019,0.781697,0.488867,0.217083,0.844917
0.430146,-0.138061,-0.954769,-0.101882,0.390779,0.914829
0.340647,-0.023676,-0.104658,0.385854,0.920163,0.066464
0.155289,0.243805,0.815383,0.431284,-0.221835,0.874519
-0.524936,-0.719181,0.427510,0.719929,0.688614,-0.086679
0.906168,-0.249948,0.676917,-0.603522,0.446903,0.660332
0.126149,-0.609391,0.581752,0.305266,-0.012194,0.952189
0.347622,-0.048502,-0.539845,0.759651,-0.618101,0.202192
-0.317358,0.299749,0.315610,-0.486956,-0.045532,-0.872239
-0.425535,-0.529570,0.426117,0.151266,0.261618,0.953244
0.154671,-0.153396,-0.086939,-0.075351,-0.311960,-0.947103
-0.220601,-0.265783,0.773809,-0.032478,-0.982249,0.184751
-0.658088,-0.659990,0.556592,0.780263,0.396797,0.483468
0.241864,-0.026323,0.921364,0.500491,-0.140704,-0.854231
0.053076,0.160389,0.017444,0.731782,0.014992,0.681374
-0.210755,-0.627521,0.536905,-0.064113,-0.043472,0.996995
0.370687,0.122777,0.023223,0.873027,-0.474888,-0.110925
0.138300,-0.114735,-0.978088,-0.519501,0.366624,0.771820
-0.170704,0.435364,0.030088,0.735728,0.263168,0.624057
0.411526,-0.024124,0.861764,0.824746,-0.069390,-0.561229
-0.148033,-0.591809,0.101769,0.169264,0.116623,0.978646
-0.638625,-0.915283,0.564058,0.757656,0.584970,0.289428
-0.702529,0.026124,0.544115,0.880169,-0.121724,0.458788
-0.170084,0.687611,0.410635,-0.250002,0.741478,0.622663
-0.461480,0.591208,0.188765,-0.214637,-0.199484,-0.956105
0.504515,0.120180,0.632544,0.896936,0.441901,-0.015169
0.209856,-0.106543,-0.867210,0.679881,-0.708664,0.188563
-0.133856,0.148103,0.443248,-0.109983,0.273868,0.955458
0.111804,-0.273225,0.362503,-0.099439,-0.989854,-0.101491
-0.554130,-0.909688,0.542261,-0.425755,-0.217485,-0.878312
-0.472450,0.584714,0.192575,-0.214637,-0.199484,-0.956105
0.280566,-0.279371,0.762290,-0.474693,0.609527,0.634935
-0.417490,-0.827922,0.305830,0.914291,-0.365400,0.174800
-0.281355,-0.004945,0.696426,-0.592768,-0.216356,-0.775768
0.138920,0.747003,0.561220,0.927889,-0.370442,0.042360
-0.192192,0.488961,0.423253,0.587138,0.004284,-0.809476
-0.296881,0.563934,0.245310,0.344760,0.934855,0.084775
0.360898,-0.021878,0.911994,0.940155,0.120365,-0.318779
-0.061346,0.214836,0.683527,-0.636108,0.623762,-0.454188
0.731275,-0.044255,0.642196,-0.313705,-0.077386,0.946362
-0.063820,-0.731418,0.478149,-0.067996,-0.406299,0.911207
-0.230669,-0.793456,0.514545,0.039484,0.419623,0.906839
-0.511152,-0.996003,0.555749,-0.603879,-0.527969,-0.597142
-0.069109,0.210690,0.730982,-0.307643,-0.899142,0.311287
-0.303801,-0.136762,0.508370,-0.028207,0.175096,0.984147
-0.530448,0.586263,0.385322,0.343634,0.316384,0.884204
-0.044582,0.487912,0.509764,0.068064,-0.997678,0.002310
-0.012235,0.080471,0.731838,0.839802,0.365939,0.401025
-0.024836,-0.781917,0.317362,0.195527,-0.006227,0.980679
0.220712,0.127722,0.161599,-0.109278,-0.458944,0.881719
-0.042500,-0.151249,0.823169,0.723094,0.555255,0.410885
0.336541,-0.110939,0.875674,0.722935,0.669373,0.171190
-0.771833,-0.462638,0.327704,-0.073157,-0.790731,-0.607777
0.475657,-0.555145,0.682185,-0.494322,-0.602252,-0.626848
-0.013641,-0.464135,0.484758,-0.506875,0.458692,-0.729849
-0.233258,-0.567181,0.285759,-0.081703,-0.640967,0.763208
-0.378900,-0.393106,0.134880,0.241120,0.178732,0.953895
-0.267180,-0.131070,0.740660,0.424409,0.797099,0.429546
-0.512335,-0.936212,0.472818,0.893000,0.360134,0.269917
-0.463731,-0.161188,0.609813,0.808347,0.096176,0.580797
-0.395494,0.521179,0.363602,-0.300527,0.062723,-0.951709
-0.290074,0.579769,0.364522,-0.183232,0.033555,0.982497
-0.063370,0.190209,0.734804,0.601282,0.620770,-0.503095
0.123674,0.328321,0.335976,-0.622955,-0.259856,0.737836
-0.243609,-0.595803,0.530334,-0.007313,0.464115,0.885745
0.167947,0.393606,0.600353,0.589318,-0.630684,-0.504918
0.444266,0.421529,0.546340,0.307436,0.507298,0.805066
-0.268979,0.009591,0.676381,0.891420,0.166193,0.421604
0.443028,-0.192806,0.693959,0.887208,0.091986,0.452107
0.154276,0.269082,0.624336,-0.030340,-0.933884,-0.356286
0.193205,0.472976,0.579540,0.686098,-0.330361,-0.648175
-0.741008,-0.387713,0.338341,-0.620753,0.653282,0.433461
0.085140,0.466333,0.215983,-0.235261,-0.729124,-0.642674
0.047562,0.031069,0.862237,0.796314,0.536359,-0.279648
-0.253791,0.550749,0.233408,0.486203,0.873188,-0.033913
0.281243,-0.009192,0.796718,0.577812,0.067613,0.813365
-0.157090,-0.439709,0.602373,-0.341027,-0.129126,0.931143
-0.002898,-0.361089,0.758135,0.990422,0.136331,0.021850
0.328889,-0.076523,0.343889,0.905379,-0.404522,-0.129036
0.175597,-0.230071,0.610082,0.551922,-0.781435,-0.291103
0.248783,0.202748,0.441854,-0.381159,0.186557,-0.905491
-0.621636,-0.714284,0.522970,0.996792,-0.000573,0.080033
-0.079009,0.123527,0.808160,0.633614,-0.188773,0.750265
-0.235902,0.211989,0.645660,0.407713,-0.181002,-0.894991
0.233708,0.807392,0.182654,-0.382087,0.303149,0.872989
0.366973,-0.320678,0.813338,0.681618,-0.731612,0.011874
0.334233,-0.008542,0.228665,-0.571357,-0.806335,0.152888
-0.351166,-0.003598,-0.071087,0.137568,0.212298,-0.967473
-0.684697,-0.017783,0.326259,-0.491756,-0.209464,-0.845163
0.488821,0.303496,0.682057,-0.588253,-0.782041,-0.205839
0.350323,-0.458590,0.438773,-0.435174,-0.316117,-0.843027
-0.356453,-0.103446,0.612945,0.127675,-0.281893,0.950913
-0.363149,0.173477,0.330913,-0.101432,0.422749,0.900553
0.275279,0.324824,0.707510,0.833568,-0.192903,0.517642
-0.185104,0.165935,0.613853,-0.296588,0.722241,-0.624822
0.274491,-0.112037,0.932870,-0.076683,-0.990729,-0.112139
-0.304137,-0.564136,0.290719,-0.129754,-0.839186,0.528139
0.433128,-0.259939,0.768810,0.813700,0.095563,-0.573376
-0.503671,-0.356494,0.389810,-0.303250,-0.360639,0.882031
0.012742,-0.185264,0.125394,-0.290083,0.206455,-0.934467
0.646443,-0.027823,0.763262,-0.074556,-0.903363,0.422348
-0.123787,0.234766,0.718837,0.917888,0.396837,0.001609
-0.198043,-0.220278,0.754607,-0.663239,-0.087435,-0.743283
-0.046606,0.299551,0.718236,0.983116,-0.170277,0.066998
-0.490170,-0.883814,0.535243,0.469487,0.059133,0.880957
-0.313531,-0.540109,0.080266,-0.514241,0.852852,0.090548
-0.363542,-0.712437,0.118145,0.788867,0.317731,-0.526057
0.459286,0.325974,0.695058,0.695573,0.689570,-0.201673
0.175710,0.221229,0.812941,-0.312490,0.376624,-0.872069
0.373948,-0.064185,-0.298096,0.608541,0.693848,0.385035
0.213231,0.053047,0.372935,-0.650520,0.421015,0.632115
-0.075971,0.389210,0.239736,-0.156988,0.364208,0.917991
0.621466,0.150649,0.552233,-0.268131,0.215753,0.938912
0.286812,-0.086065,-0.342521,-0.279324,-0.718129,0.637392
0.019942,0.115284,0.462501,-0.595629,-0.114859,-0.795005
