-0.454556,0.509372,0.564296,0.004890,-0.408225,0.912868
-0.269092,0.377766,0.409317,-0.089501,-0.988193,-0.124357
-0.129517,-0.162547,0.800508,0.682877,0.730406,-0.013651
0.038107,0.092215,0.680650,-0.560595,0.200679,0.803406
0.144404,0.057563,-0.978309,-0.039918,0.052652,0.997815
0.231877,-0.596849,0.414593,0.791677,0.284417,-0.540698
-0.082644,0.048930,-0.788676,-0.675543,-0.737311,-0.003734
-0.304216,0.558152,0.475628,0.381610,0.199019,-0.902644
-0.112233,0.041927,-0.507871,0.907359,0.402814,0.120170
0.408606,0.309246,0.561405,0.238927,0.019735,-0.970837
-0.069788,-0.059736,0.906203,0.251030,-0.724101,0.642387
0.356196,0.159286,0.438496,0.631517,0.423229,0.649664
0.192877,0.220622,0.680277,0.919850,-0.381427,-0.091589
-0.003045,-0.157596,0.656761,0.564188,0.825642,-0.002732
-0.109649,0.047179,-0.177422,0.597520,0.796981,-0.088272
-0.098577,-0.166712,0.851203,-0.155940,-0.968947,0.191898
-0.001200,0.976818,0.549720,0.936889,0.335556,0.098185
0.039154,-0.453953,0.412501,0.086972,-0.388288,0.917425
-0.120352,0.034139,0.082066,0.506992,0.859141,0.069544
-0.116538,-0.059978,0.459560,0.382175,-0.890783,-0.245862
-0.760711,0.748317,0.420988,0.010439,-0.015126,0.999831
0.062775,0.312023,0.713838,0.501931,-0.616805,0.606314
-0.035709,-0.206013,0.794659,-0.113790,-0.001510,0.993504
0.558515,0.215491,0.516851,-0.190353,0.246510,0.950262
-0.172516,0.048507,0.501023,-0.452355,-0.442102,0.774545
0.158060,0.313653,0.469073,-0.186640,-0.819572,-0.541726
-0.616830,0.693561,0.385814,0.083945,0.874503,-0.477701
-0.032879,-0.044161,0.899261,-0.434731,0.865230,0.249771
-0.059577,-0.008724,0.858558,0.882025,-0.363629,-0.299676
0.501860,0.302967,0.448968,-0.071928,0.861099,0.503324
-0.041307,0.041746,0.956872,0.846959,0.530238,0.038831
0.147541,0.277008,0.694879,-0.198786,0.907084,-0.371057
-0.108849,-0.107066,0.300584,0.864943,0.495729,0.078268
-0.092548,0.027861,0.636709,0.902522,0.045396,0.428245
-0.121090,0.040116,-0.295348,-0.559093,-0.826793,-0.061873
-0.322117,0.318784,0.701874,0.034374,-0.642409,0.765591
0.147602,-0.065109,0.084397,-0.139442,0.907804,-0.395536
0.486975,0.544689,0.410263,-0.578149,-0.303486,-0.757390
-0.121828,0.051888,0.134347,0.831492,0.555532,-0.002392
0.576661,-0.434031,0.672216,0.852816,-0.264777,-0.450108
0.413834,-0.497842,0.314907,0.074417,-0.147683,0.986231
0.486913,-0.475203,0.263891,0.326745,0.944726,-0.027016
-0.224433,0.362130,0.626117,0.125725,0.770140,0.625363
-0.047643,0.103987,0.725483,0.767299,0.372093,-0.522301
0.068373,-0.345287,0.406266,-0.299013,0.213111,0.930148
0.307477,-0.246340,0.638654,0.879261,-0.198480,0.433019
-0.056747,-0.015364,0.954434,-0.771582,0.602667,-0.203599
0.267309,-0.060219,0.594860,0.014325,-0.138267,0.990291
-0.177314,0.277732,0.502502,0.189771,0.881875,0.431606
0.267678,-0.714148,0.422427,0.233495,0.800087,-0.552576
0.721588,-0.132663,0.487566,0.492073,0.212811,-0.844142
-0.092302,0.144194,-0.986983,0.210909,-0.243206,-0.946767
-0.156092,0.147454,0.452858,0.021352,-0.399673,0.916409
0.313074,0.469950,0.761243,-0.458495,-0.417413,0.784569
-0.035278,0.161943,0.489791,-0.777788,0.596415,0.198328
-0.032141,0.137855,0.730306,0.742592,-0.244759,-0.623418
0.141266,-0.178545,0.639307,0.417190,0.776161,0.472787
-0.294313,0.131214,-0.998188,0.200930,-0.155748,-0.967145
-0.407437,0.379094,0.176769,0.544422,0.667614,0.507835
0.095807,0.295904,0.436390,0.630231,-0.469170,0.618618
-0.233414,0.652389,0.644756,0.404292,-0.707667,0.579444
-0.096607,-0.484560,0.392196,-0.370835,-0.625618,0.686356
-0.124227,-0.044282,0.463091,0.067337,-0.273631,0.959475
0.673422,-0.342872,0.269088,0.947383,0.132493,0.291394
-0.073356,-0.163875,0.765507,0.847394,0.516727,-0.122134
-0.166118,-0.011380,0.905843,-0.307308,-0.923761,0.228532
-0.061176,0.437169,0.595899,0.077736,0.001869,0.996972
0.026113,0.186634,0.852682,0.939446,-0.174396,0.295005
0.229477,-0.702194,0.149762,0.827759,0.273905,0.489684
-0.327346,-0.116243,0.836481,0.272242,0.935755,-0.224161
0.532863,-0.034260,0.520421,0.694419,0.432522,0.575071
0.596776,0.032449,0.488299,-0.515926,0.444382,-0.732356
-0.135053,0.090464,0.514972,-0.685759,0.190975,0.702327
0.335158,0.387545,0.435764,-0.236839,0.272026,0.932689
0.149694,0.357723,0.725297,-0.320802,-0.740512,0.590533
-0.094455,0.037218,-0.542898,0.358242,0.933315,-0.024208
-0.028820,-0.254128,0.728841,0.055948,0.383834,0.921706
0.311168,-0.443448,0.421295,-0.234829,0.743826,0.625762
-0.104850,-0.040418,0.759125,0.858444,0.148236,-0.491020
-0.079814,-0.079055,0.909973,0.982236,-0.044767,0.182232
-0.055763,-0.038063,0.571117,0.728634,0.370388,0.576112
-0.111248,-0.111836,-0.982040,0.125269,-0.115952,0.985324
0.083567,-0.390806,0.748706,-0.173337,0.393754,0.902725
0.521360,0.251652,0.465622,-0.103166,0.506072,0.856299
-0.084982,0.213378,-0.991700,-0.233148,0.221762,0.946818
-0.016578,0.090826,0.773581,-0.270056,0.535251,-0.800360
0.149386,-0.452745,0.785319,-0.274105,0.955106,0.112425
0.307723,0.314679,0.400923,-0.479157,0.238809,-0.844618
-0.023407,-0.050620,0.661104,0.785865,-0.513537,0.344524
0.193861,0.881735,0.516678,0.054767,0.972195,-0.227679
-0.148341,0.395092,0.595992,-0.594420,-0.102641,0.797577
-0.299788,-0.036373,0.823824,0.200156,0.382434,-0.902043
-0.087258,-0.001057,0.008534,0.935523,0.353241,0.004218
0.366961,-0.393643,0.683794,-0.549042,0.700421,0.456029
-0.064251,0.027257,0.945867,-0.679146,-0.286777,0.675663
0.728601,-0.304778,0.253193,0.677534,0.191608,0.710094
-0.362470,0.468260,0.388106,0.597459,0.598286,0.533945
0.058961,0.086239,0.669538,0.547939,-0.488855,0.678810
-0.337127,0.281294,0.696132,0.736372,-0.233400,0.635044
0.116107,-0.295662,0.171773,-0.790033,-0.176935,0.586977
-0.318919,0.233542,0.706457,-0.489655,-0.117062,0.864022
0.180143,-0.344985,0.747653,-0.134244,0.457209,0.879169
-0.018115,0.317939,0.452458,0.629294,0.458756,0.627321
0.439978,-0.482810,0.309777,0.116329,-0.205379,0.971744
-0.208194,0.254731,0.468207,-0.052854,-0.248454,0.967201
-0.294928,0.158743,0.835762,0.122198,-0.283050,0.951289
0.067635,-0.025808,0.818947,-0.488767,-0.493904,-0.719142
-0.058961,-0.028646,0.948585,0.846528,-0.531159,0.035498
0.462000,-0.423889,0.642558,-0.673155,0.380334,0.634199
-0.001261,0.404872,0.742324,-0.247100,0.906982,-0.341066
-0.043767,0.077545,0.821212,0.068089,-0.094184,0.993224
-0.112233,-0.151137,0.829833,-0.031057,0.677102,0.735233
0.336635,-0.409943,0.672016,-0.147560,0.147727,0.977958
-0.096300,0.047179,-0.470352,0.804735,0.586054,-0.094565
0.054962,-0.215431,0.787690,-0.665706,0.580732,0.468599
-0.569465,0.629267,0.409970,-0.295877,0.870822,0.392589
0.400671,-0.310936,0.622786,-0.106600,0.804864,0.583806
0.064436,0.333514,0.709815,0.794540,-0.565330,0.221605
0.288777,-0.521688,0.303769,0.260000,0.164828,0.951437
-0.124227,-0.286426,0.816336,-0.380840,-0.425058,-0.821149
-0.137145,-0.019711,0.973366,0.292396,0.956296,0.001510
0.050903,0.238613,0.683528,0.540313,0.230567,-0.809259
0.306678,-0.835009,0.150029,-0.274871,-0.386415,0.880414
-0.286440,0.495849,0.643464,-0.045931,-0.568959,0.821082
0.356258,-0.110628,0.308352,-0.055579,-0.239457,0.969315
0.052871,0.000573,0.879969,0.740623,0.353074,0.571679
0.263187,0.411754,0.749385,0.962733,0.166774,-0.212910
0.470735,0.162305,0.455043,-0.001613,-0.954274,0.298929
0.017132,0.089499,0.501422,0.244185,-0.225904,-0.943049
0.231877,-0.293972,0.209612,-0.699666,0.000734,0.714470
-0.457755,0.570467,0.576806,-0.382352,0.615727,-0.688976
0.249592,0.891575,0.517384,0.101984,0.989852,-0.098958
-0.048688,0.416946,0.594220,0.411887,-0.353395,0.839917
-0.257159,-0.069939,-0.991260,-0.214147,0.131060,0.967969
0.450189,0.645567,0.403441,0.253823,-0.670767,-0.696882
0.277643,0.480515,0.414047,0.739509,-0.539730,-0.402266
0.282625,-0.645386,0.417658,0.946296,-0.095103,-0.308998
0.015348,-0.249781,0.400244,0.416860,0.501513,0.758098
-0.319042,-0.012768,0.826821,0.073341,-0.367046,0.927307
0.109156,-0.162064,0.691961,0.830690,-0.382485,-0.404549
-0.172824,0.353437,0.761270,-0.454323,0.229700,-0.860714
-0.199397,0.118536,0.814138,0.765444,0.393506,-0.509164
-0.157506,0.010414,0.085890,0.506992,0.859141,0.069544
-0.207640,0.094690,0.448035,-0.517557,0.403939,-0.754300
0.315412,-0.839597,0.153360,-0.279388,-0.361396,0.889570
-0.044813,0.340276,0.711813,0.316667,0.819115,0.478301
0.286193,0.293730,0.698383,0.431127,0.401445,-0.808067
-0.195276,0.026895,-0.722326,0.970576,0.124226,-0.206277
0.118875,-0.049292,0.785385,0.591884,-0.459336,-0.662332
-0.294498,0.767454,0.509296,-0.817813,0.257439,-0.514692
-0.015225,0.246280,0.333413,-0.785198,0.004717,0.619226
-0.106081,-0.011199,-0.577566,0.881409,-0.472354,0.000527
-0.020269,0.376257,0.745388,-0.360991,0.779225,-0.512342
-0.102882,0.800054,0.501129,0.079383,-0.842261,0.533192
-0.135300,-0.044040,0.777804,0.959015,-0.077595,-0.272525
0.304462,-0.910230,0.151908,-0.261089,-0.501660,0.824724
0.311845,-0.532494,0.638468,0.247844,-0.471034,-0.846582
0.527943,0.312747,0.444811,-0.285332,0.819998,0.496174
-0.351582,0.005765,0.830445,0.716688,-0.094927,0.690903
-0.090702,0.070361,0.579618,0.611985,-0.084427,0.786350
-0.144958,0.018745,0.534185,0.693699,0.718866,-0.044864
-0.175899,-0.036675,0.848126,-0.230814,0.393696,0.889791
0.355765,0.075312,0.529388,0.299074,-0.021480,-0.953988
0.554086,0.042470,0.511775,0.817415,-0.395390,0.418927
0.151354,-0.705575,0.164418,0.094615,0.040723,0.994681
0.265770,0.209454,0.537036,0.880283,0.071119,0.469089
0.461938,0.273084,0.499557,-0.463663,0.328019,0.823055
-0.194845,0.047119,-0.799575,0.331359,0.940056,-0.080599
-0.441393,0.360681,0.559766,-0.432451,-0.286317,0.854990
0.181681,-0.383803,0.604266,-0.673051,-0.646883,0.358530
0.042291,-0.452987,0.159688,-0.174435,-0.021285,0.984439
0.136222,0.044342,0.650978,-0.565146,0.363178,-0.740750
-0.295544,-0.061004,0.825542,0.122339,-0.211639,0.969661
0.038477,-0.297594,0.150282,-0.318170,0.026530,0.947662
0.468028,0.489330,0.420695,0.183313,-0.287119,0.940191
0.037616,-0.389840,0.670471,0.715723,0.453473,-0.531134
0.518469,0.030517,0.512960,0.921955,0.155378,0.354763
0.114570,-0.009267,0.804585,-0.004472,-0.998900,0.046676
0.769631,0.064626,0.484715,0.532314,-0.497945,-0.684611
-0.138868,0.003169,0.741045,0.766772,0.492009,0.412296
-0.207517,0.495246,0.484781,0.496175,-0.226375,0.838191
0.240058,-0.328443,0.643304,0.734738,-0.666538,-0.126046
-0.153816,-0.025265,-0.780722,-0.499864,-0.804656,0.320414
-0.289392,0.262278,0.773927,0.272434,-0.655891,0.703979
0.076247,-0.471158,0.744776,0.992251,0.025685,0.121565
0.353489,-0.243986,0.245811,0.381462,0.287646,-0.878491
0.023099,-0.081288,0.770610,0.810842,0.428894,-0.398228
0.349675,-0.872740,0.148044,0.156386,-0.605128,0.780617
0.026604,0.191162,0.513067,-0.326152,0.837047,0.439292
-0.399194,0.554468,0.570065,0.262131,-0.451141,0.853088
0.020023,-0.244227,0.779896,0.993254,-0.025579,0.113099
0.504875,0.279604,0.563643,0.843400,-0.274177,-0.462064
0.027589,0.011742,0.752663,0.479235,0.538160,-0.693338
-0.068557,-0.385554,0.643251,-0.178736,-0.530972,0.828325
0.072556,-0.501102,0.654243,0.163917,0.405911,-0.899093
0.144650,0.245736,0.414513,-0.500912,-0.683850,-0.530506
0.004952,0.043436,0.833950,-0.798365,0.329553,-0.503992
-0.240365,0.128981,0.784400,0.887092,-0.084034,-0.453879
-0.130009,0.002686,-0.016488,0.947713,0.307766,0.084382
-0.137023,0.010716,0.784026,0.850668,-0.419942,-0.316248
0.151908,-0.266262,0.645849,0.107011,-0.683365,0.722192
-0.710331,0.594072,0.420109,0.876175,0.457039,-0.153080
-0.189248,0.501464,0.702194,0.385995,-0.528979,0.755770
0.133270,0.164176,0.543818,-0.801699,-0.106824,-0.588105
-0.166549,0.101211,0.726602,-0.141985,-0.430112,0.891540
0.216313,-0.582300,0.141808,0.800024,-0.158509,0.578650
-0.052810,-0.079658,0.667140,0.872276,-0.095585,-0.479581
-0.152401,0.189773,0.596245,0.230059,-0.303385,0.924679
0.152585,0.236077,0.689550,0.316808,-0.251990,0.914404
0.590809,0.289685,0.454977,0.450542,0.010484,-0.892694
0.428783,-0.173353,0.244293,-0.396119,-0.073137,0.915282
-0.144158,0.362552,0.453911,0.398053,0.539845,-0.741702
-0.807215,0.713121,0.417151,0.013163,-0.161585,0.986771
0.030418,-0.198104,0.847513,-0.034330,0.978483,0.203454
-0.137698,-0.011501,-0.729001,0.984215,0.174903,-0.027006
-0.280903,0.228833,0.627915,0.692494,-0.260005,0.672940
0.577584,-0.663859,0.438282,-0.492114,0.193480,0.848757
0.268046,-0.631018,0.421348,0.071177,0.534676,0.842054
0.890997,0.099520,0.477960,-0.183983,0.092658,0.978552
-0.108788,0.856138,0.518823,-0.166045,0.846479,-0.505868
-0.113278,0.047904,0.449141,0.399538,-0.546921,-0.735694
-0.066589,0.129282,0.667739,-0.453000,0.634324,0.626438
-0.030542,-0.115699,0.657240,0.922171,-0.335909,-0.191742
-0.640328,0.768420,0.398192,0.259190,0.749533,0.609115
-0.637929,0.486190,0.420495,0.285771,-0.091090,0.953959
0.727493,-0.160252,0.463370,0.368409,-0.491337,0.789216
0.239012,-0.173594,0.635976,0.058193,-0.604137,-0.794753
-0.024636,0.270246,0.719381,0.013105,-0.416078,0.909234
0.012579,0.061909,-0.980694,-0.153423,0.003061,-0.988156
0.396303,-0.324278,0.623439,0.129778,0.811904,0.569184
0.104051,-0.099399,0.580364,0.415715,0.909259,0.020719
-0.088488,-0.347339,0.875359,0.902935,-0.375333,0.209362
-0.471411,0.504603,0.670697,0.179558,-0.374768,0.909565
0.582997,-0.393100,0.283543,-0.219700,-0.255538,-0.941505
-0.257466,-0.018081,0.858598,0.522826,0.601117,-0.604410
0.392366,0.119804,0.529881,0.611869,0.460336,-0.643201
-0.228617,-0.027740,0.822851,0.784293,-0.413804,0.462224
-0.297327,0.139243,-0.997362,-0.200170,0.144633,0.969027
-0.194169,-0.166833,0.841810,0.393630,-0.812749,0.429529
0.292406,-0.170817,0.579391,-0.022511,-0.356732,0.933936
-0.131425,0.228833,0.669658,0.892428,0.313076,0.324892
-0.035401,0.014459,0.829539,-0.535765,-0.334373,0.775339
0.291791,-0.544266,0.612460,-0.610468,0.531622,0.587117
0.026850,0.081469,-0.982480,-0.164531,-0.014043,-0.986272
0.103989,-0.124513,0.837320,-0.733444,0.278570,0.620047
-0.117461,-0.032992,-0.086063,-0.738806,0.667414,0.093404
-0.159537,0.048085,-0.486273,0.882671,0.467900,0.044276
0.041306,-0.001600,0.637815,-0.059238,-0.967670,0.245165
0.347646,0.251954,0.433979,0.671762,-0.651235,-0.353027
-0.188694,0.059132,0.445037,0.012915,-0.104741,0.994416
0.092671,-0.003290,0.765627,-0.372660,0.927298,0.035263
-0.062037,0.001419,0.882887,0.248876,0.951338,0.181707
0.042168,-0.020496,0.646968,0.582240,-0.439066,0.684264
0.104296,-0.528932,0.649966,0.356951,0.262789,-0.896397
0.067450,-0.135320,0.610835,0.581374,-0.752889,-0.308483
0.671885,-0.002687,0.491989,-0.077890,0.188805,0.978921
-0.506781,0.738537,0.396473,-0.307506,0.834381,0.457438
0.364931,-0.238492,0.662010,0.576300,0.309120,-0.756521
0.715436,-0.020798,0.484688,-0.168185,0.074341,0.982948
0.146987,0.851188,0.485780,0.179039,-0.983145,0.037034
0.721588,-0.061729,0.488165,0.275909,0.214999,-0.936830
-0.063513,0.055389,0.719687,-0.042978,0.143428,0.988727
0.004029,0.325304,0.333960,0.529891,0.232213,-0.815655
0.789500,-0.010293,0.497332,-0.592770,0.377964,0.711173
0.144096,0.054242,0.755501,0.767603,-0.338976,-0.543949
0.169071,0.105014,-0.981574,-0.045921,0.148919,0.987783
0.078215,-0.004135,0.515518,-0.555078,0.830721,0.042325
0.155230,-0.392496,0.748253,-0.295095,0.662588,0.688401
-0.125581,-0.121917,0.967091,-0.587471,0.807220,-0.057216
-0.016147,-0.025989,0.907255,0.001978,0.681564,0.731756
0.551933,0.316309,0.572316,-0.581731,-0.381297,0.718472
-0.008581,-0.117209,0.871868,-0.738985,-0.449195,-0.502121
-0.221911,-0.081651,0.962614,0.065467,0.411277,0.909156
0.309692,-0.456368,0.678598,-0.310015,0.664524,0.679925
0.544182,-0.138338,0.527829,0.694475,0.110105,0.711043
-0.048934,-0.052250,0.737501,-0.301594,0.206919,0.930712
0.216129,0.101693,-0.980534,-0.008715,0.187473,0.982231
0.050964,-0.429201,0.252780,0.877668,0.475133,0.062821
0.037738,-0.195569,0.780096,0.980822,-0.006213,0.194805
-0.034233,-0.235474,0.221483,0.795280,-0.040543,0.604886
-0.849660,0.698391,0.423080,-0.181226,-0.019580,-0.983246
-0.161751,-0.044644,0.466248,0.904990,-0.425373,-0.007158
0.084428,0.019590,0.652391,0.191181,-0.753715,0.628779
0.351583,-0.657098,0.430954,-0.563701,0.563690,-0.603734
-0.049796,-0.009569,-0.338223,-0.712654,-0.670649,-0.205801
-0.173808,0.819976,0.507218,0.069961,-0.893886,-0.442802
-0.040077,0.091853,0.727695,0.917577,-0.015267,-0.397265
0.089964,-0.486553,0.776779,-0.720426,0.352468,0.597288
-0.040445,-0.406442,0.658706,0.869563,0.171079,-0.463240
0.126749,-0.079055,0.631246,-0.509328,0.389621,-0.767320
-0.249900,0.601980,0.633445,-0.595870,0.214145,0.774003
-0.109771,0.040961,-0.339649,-0.769038,-0.634084,-0.080742
-0.144158,0.033656,0.448155,-0.313705,0.115808,0.942432
0.264110,-0.583567,0.420695,-0.292000,0.139232,0.946229
-0.542153,0.522533,0.406679,-0.339768,-0.065680,-0.938213
0.009073,-0.195871,0.783254,0.346706,0.453811,0.820884
-0.074955,0.007456,0.584174,0.932121,0.131767,0.337323
-0.146126,-0.030155,0.451832,0.964596,0.129898,-0.229523
-0.237413,0.060098,0.919286,-0.476604,0.776952,-0.411332
-0.395012,0.334661,0.567347,0.094273,-0.360782,0.927873
0.015962,0.162184,-0.984358,0.056325,0.276600,0.959333
-0.146680,-0.526518,-0.180127,-0.034305,-0.086089,0.995697
-0.355027,0.741495,0.508697,0.616074,0.550980,-0.562915
-0.426568,0.430529,0.648473,0.200426,-0.908759,-0.366042
0.707501,-0.363277,0.286395,0.218171,-0.811669,0.541844
-0.382770,0.228833,0.778910,0.414352,0.864998,-0.283004
0.226586,-0.121857,0.148497,-0.560516,0.732237,-0.386846
-0.075016,0.025567,-0.153546,0.978170,0.190309,-0.083458
-0.306861,0.319569,0.431541,-0.714933,0.361307,0.598605
0.200197,-0.145039,-0.251141,-0.282656,-0.949644,0.135212
-0.158983,0.123366,0.590956,0.452814,-0.108748,0.884948
-0.148526,-0.507984,-0.178541,-0.034305,-0.086089,0.995697
-0.208994,-0.071991,0.989128,0.989081,0.019930,0.146022
-0.100176,0.109602,0.663476,0.893162,-0.363471,-0.264860
0.053733,-0.327055,0.732505,-0.693802,-0.710602,0.116979
0.301018,-0.524344,0.658399,0.019675,-0.744085,0.667795
-0.165564,0.093483,0.674241,-0.600486,0.430276,-0.674002
-0.071510,0.013613,0.832684,0.797944,-0.515844,-0.311752
0.362102,-0.722418,0.410116,0.844160,0.237508,-0.480607
0.197121,0.219355,0.720127,-0.599720,0.408249,-0.688236
0.197183,0.346614,0.702234,0.980396,0.064658,0.186128
-0.231446,0.087446,0.788810,0.612018,-0.051230,-0.789183
-0.387998,0.764557,0.543551,0.289231,-0.604248,0.742449
0.266570,0.216759,0.550026,0.583157,-0.103611,-0.805725
-0.179344,0.002083,0.745442,0.340130,0.334638,0.878823
0.490603,-0.795164,0.421228,-0.441925,0.129778,0.887615
-0.518777,0.592743,0.403228,0.890867,0.384497,0.241903
-0.501614,0.493616,0.672243,-0.393900,0.373379,-0.839900
0.043274,0.150291,0.407159,-0.242749,-0.130510,0.961270
0.022545,0.090947,0.888762,0.819132,0.563479,-0.107300
-0.155599,-0.330919,0.869217,0.783950,0.582980,-0.213443
-0.080060,-0.047723,0.853522,0.304365,-0.244247,-0.920709
0.387076,0.283286,0.441213,-0.600502,0.507968,0.617548
-0.122874,-0.043316,0.392210,-0.519180,0.697177,0.494365
-0.542952,0.630233,0.401230,0.810522,0.585688,0.004919
0.118875,0.147936,0.547108,0.186215,-0.770165,0.610057
-0.163165,0.022427,0.942856,-0.169927,0.478052,0.861737
-0.025744,-0.122521,0.790342,-0.746869,-0.654715,0.116339
-0.003168,-0.089740,0.822891,0.976330,-0.035011,0.213435
-0.058777,-0.027016,0.733317,0.004563,0.760736,0.649045
0.042352,0.348969,0.678331,-0.238207,0.096883,0.966370
-0.543690,0.509976,0.552558,0.192272,0.870468,-0.453120
-0.108357,0.335325,0.659705,0.016637,-0.467976,0.883584
0.338849,-0.673277,0.428876,-0.297148,0.645382,-0.703694
-0.073233,0.150593,-0.986530,0.216492,-0.251275,-0.943394
-0.551256,0.542938,0.568200,0.807277,0.556557,0.196336
0.073970,-0.555314,0.776152,0.790275,-0.364454,-0.492584
-0.624027,0.512692,0.414726,-0.009023,-0.377608,0.925922
0.028758,-0.420146,0.744842,0.832917,0.407972,-0.373909
0.467721,-0.304899,0.239669,-0.458159,-0.521622,0.719722
-0.688678,0.520178,0.423200,0.113168,-0.218498,0.969253
0.592471,0.122219,0.529015,-0.202495,0.073170,-0.976546
-0.286316,0.313773,0.161047,0.553645,-0.139642,0.820961
0.195584,-0.200761,0.640066,-0.128337,-0.762357,-0.634304
-0.038292,-0.106402,0.745868,0.270287,-0.912481,-0.307122
0.393043,0.376075,0.556861,-0.212678,-0.186370,0.959184
-0.342540,-0.032992,0.788556,0.861779,0.377511,0.338855
-0.079691,-0.053760,0.365936,-0.536932,0.741729,-0.401923
0.313628,-0.926107,0.141569,-0.261535,0.732215,-0.628856
0.142805,0.158320,0.404068,-0.579422,0.258968,0.772791
0.135976,0.163512,0.522340,0.990968,-0.130690,-0.030047
-0.079260,0.040901,0.899701,0.604038,0.379869,-0.700598
-0.255190,0.285762,0.701607,-0.599240,-0.135826,-0.788963
-0.269400,0.111594,0.800854,0.420465,-0.304870,0.854555
-0.157568,0.078572,-0.859544,0.931215,0.333827,-0.146279
-0.122690,0.162848,0.752090,0.877029,-0.478843,-0.039113
-0.362040,0.875940,0.542059,0.427872,0.821215,-0.377533
0.362163,0.361043,0.434698,-0.394127,0.105854,0.912940
0.362962,-0.491865,0.300304,-0.254272,0.096097,0.962347
0.355396,-0.310091,0.610302,-0.386371,0.565350,0.728763
-0.348937,-0.060099,0.840505,0.908781,0.402602,-0.109677
-0.166672,-0.145583,0.451872,0.798904,-0.592185,0.105207
0.679451,-0.035709,0.484435,0.076725,0.155605,0.984835
-0.053855,0.004075,0.503194,0.040086,0.998307,-0.042140
0.275059,-0.536660,0.427277,0.111432,-0.031200,0.993282
-0.081229,-0.000091,-0.536317,0.655299,0.752385,-0.067082
-0.282133,0.155725,0.736262,0.898451,-0.389179,-0.203288
-0.465998,0.505146,0.398938,-0.428073,-0.901604,-0.062154
0.588841,0.012406,0.499597,0.704991,-0.609292,0.362975
-0.174422,0.581454,0.489778,0.234970,-0.256218,0.937626
0.414880,0.109420,0.546056,0.371908,0.927375,-0.040742
-0.243687,-0.023635,0.826582,-0.291838,0.343159,-0.892789
0.045858,0.169489,0.662303,0.083437,-0.637257,0.766121
0.125458,0.109722,-0.982267,-0.049576,0.150150,0.987419
-0.141020,0.002445,0.941457,0.066328,0.239702,0.968578
-0.259803,-0.120952,-0.314014,-0.056436,0.164648,0.984737
0.318487,0.364122,0.762842,-0.629737,0.654286,-0.418738
-0.218221,0.403061,0.615485,-0.398768,0.306263,-0.864400
-0.186110,0.019952,0.498011,-0.022232,-0.808045,0.588701
0.150001,0.119623,0.547935,0.519188,0.854623,0.008003
-0.162488,0.093060,0.449008,-0.082708,-0.353728,0.931685
-0.045367,-0.098554,0.751237,-0.015507,0.430730,0.902348
0.539323,-0.779468,0.446250,-0.219802,0.124585,0.967557
0.246455,-0.718313,0.138211,0.784394,0.307125,0.538888
-0.290930,0.863865,0.521248,-0.749888,0.032212,0.660780
-0.708609,0.742642,0.400390,-0.091414,0.531826,0.841905
-0.303725,0.881735,0.544031,-0.394785,0.846787,-0.356505
-0.147787,0.003290,0.580937,0.891376,-0.346677,0.292000
-0.165257,0.544025,0.635123,0.860643,-0.470442,-0.194881
-0.028020,-0.008301,0.294056,0.956666,0.289422,-0.032013
-0.121705,0.362492,0.674388,-0.635309,0.377197,-0.673873
0.678897,-0.383199,0.280772,0.242336,-0.821502,0.516147
-0.117830,0.036856,0.075004,0.477154,0.878674,0.016004
-0.167963,0.329953,0.676226,-0.803410,0.386722,0.452746
-0.480516,0.765583,0.501596,0.959137,-0.282585,0.014211
-0.145265,0.005765,0.109153,0.090404,0.995879,-0.007274
-0.153816,0.124574,0.309338,0.818335,0.398883,-0.413788
-0.075201,-0.322889,0.823624,-0.176073,0.701526,0.690550
-0.152278,0.400283,0.610875,-0.600062,-0.266827,-0.754142
-0.349306,0.662531,0.488512,0.505676,0.669651,-0.543929
-0.294129,0.121555,0.671217,-0.567074,-0.821715,0.056672
0.182357,-0.300552,0.620268,0.295810,0.929458,0.220464
0.111740,0.249298,0.425372,0.766472,0.393109,0.507924
-0.022422,0.379939,0.336664,0.527410,0.201545,-0.825360
0.503399,-0.457756,0.306473,-0.727989,0.042827,-0.684250
-0.567620,0.279483,0.397153,0.888345,-0.293789,-0.352890
0.246209,0.174318,0.409863,-0.327441,-0.073716,-0.941992
-0.517117,0.406804,0.177449,0.641675,0.516512,0.566981
-0.259435,-0.060280,0.824530,-0.331745,0.582701,-0.741893
0.137576,-0.625464,0.157597,-0.294259,0.180103,0.938602
0.188386,0.445561,0.743283,0.783463,0.403492,-0.472631
0.117952,-0.232032,0.713852,0.788254,-0.512588,-0.340453
-0.046597,-0.006792,0.950410,0.935132,-0.347411,-0.069525
-0.125519,-0.022065,0.852949,-0.061564,0.261021,0.963368
0.520500,-0.088593,0.477946,0.598486,-0.067975,0.798244
0.305693,-0.559600,0.357116,0.532592,0.126188,0.836912
0.344508,0.169428,0.532466,0.869361,-0.202627,0.450725
-0.368991,-0.086480,0.823517,0.970494,-0.225377,0.085714
-0.015655,0.946452,0.546975,-0.433315,0.693207,0.575936
0.367822,-0.461137,0.635483,-0.917990,0.339335,-0.205295
0.376926,0.501041,0.384975,-0.573964,0.755340,-0.316271
-0.081968,0.064324,0.279400,0.932675,0.360713,0.001947
0.116722,0.087325,0.741565,0.741516,0.493337,-0.454724
0.012334,0.956533,0.534078,0.360218,-0.840903,0.403887
-0.200935,0.114492,0.726029,-0.420578,-0.279229,0.863218
-0.387937,0.709801,0.486287,0.364634,0.923311,-0.120578
-0.173316,0.317818,0.273884,0.935419,-0.104400,0.337775
0.028081,0.175465,0.490257,0.557564,-0.617882,-0.554386
-0.070588,-0.018745,0.819067,0.910912,-0.399357,-0.103696
0.018854,-0.128136,0.385721,0.689534,0.411079,0.596286
0.411620,0.204624,0.458214,0.588347,-0.584131,-0.559141
-0.189740,-0.045429,0.769131,0.262451,0.852899,-0.451313
-0.005198,0.127592,0.551905,0.846431,-0.401661,0.349603
0.136592,0.161097,0.680556,0.272240,-0.946750,-0.171902
0.103251,-0.426967,0.754555,0.765360,-0.372506,-0.524845
0.292775,0.492106,0.429742,0.564523,-0.622636,-0.541884
0.045490,-0.537505,0.644690,-0.250850,-0.291328,0.923148
0.145818,0.292523,0.678638,0.309914,0.931804,-0.188932
-0.035770,0.053397,0.835895,-0.076450,0.807155,-0.585368
-0.499646,0.586707,0.392876,0.867645,0.380977,0.319451
0.411682,0.096864,0.442692,0.048981,-0.958758,0.279971
0.083382,-0.463431,0.679224,0.404733,0.630756,-0.662071
-0.314797,0.932023,0.532759,-0.404956,0.687815,-0.602429
0.329006,0.156751,0.550972,-0.519444,0.590128,-0.618003
0.798972,0.016571,0.480531,-0.271510,-0.663687,-0.696995
-0.113585,-0.048507,0.840904,0.637271,-0.105915,-0.763327
0.704672,-0.076157,0.484821,-0.203990,-0.205257,0.957213
-0.128164,-0.314317,0.846234,0.389192,0.909997,-0.142950
0.637867,-0.331220,0.272538,0.787137,0.231475,0.571694
-0.043213,0.254188,0.455430,-0.214651,-0.024770,-0.976377
-0.282071,0.686860,0.515678,-0.257172,-0.692660,0.673858
0.154553,0.280811,0.699942,0.303936,-0.923424,0.234333
0.114877,-0.850162,0.147045,0.477109,0.561357,-0.676199
0.048811,-0.030336,0.909374,-0.088605,-0.995731,0.025865
0.381417,0.192792,0.501729,-0.193021,0.277190,0.941227
-0.349245,0.245132,0.797030,-0.498803,0.669611,-0.550288
0.586258,0.231308,0.562390,0.922637,-0.321505,0.213017
-0.124412,0.059313,0.358648,0.207259,0.912033,0.353891
-0.072925,0.030698,0.966292,-0.594515,-0.085708,-0.799503
-0.228801,0.033837,0.862502,0.042423,0.967123,0.250747
0.347153,0.227082,0.540127,-0.664679,-0.706034,0.244371
0.492511,0.289987,0.515852,-0.123709,0.958670,0.256217
-0.273030,0.505448,0.649899,0.756617,-0.042270,0.652491
-0.076309,-0.268496,0.152494,0.345434,0.333980,0.877002
-0.089841,-0.088171,0.750345,0.502411,0.696639,0.512131
-0.658968,0.704669,0.400710,0.327777,0.481970,0.812568
0.006367,-0.368167,0.721939,0.733578,0.660182,0.161317
0.292529,-0.415920,0.670471,0.229208,-0.822671,-0.520265
-0.064498,0.005343,0.831631,0.827008,-0.440848,0.348870
-0.161628,-0.014881,0.945347,0.238608,0.391196,0.888837
-0.056747,0.349693,0.738513,-0.100786,-0.874063,0.475243
-0.119060,0.040780,-0.572530,0.891822,-0.451637,0.026016
-0.205487,0.210842,0.599470,0.426828,-0.339882,0.838032
-0.155969,-0.020375,-0.737967,0.993464,0.111824,-0.022907
-0.069665,-0.019771,0.772169,-0.716559,-0.677965,0.164032
-0.068865,-0.160494,0.899887,0.809871,0.577891,0.100748
0.713653,-0.044161,0.488565,-0.105745,0.382885,0.917724
-0.112970,-0.034260,0.956539,0.176936,0.933253,0.312621
-0.311476,-0.007697,0.974685,-0.464898,0.742085,0.482888
-0.041614,0.027317,0.813525,0.876170,-0.418678,0.238818
-0.462554,0.450874,0.574208,-0.361226,-0.915822,0.175459
0.396856,0.473210,0.398685,0.983618,0.156738,-0.089041
0.652877,-0.093121,0.520928,0.825255,-0.139444,0.547275
0.508996,-0.480455,0.661224,-0.544865,0.256025,0.798482
-0.040199,-0.124815,0.756274,0.695031,-0.608599,-0.382804
-0.071510,-0.103022,0.655442,0.872089,-0.449528,-0.193354
-0.511642,0.543119,0.587479,0.183360,-0.766588,0.615404
0.520377,0.215732,0.461865,0.763141,-0.400780,0.506943
-0.019100,0.181020,-0.985984,0.175160,-0.225518,-0.958364
-0.265709,0.597271,0.629074,0.704643,0.476641,-0.525635
0.331775,0.225150,0.511948,0.305222,0.907321,0.289150
-0.125212,0.051164,-0.722446,0.967895,0.199675,-0.152674
-0.200259,0.220562,0.810101,0.138581,-0.877470,0.459176
0.002676,-0.070422,0.798589,-0.613361,0.754461,-0.233616
-0.161443,-0.101633,-0.691855,0.999812,0.007597,0.017856
-0.273214,0.120106,0.550852,-0.680582,0.638736,-0.358920
-0.035463,-0.103565,0.786665,-0.785471,0.590301,0.185956
-0.098883,-0.069154,0.823264,0.768906,0.375651,-0.517368
0.142312,0.380603,0.725257,-0.342501,0.506135,0.791531
-0.004521,0.894895,0.552971,-0.404635,0.725913,0.556166
-0.122874,-0.309789,0.886178,-0.301825,-0.267225,0.915146
-0.348876,0.589483,0.647501,0.995400,-0.034051,-0.089547
-0.087319,0.324580,0.579964,0.927475,-0.314568,0.202083
-0.251376,0.591898,0.502235,0.737006,-0.164320,0.655608
0.107003,0.152706,-0.982520,-0.070283,0.150119,0.986167
-0.054716,-0.273265,0.840185,0.907138,-0.403354,0.120023
0.197736,-0.250385,0.606238,0.020736,0.854447,0.519125
-0.417403,0.111050,0.779470,0.782752,-0.208598,-0.586333
0.029742,-0.138700,-0.977084,0.047182,0.109465,0.992870
-0.002184,0.100425,0.677745,0.419541,0.596824,-0.683949
-0.791776,0.679193,0.417351,0.688556,0.552504,-0.469712
0.345370,-0.409158,0.653723,0.128433,0.983508,0.127342
-0.255436,0.525551,0.641172,0.579671,-0.108926,0.807537
0.042414,0.398171,0.751624,-0.102156,0.895805,-0.432547
0.264294,0.514142,0.410769,-0.545376,0.800113,0.249768
-0.144096,0.289746,0.729600,-0.655155,0.666057,-0.356567
-0.081598,-0.025144,-0.974672,-0.240356,0.546674,-0.802108
-0.270200,0.207099,0.814351,-0.206966,0.946067,-0.249244
-0.241350,0.146850,0.558673,0.023958,-0.786584,0.617018
-0.278197,0.748317,0.516997,-0.410216,-0.385671,0.826427
0.192446,0.038546,0.771649,0.844789,0.370930,-0.385671
0.217421,-0.336654,0.644476,-0.695096,0.159897,0.700910
-0.363885,0.207945,0.765347,-0.208538,-0.694119,0.688993
-0.200012,0.209575,0.511988,-0.691711,0.642766,0.329223
0.258573,0.480214,0.760044,0.429056,0.387119,-0.816119
-0.113401,0.844728,0.503847,-0.067788,-0.897659,0.435445
-0.415987,0.927314,0.570478,-0.564469,0.417799,-0.711912
-0.830591,0.768179,0.421268,-0.210584,-0.581873,0.785543
-0.112416,0.012285,-0.680823,0.993405,-0.101336,-0.053650
0.293821,-0.485828,0.646035,-0.541591,-0.803314,0.247720
0.069726,0.281898,0.695998,0.259600,0.492113,0.830923
-0.101160,-0.037822,0.958098,0.331875,-0.795921,-0.506328
-0.468028,0.380965,0.563616,0.438301,0.482082,-0.758610
-0.115554,-0.039271,0.756633,0.719270,0.561291,-0.409394
0.123611,-0.519273,0.163073,-0.269132,-0.148983,0.951510
0.516132,-0.410245,0.670990,-0.674639,0.340557,0.654891
-0.229416,-0.006490,-0.151468,-0.112331,-0.629342,-0.768967
-0.064251,-0.031543,0.514759,0.247981,0.829017,0.501235
-0.019408,-0.101875,0.754342,-0.694310,0.565090,0.445653
-0.874512,0.744272,0.415499,0.214194,0.137365,0.967084
0.169501,0.080926,0.786132,0.053673,-0.529969,0.846316
-0.098883,-0.010112,0.838999,0.242967,-0.309896,0.919202
0.300095,0.493012,0.433099,0.477366,-0.541373,-0.692125
0.508012,0.116363,0.528083,-0.431632,0.200182,-0.879557
0.150371,-0.252981,-0.096189,-0.152536,-0.982913,-0.103032
-0.147664,0.068973,0.445317,-0.165144,-0.163090,0.972692
-0.239689,0.245676,0.820613,-0.552018,0.830772,-0.071378
-0.144096,0.084609,-0.829300,0.914342,-0.376908,0.148051
-0.467167,0.354644,0.633778,0.753219,0.657333,0.023944
-0.004644,0.153310,0.729174,-0.577606,0.213201,-0.787982
-0.694768,0.633131,0.427783,-0.096375,0.036668,0.994669
0.503337,0.067524,0.526271,0.186436,-0.157142,0.969818
0.247132,0.395031,0.718142,-0.642969,-0.743539,0.183686
-0.149140,-0.066256,-0.982813,0.247319,0.005611,-0.968918
-0.035524,0.310876,0.583442,-0.333216,-0.397970,0.854744
0.143788,0.215129,0.674308,-0.019909,0.475526,0.879477
-0.368006,-0.014942,0.837320,0.982303,-0.084723,0.167041
-0.184450,-0.083220,0.864194,0.757848,0.419323,-0.499835
0.449266,-0.354825,0.645662,-0.220552,0.708755,0.670092
-0.117646,0.308159,0.668166,0.844790,0.031638,0.534162
-0.265463,-0.065230,0.818068,0.616211,-0.720103,0.318961
-0.589026,0.535392,0.411635,0.441282,0.782792,0.438756
0.405222,0.436385,0.411422,-0.770765,0.379282,0.511924
0.568295,0.137553,0.522420,0.227607,0.090327,0.969555
-0.243625,-0.061668,0.814777,0.955447,-0.287879,0.065167
-0.050903,-0.048870,0.935221,0.832395,-0.521801,0.186661
-0.166487,0.020496,0.774340,-0.146988,0.314623,0.937767
-0.031772,-0.138278,0.612873,0.699270,0.633487,0.331235
-0.327038,0.284494,0.705551,-0.367900,-0.126957,0.921158
-0.265401,0.217000,0.817935,0.243558,-0.963756,0.108880
0.001077,0.164418,0.849725,0.987204,-0.131126,-0.090747
-0.230523,-0.026412,0.958471,-0.437494,0.827969,0.350807
-0.245963,0.111473,-0.994338,-0.202314,0.152129,0.967432
-0.124842,-0.003954,0.375449,0.100206,-0.988919,-0.109533
0.496816,-0.469709,0.260507,0.728543,0.141969,-0.670127
0.251314,0.044885,0.785306,-0.012888,-0.831549,0.555302
0.738689,0.038003,0.506552,-0.218699,-0.971579,0.090580
-0.224372,0.396782,0.486660,-0.064116,-0.793335,0.605400
-0.578200,0.550122,0.591742,-0.719204,0.691499,-0.067640
0.245041,0.887591,0.521567,-0.184557,-0.856447,0.482117
0.111555,-0.049896,0.024549,0.134779,0.964924,0.225294
-0.204380,0.495125,0.633578,-0.323334,0.077045,0.943143
0.138375,0.291014,0.414580,0.048961,0.934792,0.351805
0.382893,0.092276,0.422081,-0.388251,0.677619,0.624575
0.001999,-0.275439,0.723338,0.497597,-0.087195,0.863014
-0.048319,0.118295,0.785146,0.918227,0.159012,0.362733
-0.221604,0.210540,0.314481,0.123749,0.006995,0.992289
0.131178,-0.224124,0.803785,-0.242231,0.623607,0.743262
-0.119922,-0.011561,1.000000,0.277593,0.952020,0.128839
0.548549,-0.177518,0.262626,0.286506,-0.229180,-0.930264
-0.258081,0.600894,0.635376,0.321476,0.635514,-0.701979
-0.360317,0.881131,0.538541,0.337316,0.827017,-0.449734
-0.163288,0.212291,0.811020,0.383961,0.693384,-0.609748
0.263187,0.186574,0.446196,-0.633371,0.669333,0.388375
-0.009258,-0.061970,0.765867,0.903760,0.410722,-0.120519
0.561468,-0.212110,0.260227,0.416441,0.222834,-0.881432
-0.280103,0.416403,0.477533,0.892664,0.183386,-0.411729
0.521914,-0.371487,0.282717,0.828004,-0.018311,-0.560423
-0.263002,0.155302,0.761057,0.829265,0.496018,0.257460
-0.109034,0.103625,0.945294,0.730478,0.663894,-0.160143
-0.151293,0.062332,-0.696038,0.981997,0.175771,-0.069180
0.552363,-0.417550,0.263665,0.883194,-0.443961,-0.151220
0.354842,-0.310634,0.232688,-0.088410,-0.306504,0.947755
-0.213545,0.158381,0.827541,-0.778862,-0.384273,0.495690
0.234337,0.240967,0.700542,-0.552359,0.238391,0.798792
-0.830714,0.606085,0.412861,-0.200869,0.725096,-0.658701
-0.148587,0.172447,0.721793,0.955395,-0.271138,0.117063
-0.029126,-0.198225,0.879889,-0.666114,0.593391,0.451862
-0.050657,0.343415,0.742644,-0.225802,0.889821,-0.396525
-0.069172,-0.146609,0.143420,0.941645,0.264933,-0.207640
0.148894,0.047300,0.787797,-0.338886,0.040157,0.939970
0.446313,-0.458541,0.652884,-0.633045,0.339140,0.695872
0.021622,0.195689,0.675733,-0.485314,-0.399548,0.777710
-0.083321,-0.034683,0.784280,0.329435,0.881239,0.338955
-0.821979,0.729421,0.418230,-0.577656,-0.505454,0.640960
0.164088,-0.415316,0.747014,-0.638789,0.497569,0.586834
0.176821,0.251170,0.666100,0.590966,0.728661,-0.346138
0.939409,0.168040,0.475548,0.265196,-0.328114,-0.906649
0.538215,0.259440,0.461159,-0.325560,0.708391,0.626253
-0.040999,0.125419,0.675334,0.885424,0.250376,-0.391582
0.163473,-0.339914,0.621240,0.628724,0.728601,-0.271749
0.483099,-0.532675,0.666807,-0.442103,-0.163690,0.881902
-0.077969,0.416644,0.676120,0.415956,-0.904894,-0.090258
-0.186418,0.036795,0.906629,0.511944,-0.345674,0.786399
0.388429,0.126022,0.537049,0.333673,0.903770,-0.268073
0.147479,-0.014459,0.484422,0.884952,-0.316471,0.341623
0.145327,-0.196897,0.644650,-0.247722,-0.691183,-0.678896
-0.324516,0.966132,0.557394,0.297402,0.872793,0.387020
0.001015,0.210721,0.559859,0.763153,-0.637406,0.106354
0.153939,0.229738,0.532559,-0.651422,0.715825,0.251483
0.346353,0.275197,0.497052,-0.367450,0.614267,0.698324
0.313382,-0.041384,0.606651,-0.244334,0.786195,0.567625
-0.166241,0.297896,0.660092,0.692262,0.679290,-0.243593
0.139298,0.177276,0.542792,0.318117,0.721904,0.614537
-0.139421,-0.117692,0.907415,-0.200563,0.778356,0.594926
-0.019162,-0.108274,0.828647,-0.037045,0.517273,0.855018
-0.846092,0.735458,0.419563,0.212657,0.218296,-0.952430
-0.091625,0.003169,-0.943735,0.992257,0.116583,0.042832
0.227693,-0.338827,0.419616,0.092054,0.307891,0.946958
-0.114016,-0.336654,0.858172,-0.504240,-0.848383,-0.161209
0.124842,0.159045,0.548041,-0.593330,-0.199416,-0.779867
-0.125642,0.014157,-0.792793,-0.152141,-0.983500,0.097886
0.089534,0.882701,0.500650,-0.242835,0.962434,0.121457
0.060499,-0.444475,0.654576,0.564337,0.245892,0.788074
-0.793005,0.717649,0.424919,0.182871,0.121411,-0.975611
-0.510288,0.453228,0.574781,0.199672,-0.723429,0.660895
0.208009,0.288901,0.529282,-0.410287,0.896664,0.166309
0.062590,-0.282743,0.418657,-0.163269,-0.367532,0.915568
-0.014425,-0.207341,0.724177,0.841414,-0.480157,-0.247933
0.165134,0.357360,0.436484,-0.492155,0.376859,-0.784704
0.551871,0.024178,0.504473,-0.304228,0.929186,-0.209900
-0.110448,0.004316,0.932836,-0.581622,-0.811772,0.052367
0.777196,0.066377,0.484848,-0.220589,0.581329,0.783197
-0.007289,-0.318301,0.407305,0.099961,-0.119984,-0.987731
-0.156338,0.354282,0.671163,0.905812,-0.275788,0.321629
-0.798480,0.720909,0.422241,0.256899,-0.252646,0.932831
-0.297081,0.551330,0.641279,-0.264069,-0.448160,-0.854061
0.696306,0.065411,0.524205,-0.253913,0.150899,-0.955384
0.109833,-0.472969,0.411529,-0.274215,-0.612719,0.741203
0.583551,0.344441,0.441200,-0.429706,0.712457,0.554759
-0.101160,0.727490,0.478253,0.167798,-0.384817,0.907612
0.387322,0.072353,0.530081,-0.614734,0.777279,-0.133937
0.309937,0.133327,0.552451,-0.619957,0.518977,-0.588487
-0.024390,0.055148,-0.141156,0.974914,0.203646,-0.089841
0.029004,-0.058650,0.729720,0.467179,0.732556,0.495082
-0.083136,-0.096864,0.931504,0.955711,-0.292778,0.029967
-0.678344,0.522956,0.421215,0.134216,-0.230354,0.963807
0.033925,-0.246219,0.798283,0.296381,0.923685,0.242826
-0.189432,0.069516,-0.727375,0.976567,0.167973,-0.134544
-0.329929,-0.107006,0.785972,0.812431,0.373914,0.447376
-0.140037,0.311419,0.453191,0.169865,-0.138175,-0.975732
0.244302,0.412659,0.398805,0.945747,0.202892,-0.253768
0.665549,0.275499,0.463597,-0.400710,0.069899,0.913535
0.052748,0.243020,0.567387,0.976220,-0.118850,0.181299
-0.051764,-0.044704,0.259255,-0.657931,-0.432718,0.616345
0.027650,-0.249117,0.782801,0.986723,0.134743,0.090678
0.016455,-0.064264,0.795791,-0.474574,-0.406746,-0.780600
-0.259927,0.239760,0.152134,-0.608891,-0.048718,-0.791756
0.186295,-0.257146,0.647541,0.327128,0.824750,-0.461275
0.448344,-0.609406,0.274883,0.955568,-0.141193,-0.258756
0.460215,-0.370582,0.641519,-0.691470,0.712236,0.120786
-0.162059,-0.197923,-0.575634,0.895335,0.011660,-0.445240
-0.291607,0.682212,0.499584,-0.535463,-0.824366,0.183578
-0.126934,0.082013,0.685140,-0.244240,0.914859,-0.321528
-0.106204,0.259682,0.586759,0.726574,-0.571465,0.381467
-0.215821,0.119563,0.764135,0.328164,0.944137,0.030233
-0.127918,0.207643,0.729653,0.855327,-0.115803,-0.504981
0.152277,-0.364726,0.579205,-0.831162,-0.208301,0.515539
0.026421,-0.195931,0.761896,-0.524863,0.264046,0.809197
-0.290130,0.810559,0.512840,-0.647861,0.072777,-0.758274
0.123366,0.358145,0.405147,-0.811456,0.569241,-0.132304
-0.222280,-0.133509,0.672989,0.929394,0.074574,0.361478
0.007597,-0.025929,0.900021,0.177571,0.961372,-0.210315
0.383693,-0.429201,0.683448,-0.617331,0.687726,0.382015
0.134193,-0.451115,0.652604,0.304932,-0.479257,-0.823000
-0.069049,-0.153068,0.816456,0.582748,-0.557563,0.591210
0.818780,0.018684,0.495040,-0.294643,0.704221,0.645956
-0.187156,-0.245193,0.574342,0.003590,-0.566650,0.823951
-0.019777,-0.036192,0.752956,0.955607,0.204474,-0.212147
0.128041,-0.715295,0.160221,-0.062994,0.093423,0.993632
-0.119675,0.043617,0.821306,0.861792,0.089726,-0.499263
0.250700,0.401189,0.762176,-0.635878,0.326985,0.699099
-0.584966,0.453711,0.409943,0.085397,-0.262054,0.961268
-0.064867,-0.015545,0.873867,-0.229148,0.748806,-0.621917
-0.381848,-0.084065,0.739459,0.447001,0.418965,-0.790354
0.399194,-0.682936,0.416152,-0.310279,-0.534572,0.786104
0.563374,0.337801,0.446170,-0.360009,0.748183,0.557329
0.096484,-0.112258,0.850790,0.129566,0.206722,0.969783
-0.010057,-0.070844,0.776659,0.621432,0.736734,0.266542
-0.031587,-0.192188,0.876212,-0.633578,0.693557,0.342866
-0.044382,0.067886,0.910506,0.903053,-0.121380,0.412021
0.032325,-0.415618,0.426837,0.052141,0.228404,0.972169
-0.211023,0.035528,0.931744,-0.551901,0.612058,0.566383
-0.226955,0.000030,0.476947,-0.125690,0.991191,-0.041737
-0.408298,0.668810,0.497319,0.376835,0.912610,-0.158554
-0.294805,0.274171,0.444265,-0.566254,0.524149,0.636101
-0.306309,0.906909,0.518650,0.362552,0.557981,-0.746467
-0.201365,0.229617,0.832138,0.531323,0.846381,-0.036553
-0.185003,0.227504,0.464303,0.094875,-0.436835,0.894524
0.837050,0.064022,0.475668,-0.075126,0.305462,0.949236
-0.239812,0.043195,0.780069,-0.003886,-0.909975,0.414645
-0.548672,0.672733,0.394475,0.267074,0.409564,0.872313
0.001692,0.095355,0.835482,-0.734936,0.677733,0.023381
0.628456,0.031422,0.518863,0.241393,-0.121325,-0.962814
-0.041430,0.026291,0.957871,0.947332,0.025663,0.319223
0.361794,-0.061849,0.595060,-0.241622,-0.502612,0.830060
-0.195153,0.037822,0.791661,0.934079,-0.152150,-0.323029
-0.572294,0.546922,0.597911,-0.536010,0.668010,-0.516194
-0.363393,0.752845,0.511655,0.873750,0.349664,-0.338077
0.437272,0.241994,0.447249,-0.671990,0.478599,0.565130
0.049918,0.198708,0.496493,-0.635659,0.660131,0.400206
0.302617,-0.256482,0.639214,0.687001,-0.061034,0.724089
-0.620767,0.552476,0.201977,0.621001,0.528268,0.579042
0.076124,0.108515,0.455843,0.605371,0.765698,0.217329
-0.115430,-0.042893,0.240642,0.925457,-0.168040,-0.339546
0.146310,-0.318060,0.745588,-0.131673,0.288565,0.948363
0.561222,-0.045549,0.484608,-0.085977,0.428737,-0.899329
-0.314182,0.257026,0.540553,-0.407115,0.863626,-0.297335
-0.292222,0.932446,0.550213,0.493515,-0.165837,0.853780
0.307661,-0.434815,0.660145,-0.075968,0.985389,0.152439
-0.101160,0.751154,0.492296,-0.067783,-0.607378,0.791516
0.565527,0.049956,0.516078,-0.594722,0.802542,-0.047246
0.010180,-0.117209,0.871442,-0.762538,-0.335444,-0.553185
0.143173,-0.260467,0.602761,0.205133,0.711100,0.672501
0.435118,-0.301941,0.616510,-0.222945,0.345258,0.911643
0.364008,-0.258173,0.605079,-0.309603,0.771939,0.555209
0.116722,-0.176492,0.793153,-0.699412,0.182727,0.690966
-0.080122,0.020254,-0.120504,0.925214,-0.378344,0.028879
-0.378711,0.330073,0.639227,0.060147,-0.698581,0.712999
-0.094639,0.595400,0.644676,0.208391,-0.257975,0.943410
-0.106696,0.021824,0.148590,0.835555,0.545074,0.068870
0.253837,-0.195448,0.214794,-0.538630,0.139068,0.830986
0.349921,-0.566060,0.640120,-0.414233,0.552785,0.723077
-0.333190,0.943071,0.550133,-0.253149,0.190978,-0.948390
-0.060868,-0.010535,0.860130,0.904490,0.215971,0.367770
0.003845,-0.138217,-0.976937,0.061117,0.148008,0.987096
0.702949,-0.336050,0.256590,0.732979,0.145377,0.664535
-0.307108,0.421534,0.637255,0.214562,0.613524,0.759968
0.207393,-0.830119,0.153240,-0.124713,-0.263876,0.956460
0.068249,0.244408,0.471444,-0.389175,0.596010,0.702364
0.273521,0.328926,0.712120,-0.373493,-0.793789,0.480001
-0.321810,0.254188,0.798349,-0.551109,0.650555,-0.522548
0.057177,0.104289,0.654136,-0.369088,0.102643,0.923709
-0.281826,-0.020435,0.831218,-0.211955,-0.517092,0.829271
0.264479,-0.453591,0.308831,-0.666357,0.187929,-0.721561
0.392797,-0.120831,-0.054433,0.092855,-0.944189,0.316045
-0.081476,-0.169972,0.718955,0.851469,-0.025643,0.523778
0.334297,0.176613,0.552811,0.360169,-0.336333,0.870149
-0.052071,-0.021039,0.812525,-0.128369,-0.962767,0.237908
-0.869714,0.763832,0.429915,0.358037,-0.590766,0.723052
0.327900,-0.142987,0.220603,0.796268,-0.009873,-0.604863
-0.654169,0.283648,0.390944,0.890041,-0.253758,-0.378726
0.303479,-0.339672,0.656654,-0.211057,0.156940,0.964793
-0.192447,-0.062030,0.880182,0.915163,0.251332,0.315134
-0.070403,0.936913,0.533865,0.076972,-0.909839,0.407760
-0.085781,-0.063479,0.447888,0.497045,0.864220,0.077914
-0.138622,-0.011078,0.938179,-0.385196,-0.363883,-0.848064
-0.358226,0.253463,0.788357,0.502889,0.860110,-0.085515
0.373666,-0.732319,0.431914,0.189804,-0.486780,0.852655
0.121828,-0.169731,0.663396,0.792096,0.040817,0.609030
0.526097,-0.318241,0.253925,0.327724,-0.936980,0.121102
-0.020208,0.000694,0.729507,-0.463088,0.880762,-0.099036
-0.195522,0.541429,0.486846,0.371596,0.150758,0.916072
-0.004030,0.161701,0.574795,0.454331,0.275662,0.847109
-0.488697,0.490175,0.668392,-0.381482,0.796235,-0.469554
0.492449,0.327055,0.438242,-0.008287,0.943705,0.330685
0.534402,0.265779,0.518276,0.605946,0.647262,-0.462474
0.430935,-0.676537,0.280079,0.973019,-0.208742,-0.098286
0.228924,0.187479,0.545350,-0.432566,0.109682,0.894906
-0.065113,-0.162667,0.831631,-0.297293,0.558386,0.774482
-0.022422,0.135501,0.882980,0.520325,0.630834,-0.575596
0.158921,-0.348607,0.408678,0.306303,0.327922,0.893670
0.170547,-0.573787,0.420682,-0.639730,-0.544673,0.542288
-0.000708,0.353618,0.467034,-0.316517,0.418780,0.851140
0.295912,-0.528268,0.425865,-0.118668,0.191316,0.974328
0.283425,-0.641643,0.419669,0.997621,-0.019181,-0.066212
0.390951,0.387123,0.396087,0.840703,0.540493,0.032942
-0.209117,-0.120227,0.969503,0.820830,-0.167651,0.546014
-0.170178,-0.048749,0.833830,0.080093,0.924613,0.372392
-0.064067,-0.136768,0.824690,0.872702,0.078534,-0.481895
-0.157629,-0.140391,0.697051,0.172683,0.688167,-0.704703
-0.238458,0.180416,0.717969,-0.286617,0.214885,0.933636
0.948512,0.151921,0.481304,-0.182199,0.141743,0.972991
0.211823,-0.383924,0.364297,0.265392,0.016581,0.963998
0.312890,-0.479006,0.417378,-0.449553,0.850728,0.272332
0.172208,0.373298,0.730373,-0.121897,0.874626,0.469224
-0.467229,0.339853,0.562750,-0.549775,-0.555668,0.623683
-0.120598,0.176431,0.589610,-0.568206,0.175153,-0.804029
-0.339711,0.166953,0.792380,0.990172,-0.049004,0.130989
0.398640,-0.392919,0.635177,-0.388441,0.674932,0.627360
-0.040876,-0.166350,0.584587,0.335140,0.922619,-0.190935
0.086027,-0.541791,0.392556,-0.654803,-0.689493,0.309567
0.507150,0.271152,0.451659,-0.032231,0.661449,0.749298
-0.034294,-0.012467,0.376994,-0.740657,0.668994,-0.062241
-0.303233,0.416765,0.455869,-0.884487,0.061308,0.462519
0.125888,-0.279966,0.307046,0.516736,0.853056,-0.072661
0.069111,-0.396963,0.670337,0.632228,0.587914,-0.504623
0.300157,-0.007395,0.068996,0.400483,-0.882711,0.245835
0.030603,-0.150412,0.763535,0.005656,-0.189987,0.981770
0.190292,-0.757795,0.156278,0.353593,-0.082697,0.931737
-0.091933,-0.139968,0.915889,0.784927,-0.615645,-0.069797
0.313936,-0.355610,0.647128,-0.414659,-0.269264,-0.869226
-0.243687,0.166471,0.780402,0.916464,-0.072809,-0.393438
0.267432,-0.224064,0.595486,0.329504,0.814027,0.478317
-0.236921,0.078330,0.685060,-0.426142,-0.839011,0.338324
0.389783,-0.309185,0.232781,-0.045593,-0.487529,0.871916
-0.461446,-0.004739,-0.999867,-0.159712,0.145265,0.976417
0.310060,0.205409,0.456189,0.512638,-0.375281,-0.772248
0.369237,-0.753811,0.407518,0.760304,-0.063881,-0.646419
0.208932,-0.519515,0.416871,-0.290336,0.100735,0.951608
-0.025190,0.169730,0.723924,-0.085203,0.662314,0.744366
-0.197306,0.077847,-0.990301,-0.295509,0.240789,0.924497
0.423677,-0.391470,0.640013,-0.515572,0.674317,0.528661
0.028204,-0.322044,0.709282,0.991439,-0.105310,0.077185
-0.062037,0.062151,0.713679,0.764755,0.409042,0.497830
-0.156461,0.602221,0.475375,-0.186249,-0.345083,-0.919907
0.011595,-0.172145,0.632539,-0.770139,-0.224478,0.597072
-0.201365,0.348486,0.708336,-0.389909,0.411780,0.823655
0.049364,-0.106644,0.825849,0.958995,-0.280907,-0.037680
-0.142067,0.561230,0.624558,0.899593,-0.294134,0.322827
0.357058,0.183012,0.571757,0.548259,0.073513,-0.833071
0.191585,-0.002385,-0.977936,-0.157060,0.076043,0.984657
