0.622013,0.376256,0.630382,0.977139,-0.119113,-0.176102
0.028433,0.216687,0.090073,-0.205016,-0.403156,0.891871
0.012896,-0.182938,0.858322,-0.143352,-0.932229,0.332265
-0.152356,-0.166934,0.968683,-0.588120,0.727842,-0.352649
-0.279948,-0.089862,0.894380,0.007849,0.660272,0.750985
0.103135,-0.791884,0.242858,-0.283781,0.055462,-0.957284
-0.273236,-0.027990,-0.991212,0.025710,0.133185,0.990758
-0.140797,-0.093612,0.959096,0.939491,-0.342523,0.005931
-0.064230,-0.027923,0.794745,0.995500,0.057396,-0.075396
-0.538920,-0.553971,0.670068,-0.622722,-0.377608,-0.685295
-0.128740,-0.343712,0.904766,-0.759085,0.641969,-0.108010
0.557566,-0.658229,0.318668,0.180538,0.283486,0.941829
-0.540970,0.247824,0.718281,0.356994,-0.791949,-0.495350
-0.584537,-0.414892,0.765786,-0.471004,0.721357,-0.507738
0.350053,0.047945,0.186839,0.233619,-0.762015,0.603949
0.313260,-0.308289,0.317149,0.230267,-0.916763,0.326379
-0.253410,-0.094415,0.794182,0.528101,0.847460,-0.054038
0.107797,0.054908,0.187691,-0.750034,0.521030,-0.407402
-0.167894,-0.160573,-0.530289,0.850183,0.505422,-0.147437
0.199964,-0.140284,-0.980170,-0.145158,0.152678,0.977557
0.125136,0.308625,0.326645,0.594283,0.176889,-0.784562
-0.390572,0.255658,0.570734,0.830527,0.255293,-0.495025
-0.313072,0.213272,0.759525,-0.492566,-0.258441,0.831016
-0.379509,-0.077809,0.453182,0.725085,0.418417,0.546973
-0.171249,-0.176577,0.953333,0.429033,0.716720,0.549767
0.016873,0.521830,0.757299,0.813457,-0.120742,0.568955
-0.053664,0.009241,0.077146,-0.256451,0.002321,0.966554
0.040242,0.618589,0.661882,-0.772465,-0.509691,0.378832
-0.202323,0.103857,0.661122,0.708815,0.347486,-0.613868
-0.282247,0.607473,0.735006,0.885244,-0.178814,0.429381
-0.135825,-0.083434,0.757692,0.850348,0.479696,-0.216336
-0.159440,0.146445,0.440923,-0.638243,-0.246909,0.729165
0.717785,-0.568033,0.480465,0.376986,0.894749,-0.239386
-0.127249,-0.569037,0.695896,-0.556480,0.704958,0.439733
-0.190205,-0.373711,0.800469,0.777579,-0.615924,0.126521
-0.034087,-0.018816,-0.982960,-0.485374,0.239110,0.840975
-0.030546,-0.366010,0.397451,-0.464883,0.020587,0.885133
0.559616,0.267845,0.388833,-0.640973,-0.597233,-0.482148
-0.363909,0.527856,0.499391,0.830343,0.503857,-0.238030
0.810014,-0.496853,0.328622,-0.122702,0.730011,-0.672330
-0.356266,-0.413486,0.657572,0.191819,-0.275642,-0.941927
-0.008608,-0.053971,-0.983707,0.388828,-0.088755,-0.917025
-0.086354,-0.373845,0.858557,0.858808,-0.497428,-0.122534
-0.444889,-0.196196,0.589543,-0.305436,0.883893,-0.354179
-0.099778,-0.431632,0.845224,-0.500359,-0.693383,-0.518519
0.302508,-0.570711,0.651665,-0.533156,0.669126,0.517701
0.102887,-0.286862,0.756945,-0.624919,-0.671131,-0.398822
0.418913,-0.743739,0.628207,-0.369234,0.021798,0.929081
-0.442031,-0.146176,0.769571,-0.724776,-0.655737,0.211442
-0.206052,0.521160,0.736984,0.099482,-0.798088,0.594272
0.374290,-0.014665,-0.020747,-0.104801,0.123774,0.986761
0.271745,-0.199679,0.421774,-0.255717,0.781891,0.568556
-0.199279,0.192848,0.748143,0.916873,-0.218630,-0.333982
0.085859,0.101580,0.220330,0.377577,-0.771001,0.512828
-0.340480,0.165462,0.700022,0.110160,-0.464744,0.878566
-0.135700,-0.371769,0.913620,-0.557087,0.410330,-0.722000
0.244773,-0.541114,0.445690,0.157918,-0.776176,0.610420
-0.422143,-0.104862,0.370941,-0.572696,0.741651,-0.349247
0.402754,-0.112160,0.422206,-0.003427,-0.212217,0.977217
-0.070506,-0.686085,0.409973,0.131537,0.878632,-0.459025
-0.040738,-0.131646,0.407589,-0.346721,-0.772561,0.531916
-0.113948,0.013928,0.942593,0.942971,0.257574,-0.210857
0.138375,0.946565,0.504329,0.332715,0.119059,0.935481
-0.533513,0.002946,0.322375,-0.265616,0.622452,0.736208
0.201206,0.213071,0.685431,-0.521156,0.710979,-0.472128
-0.271806,0.043190,0.860037,0.358950,-0.643126,0.676420
-0.065535,0.069707,0.675935,0.695610,0.435528,-0.571351
-0.007612,-0.815455,0.459299,-0.018468,-0.997981,0.060771
0.150803,-0.267444,0.761451,0.332823,0.906255,0.260635
0.113576,-0.634927,0.431427,-0.046911,0.699083,0.713500
0.040926,0.191443,0.844648,0.230273,0.267467,0.935647
-0.856809,-0.061872,0.621567,0.153276,0.749556,-0.643951
-0.266647,-0.046739,0.840731,0.335309,0.879153,-0.338612
0.593239,-0.095955,0.535763,-0.173517,-0.816337,0.550896
-0.071813,-0.288335,0.916960,-0.265169,0.838294,0.476392
0.565769,-0.574193,0.710461,-0.152697,-0.636166,0.756291
-0.378018,0.029597,0.744908,-0.464984,0.752809,0.465906
-0.072433,0.002478,0.756460,0.404918,-0.707033,0.579780
0.146578,0.416499,0.772649,-0.506256,0.578061,-0.639961
0.211461,0.461029,0.784490,0.355422,-0.765576,0.536253
-0.693607,0.187827,0.476509,0.010573,0.918269,0.395816
-0.196917,0.017678,0.644815,-0.162769,-0.703095,0.692216
-0.804170,0.090465,0.735347,-0.132809,-0.809211,0.572310
-0.336004,-0.812441,0.658529,0.520166,-0.433604,-0.735809
-0.356389,0.325901,0.734469,-0.063406,0.994487,0.083520
-0.250613,-0.178184,0.564578,0.113157,0.946654,-0.301729
0.014015,0.578479,0.657913,-0.079754,0.703858,0.705849
0.164850,-0.632516,0.643558,0.943246,-0.329856,0.038495
0.108979,-0.501138,0.591612,0.347885,-0.689967,0.634761
0.042417,-0.513325,0.817155,-0.560160,0.680194,0.472818
0.012524,-0.291951,0.833056,0.485436,0.865946,-0.120370
-0.021721,-0.227602,0.825499,-0.385738,-0.039598,0.921758
-0.447065,-0.042185,0.730226,-0.734169,0.238406,-0.635735
0.040367,-0.124548,0.700232,-0.114828,0.008705,0.993347
0.409838,-0.130173,0.741202,0.308531,0.255628,-0.916222
-0.230228,-0.186286,0.345152,-0.030777,0.925819,0.376712
-0.557875,-0.460292,0.746847,-0.187266,-0.952954,-0.238347
-0.768185,-0.072452,0.643060,-0.125657,-0.440465,0.888932
-0.150367,-0.130708,0.954721,0.594762,0.468829,-0.653037
0.410834,0.034552,0.579680,0.939458,-0.060213,0.337332
0.112894,0.475225,0.777849,-0.371750,0.834869,-0.405951
-0.386843,-0.537699,0.788629,0.273011,-0.961181,0.039957
0.026383,-0.012254,-0.973241,-0.260035,0.417750,0.870555
0.051553,0.634325,0.696198,0.904600,-0.167901,0.391801
-0.137130,0.278157,0.764057,-0.027100,-0.704382,0.709304
0.221528,-0.148922,-0.977446,-0.145158,0.152678,0.977557
-0.017122,0.364203,0.836619,-0.597195,-0.761655,-0.251477
-0.392249,0.600777,0.589111,0.924435,0.079161,0.373032
0.262857,-0.237713,0.861334,0.905611,0.245088,-0.346121
-0.240109,-0.138476,0.429213,-0.033502,0.805046,0.592266
0.092882,0.209053,0.777561,0.953078,-0.091723,-0.288496
-0.830334,0.082965,0.653787,-0.657181,0.432318,-0.617425
-0.585345,-0.433173,0.743507,-0.500970,-0.050634,-0.863983
0.226624,-0.262421,0.466869,0.213195,0.938260,0.272427
-0.062489,0.519821,0.686505,0.952156,0.102362,0.287959
-0.361362,0.608411,0.738805,0.309164,-0.736196,0.602024
-0.101519,-0.106870,0.019463,0.846469,-0.531932,0.023235
0.017621,-0.498862,0.814143,-0.674262,0.639247,0.369776
-0.282929,0.373309,0.796265,-0.647654,0.694217,-0.314017
-0.677138,-0.170617,0.624082,0.279919,-0.233589,0.931172
-0.275161,0.234298,0.375578,0.272399,-0.744623,0.609372
-0.357385,0.591536,0.554270,-0.556420,0.706426,0.437447
-0.794785,-0.351212,0.592791,0.682270,0.187234,0.706718
0.310899,-0.117517,0.594232,0.368436,0.578904,-0.727410
-0.733631,-0.021963,0.638175,-0.252357,0.209501,-0.944683
0.346696,0.519955,0.443267,0.774863,-0.051472,-0.630030
0.100152,-0.052497,0.703598,-0.036134,-0.039652,0.998560
-0.026878,0.373511,0.734076,-0.681697,-0.515367,0.519312
0.675896,-0.717155,0.283527,-0.340160,-0.133820,-0.930797
-0.135327,0.304071,0.462743,0.739655,0.282269,0.610929
-0.042603,0.467591,0.755059,0.461842,0.224319,-0.858128
-0.342345,0.583434,0.743271,0.555309,0.579703,-0.596302
0.540724,0.276617,0.363240,0.848176,-0.526892,-0.054613
-0.553152,0.307754,0.666649,0.404427,0.845009,-0.349856
-0.194617,-0.039708,0.820705,0.482854,-0.525181,0.700740
-0.420838,-0.891389,0.670723,0.689783,-0.049112,0.722348
0.208415,0.416633,0.340751,0.876041,-0.481758,0.021468
-0.122153,0.143632,0.620990,0.906068,-0.411140,0.100027
-0.116745,-0.055779,0.433064,0.214385,-0.334318,-0.917753
-0.229357,-0.023637,0.944623,0.076441,-0.545750,-0.834454
0.186788,-0.675037,0.422284,-0.579335,-0.587784,-0.564695
-0.112271,0.017812,0.897759,0.827919,0.469257,0.307160
-0.341660,-0.615776,0.817706,-0.416329,0.735290,0.534808
-0.270501,-0.037967,0.747685,-0.311766,0.947540,-0.070498
-0.496660,-0.307553,0.720075,-0.596627,0.556592,0.578137
0.241354,0.158699,0.211149,-0.063071,-0.637120,0.768180
-0.716975,-0.169010,0.635516,0.554954,0.295402,0.777666
-0.083310,-0.199746,-0.126681,-0.714994,-0.698852,0.019713
-0.271680,0.367149,0.799788,0.014740,-0.298839,0.954190
-0.010658,0.006228,0.830384,0.997594,0.021282,-0.065981
-0.311953,-0.139547,-0.995560,0.031393,0.132469,0.990690
0.252542,0.528592,0.353901,0.988308,-0.099065,-0.115902
-0.169881,0.127695,0.671495,-0.704127,0.060723,0.707473
0.527051,0.190907,0.642759,0.787797,0.033273,-0.615036
0.159194,0.404982,0.716303,0.285287,-0.905967,0.312787
0.026383,0.435383,0.540413,0.623319,0.350827,-0.698852
0.439173,-0.334672,0.684148,0.721697,-0.191666,-0.665145
0.347815,0.066694,0.604631,0.681162,0.265593,-0.682260
-0.704484,0.184211,0.739564,-0.088841,-0.592172,0.800899
-0.300518,-0.325298,-0.989417,-0.422432,0.045571,0.905248
-0.346570,0.679858,0.524735,-0.115442,0.132129,0.984487
0.149064,-0.442815,0.664305,-0.640369,0.396473,-0.657827
0.611200,0.271060,0.684711,-0.535537,-0.729337,0.425756
0.564215,-0.099906,0.528416,-0.026772,-0.834580,0.550236
0.447935,-0.013995,0.539706,0.234194,0.338634,-0.911307
0.506789,0.327575,0.388008,0.559338,0.553885,0.616727
-0.148690,-0.151600,0.584304,0.858750,-0.511390,-0.032071
-0.620397,0.252511,0.657743,0.150256,0.869488,0.470547
0.049503,-0.338087,0.818282,-0.525739,-0.846512,-0.083764
-0.301698,-0.481719,-0.979659,-0.379054,0.022638,0.925098
0.132842,0.217021,0.528717,0.289427,-0.128675,0.948512
0.094933,0.091068,0.210625,-0.379774,0.801290,-0.462283
-0.059507,0.042922,0.817889,0.493717,0.531423,-0.688355
0.052547,0.404647,0.766113,-0.485434,-0.804172,0.343017
0.414314,0.500402,0.434623,0.369270,-0.629180,0.683939
0.349305,-0.240525,0.502692,-0.141126,-0.611684,0.778412
0.186850,-0.387304,0.637664,0.759280,0.589554,-0.275536
0.209720,-0.543994,0.619851,0.679676,0.625110,0.383769
-0.461545,-0.105732,0.840365,0.790098,0.437756,0.429087
-0.120597,-0.062073,-0.991251,0.128926,-0.191263,-0.973035
0.850844,-0.221575,0.443935,0.193612,-0.090129,0.976930
0.164601,-0.411745,0.752099,0.735710,0.565024,-0.373469
0.026072,-0.687960,0.417334,0.411406,0.028188,-0.911016
-0.016934,-0.133320,0.835807,0.986797,0.124395,0.103719
-0.028060,0.452926,0.628404,-0.105421,-0.972065,0.209706
0.374166,-0.219767,0.719852,-0.644916,-0.026074,0.763808
-0.468132,-0.359850,0.751169,-0.521531,0.686597,-0.506547
0.061746,-0.005089,-0.975010,-0.152607,0.330405,0.931420
0.426991,-0.521495,0.473772,-0.666626,0.004471,0.745379
0.137878,-0.455404,0.680061,-0.306851,0.810234,0.499362
0.090459,-0.260412,-0.974748,0.122592,0.269206,0.955248
-0.313569,0.737445,0.525979,-0.027709,-0.229947,0.972808
-0.240483,0.138476,0.764620,0.180225,-0.046724,0.982515
-0.147943,-0.200147,0.891695,0.890698,0.104240,0.442482
-0.845374,-0.190036,0.642746,-0.243743,-0.327647,0.912818
-0.296354,0.093813,0.697285,0.419873,0.234383,-0.876796
0.392188,0.203763,0.432396,0.388464,-0.729773,0.562607
-0.307354,0.130240,0.738621,0.581353,0.678411,0.449208
-0.449800,-0.565488,0.518121,0.096851,-0.948517,0.301556
0.025947,-0.545935,0.735321,0.714680,0.076914,0.695210
-0.369442,-0.292353,0.777430,-0.166882,0.501865,-0.848694
0.500328,-0.257064,0.669649,-0.225329,0.382737,-0.895957
-0.278207,-0.467725,0.706872,-0.602353,-0.727574,0.328339
-0.140673,-0.012053,0.856671,0.616968,0.758236,-0.210782
-0.112209,-0.209857,0.817797,-0.535133,0.335098,-0.775463
0.259377,-0.965783,0.448519,-0.495852,-0.855874,-0.147006
-0.184612,-0.213405,-0.808812,0.013461,-0.998267,0.057285
-0.420091,-0.315187,0.632739,-0.134442,0.792742,0.594546
-0.086043,-0.154078,0.975114,0.408418,0.729982,0.548016
-0.024579,0.418240,0.471008,0.050711,-0.682943,0.728709
0.139991,0.352016,0.803115,0.840346,0.415212,-0.348451
0.317052,-0.364939,0.368047,-0.355801,-0.763503,-0.538952
0.061869,0.138275,-0.022528,0.445264,0.220688,-0.867777
0.510954,-0.522566,0.675228,-0.640783,-0.594034,0.486334
0.097730,0.608544,0.544395,-0.334995,0.901678,-0.273413
0.138561,0.371769,0.713382,0.926366,-0.354360,0.127573
-0.269816,-0.124682,0.703087,-0.598182,-0.716676,-0.358543
0.262920,-0.277421,0.496116,0.918072,-0.299926,0.259207
0.914734,-0.383353,0.330561,0.977746,-0.106401,0.180807
0.161866,0.611156,0.562470,-0.359110,0.831683,-0.423489
-0.139181,-0.141489,-0.979777,0.040861,0.580662,0.813119
-0.547434,0.566024,0.551625,0.137921,-0.383951,-0.912995
-0.376402,0.489889,0.568626,0.441610,0.877223,0.188307
0.132905,0.394001,0.712596,0.266207,-0.578715,0.770859
0.408099,-0.416700,0.664829,0.736252,0.101484,-0.669055
-0.288959,0.155551,0.641934,0.643095,0.539828,-0.543153
-0.229668,-0.269586,0.872520,0.550229,-0.676690,-0.489223
0.348249,-0.050958,0.599471,0.793776,0.607326,-0.032780
-0.291320,0.168743,0.708496,0.782751,0.619639,-0.057869
-0.250053,0.175171,0.757796,0.868182,0.471002,0.156259
0.546503,0.571783,0.423647,0.021463,-0.115783,0.993043
-0.150803,-0.194924,0.608796,0.940536,0.304984,-0.149588
-0.351356,0.315522,0.591272,0.126074,-0.339991,0.931939
-0.502624,0.074997,0.648614,0.380898,-0.138887,0.914127
0.264847,-0.522566,0.559523,0.795479,-0.567695,0.211978
0.301577,-0.151600,0.867647,0.690147,0.586287,-0.424223
0.624188,-0.477769,0.718818,0.797541,0.524166,0.298628
0.086605,-0.895473,0.241811,-0.409804,-0.085603,0.908148
0.459495,0.219834,0.574624,-0.064156,-0.800041,0.596505
-0.236629,0.352953,0.459521,0.288952,-0.891196,0.349681
-0.576892,0.102116,0.764489,0.681973,0.181530,0.708491
-0.871912,-0.001138,0.635071,-0.521843,0.852799,0.020355
-0.382307,-0.490157,0.741856,0.734638,0.262271,-0.625716
0.127249,0.227133,0.785027,-0.721388,0.648152,0.243923
0.045152,-0.164390,0.169799,0.440383,-0.634104,-0.635590
-0.189210,-0.183340,-0.576209,0.994818,0.067550,-0.075991
0.142974,-0.323423,0.819015,0.632094,0.671519,0.386677
-0.197103,-0.571381,0.844477,-0.257518,0.758129,0.599103
-0.610576,-0.045534,0.727973,0.651623,0.567478,-0.503346
-0.586711,0.108075,0.760429,0.517656,-0.238533,0.821666
-0.131349,-0.229477,0.147271,0.816327,0.572277,-0.078168
0.064729,-0.533949,0.418381,-0.351606,-0.490727,-0.797220
0.113017,-0.676242,0.570826,0.915049,0.401860,0.034556
0.159879,-0.303335,0.788681,0.833439,0.476129,-0.280500
-0.564464,0.170885,0.736185,0.760946,0.644211,0.077160
0.651348,-0.306080,0.336494,-0.176717,-0.343203,0.922487
-0.282372,-0.758002,0.653434,0.660498,-0.407011,-0.630940
-0.181318,-0.260613,0.926915,0.744895,0.265118,-0.612245
-0.174357,-0.418642,0.791811,0.216911,-0.790427,0.572865
0.024394,0.311705,0.636904,0.838825,-0.339439,0.425622
-0.348558,-0.076603,0.813842,-0.605553,-0.200333,-0.770176
-0.108541,-0.161578,0.932180,-0.673590,0.520554,-0.524691
-0.559180,0.306482,0.545456,-0.628639,0.165580,0.759866
-0.214753,-0.125218,0.682432,0.673426,0.341119,-0.655847
-0.248934,0.290411,0.737246,-0.722621,-0.634206,-0.274957
0.018429,-0.302799,0.712714,0.677128,-0.523733,-0.516915
-0.661724,-0.191710,0.364209,-0.393230,-0.343670,-0.852796
0.465151,0.570176,0.441316,0.774647,-0.286243,0.563903
-0.216680,-0.231016,-0.589792,0.988316,-0.149238,-0.030968
-0.632826,0.098500,0.763232,-0.721843,-0.680017,0.128529
0.512445,-0.534351,0.573262,0.094269,0.299053,0.949569
-0.211025,0.092473,0.904098,0.954515,-0.201218,0.220028
0.534571,0.212870,0.408113,0.638763,0.639508,0.427798
0.290514,-0.663185,0.305505,-0.044775,-0.673480,0.737848
0.399771,-0.602317,0.668706,-0.267823,0.396658,0.878028
-0.093003,0.054038,0.368950,0.958880,0.132093,-0.251197
-0.434323,-0.020557,0.762643,0.637184,0.352872,0.685185
-0.232092,0.234231,0.770331,0.776777,-0.431698,-0.458534
0.438551,0.334003,0.648312,-0.641863,-0.204822,0.738958
0.226873,-0.157560,0.857352,0.372100,0.928024,0.017690
0.436935,0.169345,0.372146,0.105969,-0.912083,-0.396076
0.358193,-0.478171,0.304889,-0.005838,0.108836,0.994043
-0.155899,0.095085,0.752767,-0.574109,-0.219420,-0.788830
-0.281253,-0.347864,0.728942,0.712285,0.484552,-0.507799
0.285355,0.069506,0.191803,-0.164637,-0.607156,0.777339
-0.031663,-0.391255,0.397163,0.075189,0.626137,0.776079
-0.128677,-0.198674,0.985252,0.818424,0.546936,0.176193
-0.308039,-0.373242,0.512449,0.286542,0.621723,0.728940
0.551288,-0.079349,0.439298,-0.200794,0.359204,0.911402
0.145707,-0.157426,0.832480,0.255724,-0.219917,0.941404
0.110843,0.191509,0.322270,-0.483302,-0.341838,0.805957
-0.806655,-0.404848,0.383450,-0.202538,-0.408085,0.890194
0.368945,0.070108,-0.017001,0.030075,-0.306111,0.951521
0.038129,0.218026,0.768196,0.666891,-0.619141,-0.414633
0.398030,0.192715,0.372814,0.437540,0.818550,-0.372203
0.107672,-0.280434,0.834785,0.426083,-0.776007,0.465045
-0.136943,-0.538771,0.791091,-0.688889,-0.454812,-0.564427
0.090459,-0.822285,0.411675,0.347110,0.757416,-0.553024
0.014201,-0.351882,-0.971408,0.271501,0.124354,-0.954371
-0.040490,-0.222646,0.915755,-0.735766,0.050115,-0.675379
-0.106553,-0.228271,0.912114,0.272543,0.656084,-0.703757
-0.774152,-0.446632,0.694364,0.054531,0.029042,0.998090
-0.096672,-0.233828,0.936502,0.931769,-0.268261,0.244628
-0.446877,0.253114,0.562732,0.603459,0.262240,-0.753039
-0.190702,0.491161,0.717206,0.445937,-0.510596,0.735140
-0.544265,0.081358,0.703113,-0.314146,0.818362,-0.481244
-0.215561,0.000804,0.842434,0.135575,0.031553,-0.990264
-0.485100,0.124883,0.652975,0.155285,0.181621,0.971031
-0.080389,0.201688,0.609700,0.977614,0.175703,-0.115757
-0.831079,-0.218160,0.598790,0.979418,0.084591,0.183260
-0.162238,-0.634726,0.777273,0.829774,0.137145,-0.540986
0.002207,-0.183943,0.704973,0.177257,0.275297,0.944876
0.229733,-0.496652,0.628810,-0.712408,0.546766,0.439911
0.655885,-0.403241,0.485193,0.777492,0.314352,-0.544692
-0.211273,-0.800254,0.512371,0.680676,0.205760,-0.703096
0.289021,-0.486876,0.374360,0.286559,0.455543,0.842831
0.264100,-0.350274,0.228372,0.268836,0.950199,0.157634
-0.225319,-0.186018,0.245452,-0.073279,-0.997094,-0.020850
0.004382,0.778961,0.587120,0.580468,-0.429525,0.691784
0.019919,-0.126222,-0.977079,0.006338,0.020315,0.999774
0.006558,-0.741262,0.299035,0.111769,0.131104,0.985048
-0.191199,0.321013,0.769938,0.502172,0.250840,0.827588
-0.167271,-0.758404,0.527119,0.366486,0.799469,-0.475960
0.452846,0.487679,0.420516,-0.703665,0.379067,-0.600969
0.047948,-0.702357,0.494283,0.458419,0.163659,0.873538
0.546691,0.186822,0.662995,-0.661008,-0.404959,0.631725
-0.126378,-0.093076,0.695726,-0.635383,0.580821,-0.508857
-0.098908,-0.106736,0.937196,-0.312533,0.884435,-0.346551
0.116933,-0.371970,0.578789,-0.625032,-0.741057,-0.245296
-0.852272,-0.059930,0.648404,-0.375586,0.390960,-0.840289
-0.066468,-0.157761,-0.982266,-0.288507,0.251455,0.923869
-0.560796,-0.609348,0.495684,-0.503193,0.325687,0.800453
0.235140,-0.288402,0.814483,0.637333,0.650494,-0.413116
-0.097728,-0.171086,0.934472,0.994990,-0.042053,-0.090703
-0.094870,-0.213472,-0.274634,0.750566,-0.657911,0.061672
0.076226,0.133722,0.087558,-0.304324,0.473757,-0.826403
0.044530,-0.375519,0.655293,-0.399054,-0.524498,-0.752102
0.084181,0.084505,0.787410,0.841463,-0.523651,-0.133153
-0.192256,-0.681733,0.415238,0.750177,0.631186,0.197076
-0.208912,-0.190907,0.931761,0.846774,-0.360990,-0.390717
-0.127372,-0.163251,-0.695870,0.919035,-0.394133,-0.005815
0.094995,-0.424267,0.788432,-0.567773,0.803083,-0.180808
0.237376,-0.007901,0.559758,0.837466,-0.498174,-0.224664
-0.639289,0.216486,0.666361,-0.028170,0.693106,0.720285
0.309346,0.501139,0.438395,0.619212,-0.493142,-0.611055
-0.100897,-0.191911,0.769715,0.878496,0.298845,0.372741
0.300395,0.295300,0.605090,0.491205,0.865272,0.100110
-0.123332,-0.206174,0.721293,0.790496,0.422929,-0.442997
-0.155837,-0.104928,0.853135,0.912228,-0.409442,0.014027
0.437183,0.033280,0.428165,-0.202079,0.393461,0.896857
-0.216183,0.219566,0.669504,0.715426,0.310306,-0.625999
-0.343649,0.638141,0.496942,0.904324,-0.406713,0.129551
-0.105993,-0.765100,0.781661,-0.578560,0.466116,0.669331
0.269135,-0.498661,0.646335,0.660417,0.484347,0.573809
0.108605,0.272867,0.745458,0.050357,0.622871,0.780702
-0.863832,-0.069707,0.651456,-0.375586,0.390960,-0.840289
0.293808,-0.568769,0.471205,-0.187101,0.138081,-0.972588
-0.147695,0.090867,0.752950,0.337281,0.324301,0.883782
-0.731332,0.325432,0.655686,0.847324,0.222856,0.482056
-0.211522,-0.164859,0.845774,-0.653999,0.655483,-0.377659
0.594171,-0.491362,0.702576,-0.190496,0.160502,0.968478
-0.159628,-0.433842,0.778792,0.782993,0.088351,0.615724
-0.112643,-0.575264,0.783429,0.785338,0.356703,0.505971
-0.096112,-0.195192,-0.640677,0.620484,-0.784217,0.001965
-0.141730,-0.003817,0.856370,0.507612,0.857924,-0.079356
0.423387,0.171019,-0.021179,-0.047327,0.093636,0.994481
-0.464404,0.398018,0.549044,0.817455,-0.051507,-0.573685
-0.376651,-0.269921,-0.986968,-0.041263,-0.124777,0.991326
0.095056,0.039373,0.825237,0.920123,-0.220736,-0.323497
-0.314999,0.322017,0.749492,0.994219,0.036869,0.100847
-0.196233,-0.131244,0.927779,0.961422,-0.270618,-0.049331
0.045215,0.178854,0.523465,-0.047103,-0.421176,0.905755
0.219044,0.463105,0.551520,0.140231,0.878893,-0.455941
-0.443273,0.512455,0.550891,0.678727,-0.091976,-0.728609
0.647494,0.101782,0.668470,0.540569,0.417163,-0.730589
0.094807,-0.712870,0.741267,0.772612,-0.634857,-0.005246
-0.151237,-0.013794,0.873148,0.950085,-0.209164,-0.231492
-0.108791,-0.592072,0.870948,0.769216,-0.557483,-0.312280
-0.615735,-0.317062,0.725799,0.215020,0.799153,0.561356
0.032536,-0.553904,0.821137,-0.479537,0.655336,0.583591
0.059073,0.188764,-0.021480,-0.595778,-0.256377,0.761131
0.523633,0.461497,0.240200,0.250522,-0.393980,0.884318
-0.527485,-0.070778,0.815872,0.464986,-0.526654,0.711634
0.005065,0.030869,0.789834,0.023051,-0.747257,0.664135
-0.424131,0.738784,0.580807,0.871049,-0.143675,0.469713
-0.514806,0.331057,0.548638,-0.572818,0.173842,0.801036
0.407850,0.033548,0.622182,-0.623617,-0.225052,0.748634
-0.446443,-0.491898,0.768144,0.468064,-0.790317,-0.395367
0.603183,-0.312508,0.457360,0.952265,0.106659,0.286034
0.845188,-0.136132,0.448624,-0.393504,0.166845,-0.904056
-0.130790,-0.229275,-0.319061,-0.801475,0.597888,0.012957
0.137131,0.396545,0.780364,-0.820063,0.362762,0.442606
0.452161,-0.409200,0.682602,-0.582249,0.155218,0.798056
-0.072309,-0.493839,0.585613,0.489944,0.271895,0.828268
-0.247567,0.352618,0.788890,0.467708,0.804685,0.365693
0.217117,0.697603,0.511205,0.697965,0.211407,0.684216
-0.486279,0.473953,0.542600,0.820771,-0.266589,-0.505238
0.433144,0.170752,0.553458,-0.016449,-0.947752,0.318584
0.089402,0.385831,0.547407,0.099377,0.773517,-0.625936
0.357137,-0.479577,0.562588,-0.226911,0.242192,0.943321
-0.428855,0.613767,0.597153,0.730788,0.199254,0.652876
-0.350796,-0.225057,0.811772,-0.692973,0.645873,-0.320370
-0.042043,-0.295500,-0.974198,0.201472,-0.101230,-0.974249
0.246015,0.266104,0.672648,-0.639847,0.402789,-0.654489
-0.145271,-0.182469,0.972508,-0.308616,0.904298,-0.294958
-0.069389,0.346190,0.721568,0.846962,0.317314,-0.426576
-0.089400,0.487814,0.489685,-0.611543,-0.139636,-0.778792
-0.341100,0.640552,0.752649,-0.275261,-0.800368,0.532581
-0.452533,0.508169,0.559051,0.714558,-0.256490,-0.650860
-0.053353,-0.672827,0.408021,0.408407,0.688395,-0.599430
-0.354836,0.540578,0.736840,0.565750,0.793395,-0.224612
-0.026817,0.226530,0.809375,0.902585,-0.428960,0.036514
0.057395,0.148185,0.749466,0.085148,0.972471,0.216910
0.025698,0.766573,0.694403,-0.152640,-0.740019,0.655036
-0.040738,-0.035288,0.073649,-0.245618,0.029445,0.968919
-0.422206,-0.110821,0.538448,0.365895,0.232132,0.901241
0.050372,0.022365,0.859173,0.317355,0.633552,-0.705619
-0.053852,0.101112,0.793409,0.767545,0.253346,-0.588804
0.301141,-0.316191,0.787869,0.981430,0.024186,-0.190288
0.009975,0.180059,0.853829,0.543628,0.057275,-0.837370
0.290389,0.711397,0.327653,0.955833,-0.008185,0.293795
-0.060376,-0.168541,0.958611,-0.163387,-0.986243,0.025090
-0.081943,0.037900,0.785839,0.716848,-0.119342,-0.686940
-0.180074,-0.176242,0.130558,0.979328,0.200540,-0.026474
0.783040,-0.130507,0.432907,-0.301380,-0.895561,-0.327324
-0.577886,0.200281,0.664226,-0.548562,0.208074,-0.809806
-0.219787,-0.576202,0.842264,0.257901,0.743111,0.617473
-0.722133,0.282041,0.662602,0.892641,0.335629,0.300908
0.151302,0.321548,0.779578,0.981506,0.014575,-0.190877
-0.079270,-0.075465,0.905945,0.360376,0.930197,0.069726
-0.328236,0.086782,0.733081,0.936212,-0.337512,-0.097940
-0.229297,-0.574930,0.615358,0.919933,-0.351225,0.174254
0.578821,-0.512790,0.570774,-0.125161,0.428128,0.895009
-0.145396,-0.799384,0.522626,0.632560,0.374363,-0.678026
0.566391,-0.439132,0.699917,-0.216390,0.789980,0.573678
-0.060439,-0.135864,0.811248,0.184097,-0.877826,-0.442187
0.353222,-0.588255,0.667776,-0.009370,0.760978,0.648710
-0.673781,0.232690,0.657677,-0.038041,0.607802,0.793177
-0.375469,0.770055,0.525835,0.052082,-0.816649,0.574780
0.003700,0.342909,0.841871,0.699470,0.586877,0.407819
-0.137379,-0.130173,0.334988,0.856606,0.042408,0.514226
0.106555,0.167269,0.087663,0.073659,-0.527738,0.846208
-0.170566,-0.029061,0.640323,-0.131598,-0.691886,0.709912
0.390946,-0.187759,0.527852,-0.104570,-0.330550,0.937977
0.040615,0.192045,0.861858,0.570337,0.487715,-0.660946
0.427738,-0.691509,0.619262,-0.053097,0.127598,0.990404
0.001524,-0.824093,0.494558,-0.514588,0.009002,-0.857390
-0.168391,-0.197871,-0.061756,0.945251,-0.309762,-0.102704
0.034711,0.299317,0.241706,0.122006,-0.609650,0.783225
-0.517105,-0.734164,0.684776,0.625772,0.367638,0.687933
-0.394672,0.561471,0.582129,0.864657,-0.269495,-0.423959
-0.219167,0.024977,0.915389,0.377092,-0.127229,0.917395
-0.132594,-0.323155,0.928774,-0.249186,-0.849175,0.465627
-0.227618,0.348668,0.725589,-0.153376,0.752432,0.640563
-0.327304,0.498594,0.532895,-0.711459,-0.375811,-0.593795
-0.118796,0.280769,0.441617,0.999154,-0.014131,-0.038622
-0.072247,-0.420517,0.280973,-0.345384,-0.328782,-0.878983
-0.905410,-0.075064,0.650552,-0.733672,0.448832,0.510172
-0.214816,0.021562,0.707842,0.832411,0.313955,-0.456644
0.601256,-0.105464,0.513615,-0.241141,0.809108,-0.535906
-0.307043,-0.097897,0.859042,0.997925,0.010048,-0.063604
-0.124078,0.006830,0.851603,0.835390,0.467439,-0.289178
0.384108,-0.693317,0.288255,0.404839,0.722574,-0.560350
0.272553,-0.456810,0.472004,0.181623,0.065262,0.981200
-0.198657,-0.109213,0.973660,-0.196823,0.389996,0.899535
-0.126316,-0.039172,0.072640,0.377868,-0.132297,-0.916359
-0.046828,-0.220102,0.534283,0.394693,0.704461,-0.589874
0.347566,-0.531874,0.720442,-0.410040,0.581794,0.702413
-0.068270,0.041047,0.069235,-0.101615,-0.101571,0.989625
0.615240,0.307754,0.614009,0.280537,0.455262,-0.845006
-0.657872,0.260680,0.647723,-0.074708,-0.884450,0.460615
-0.227929,0.275211,0.559536,0.801985,-0.225969,-0.552953
-0.032037,-0.094415,0.907307,0.489883,0.870765,-0.042237
0.210902,-0.898219,0.246015,-0.049084,-0.102898,0.993480
-0.217612,0.142560,0.854143,-0.622429,-0.782491,0.017031
-0.413381,0.467591,0.584945,-0.430978,-0.107801,0.895900
-0.111524,-0.533882,0.870607,0.975511,-0.163863,-0.146724
-0.279263,-0.101982,0.626832,-0.240316,-0.664579,0.707519
0.021349,0.585041,0.759080,-0.488692,-0.768623,-0.412793
-0.721015,0.230882,0.475501,0.065159,0.934916,0.348836
-0.063796,-0.137003,0.900706,0.997943,-0.048170,0.042295
-0.269630,-0.481117,0.508363,-0.159313,0.245263,-0.956277
0.618347,-0.013794,0.556432,0.469559,0.040879,-0.881954
-0.264348,-0.206375,0.875021,0.765094,0.159133,0.623945
-0.369751,0.257667,0.721057,0.756153,-0.532639,0.380170
0.181195,0.778024,0.509188,0.552910,0.441285,0.706795
-0.063545,0.496251,0.688522,0.662489,-0.686761,0.299111
-0.081320,-0.188898,0.921348,-0.332874,-0.891864,0.306225
-0.000777,-0.675305,0.291359,-0.219004,-0.108550,0.969667
0.181195,-0.376791,0.620087,0.651601,0.243682,-0.718355
-0.439793,-0.607808,0.459089,-0.703906,0.268427,-0.657619
-0.101519,-0.217825,-0.821308,0.013461,-0.998267,0.057285
0.808895,-0.263359,0.331897,-0.150519,-0.649813,-0.745042
-0.110407,-0.084572,0.888643,0.675529,0.670227,0.307337
0.000591,-0.111423,0.881465,0.590157,0.807280,0.003581
0.019794,0.382014,0.615620,-0.530831,-0.838534,0.122796
-0.930206,-0.292554,0.369632,-0.277377,-0.002005,0.960759
0.457197,-0.532677,0.577558,-0.322648,0.134707,0.936884
-0.121842,-0.581626,0.871930,0.788659,-0.470094,-0.396267
-0.023957,0.161243,0.786703,0.877256,-0.414041,-0.242882
0.216680,0.462435,0.834169,0.818412,-0.562193,-0.118912
-0.600632,-0.451855,0.670683,0.756500,0.497598,0.424387
0.987883,-0.403509,0.316297,0.907246,0.062430,0.415942
0.275908,-0.724119,0.174279,0.896985,0.391066,0.206119
-0.202822,-0.001674,0.732243,0.863835,0.483742,-0.140650
-0.223764,0.081492,0.846036,0.381486,0.192918,0.904019
0.326311,-0.834070,0.613197,-0.350611,-0.003018,0.936516
0.044716,0.316727,0.847647,0.999777,0.018425,0.010293
-0.397284,-0.097562,0.759001,-0.744740,0.246693,-0.620084
-0.160187,-0.235101,0.882867,0.804417,0.559205,-0.200507
0.049812,0.088925,0.295236,-0.055199,-0.363587,0.929923
0.145955,-0.337753,0.830279,0.837740,0.236561,0.492169
0.170008,0.382952,0.811694,-0.583337,-0.711164,0.392382
-0.209657,0.306817,0.657769,-0.363563,-0.173368,0.915295
-0.109474,-0.280836,0.864058,0.434690,0.820376,-0.371521
-0.540847,0.638409,0.532829,-0.087821,-0.440164,-0.893612
-0.112271,-0.375787,0.752151,0.527945,0.388631,0.755142
-0.450793,-0.092273,0.767096,0.752317,0.141700,0.643382
0.248377,-0.417771,0.703677,0.707881,-0.325141,-0.627047
0.159194,-0.540311,0.583190,-0.475495,0.447269,-0.757532
-0.026009,-0.534217,0.577991,0.377587,-0.712825,0.591023
-0.659860,-0.494375,0.477570,-0.331016,0.391813,0.858435
-0.069015,-0.003080,0.453667,0.745492,0.574248,-0.338351
-0.132406,-0.203027,0.217017,0.831441,0.305997,0.463758
-0.068704,-0.233895,0.908761,0.057115,0.624762,0.778724
0.139554,0.304875,0.592647,0.421966,0.831124,0.362184
0.049378,0.402839,0.252236,0.724085,-0.243207,0.645408
-0.508654,-0.432503,0.325636,0.380328,-0.873274,-0.304539
-0.127932,-0.013392,0.894956,0.973828,0.226188,0.022310
0.153041,-0.328981,0.665824,0.843483,0.035355,0.535991
-0.501319,-0.518883,0.668234,-0.512499,-0.182289,-0.839116
-0.036699,-0.341905,0.781805,0.002401,0.613812,0.789449
0.137318,0.536695,0.534074,0.040595,0.219708,0.974721
0.174980,-0.190907,0.691509,-0.082231,-0.658672,0.747924
0.161680,0.321079,0.491480,0.850345,-0.521940,0.067023
-0.489636,0.079617,0.738805,0.511508,0.853237,-0.101716
-0.351481,0.738382,0.517964,0.326885,-0.194383,0.924858
0.288214,-0.010312,0.704200,-0.358814,0.638791,0.680587
-0.187097,-0.545132,0.415696,0.216202,0.472432,0.854438
0.459992,0.123611,0.200396,-0.663551,0.528097,-0.529918
0.252542,0.250368,0.387680,0.811808,0.511274,-0.282076
-0.735184,-0.194589,0.370509,-0.660911,-0.348161,-0.664816
0.227992,0.581090,0.535108,0.892307,0.450939,0.021015
-0.224386,-0.239319,-0.870293,0.980636,0.111680,0.160875
0.147386,-0.192179,0.893070,0.473639,0.812489,-0.339894
-0.002019,0.097897,-0.032338,0.546127,0.334309,-0.768104
-0.511698,0.060466,0.733723,0.409437,0.903013,-0.130113
0.345888,-0.576403,0.660939,0.252041,-0.625520,-0.738376
-0.320281,0.123410,0.525586,-0.107461,-0.343747,0.932893
0.024830,-0.115709,0.897903,0.084615,-0.771810,0.630199
-0.097354,-0.209924,-0.164730,0.193605,-0.978884,0.065594
-0.742082,0.044529,0.711902,-0.009300,-0.935964,0.351973
-0.503681,0.757667,0.529476,0.011327,0.572747,0.819654
-0.542275,0.718830,0.536995,0.391923,-0.392461,-0.832088
0.037569,-0.274140,0.842460,0.492398,0.774121,-0.397845
-0.140797,-0.187759,0.200775,0.963198,-0.166114,0.211318
-0.468070,-0.565488,0.523700,0.712409,0.409213,-0.570104
-0.366333,-0.174300,0.750383,0.059310,-0.385924,0.920622
0.646438,0.431298,0.627251,-0.414834,-0.578303,0.702480
0.147448,0.280702,0.822696,-0.674636,0.626350,-0.390580
0.331345,-0.637271,0.609897,0.609281,-0.128905,-0.782407
0.083684,-0.608343,0.720442,-0.623795,-0.353452,-0.697102
0.168019,0.447034,0.728785,0.939415,-0.335253,0.071450
-0.186786,-0.507634,0.731090,-0.470861,-0.724306,-0.503658
-0.129485,0.009241,0.904059,0.757940,0.639140,0.130491
0.157578,0.733294,0.564225,0.790372,0.602370,0.111633
0.273983,0.256194,0.436587,-0.318254,0.678799,-0.661776
-0.319784,0.433910,0.701633,0.193765,0.647545,-0.736981
0.034960,0.020691,0.770593,0.858932,-0.512081,-0.003040
0.045400,0.144904,0.518946,0.104457,0.596562,-0.795740
0.135888,-0.558725,0.175510,0.029930,0.358913,0.932891
-0.209098,-0.117919,0.871603,0.402465,-0.860198,0.313179
-0.508529,0.355029,0.546870,-0.569547,0.267815,0.777104
-0.274167,0.189434,0.653813,0.459966,0.717613,-0.522936
-0.128305,0.034619,0.870110,-0.549151,0.232304,0.802788
-0.613436,0.049284,0.327902,0.528054,-0.804268,-0.272602
0.452161,-0.419445,0.485193,-0.554725,-0.182554,0.811760
-0.019794,0.104393,0.834156,0.727493,0.408209,-0.551470
0.736988,-0.384358,0.346697,0.262002,0.398989,-0.878728
0.237314,-0.205170,0.853711,-0.040804,-0.992668,0.113777
-0.162983,0.651467,0.511153,0.813593,0.123757,0.568111
-0.027997,0.220637,0.722341,0.804659,0.081715,-0.588087
0.309346,-0.470202,0.650919,0.731958,0.670364,-0.121862
0.105499,0.035021,0.842696,0.995540,-0.003019,0.094296
0.303005,-0.289741,0.824529,0.455662,-0.769015,0.448317
-0.092507,-0.610553,0.795374,-0.267901,0.713610,0.647294
0.104814,-0.189969,0.898977,0.407379,0.891730,-0.197130
0.512136,-0.006964,0.431623,0.319175,0.440085,0.839317
0.590815,0.148989,0.573878,-0.283252,-0.782910,0.553913
0.284361,-0.390719,0.795138,-0.564681,0.800786,-0.199692
-0.437492,-0.107004,0.796016,-0.677169,-0.727451,0.110710
-0.208476,-0.273202,0.444917,0.853777,-0.451814,-0.258709
-0.216618,0.291282,0.767633,-0.309242,0.279582,0.908957
0.471615,0.180528,0.565207,-0.157505,-0.466254,0.870517
-0.016748,0.265502,0.809873,0.736049,-0.582623,0.344647
-0.151797,-0.079751,0.055652,-0.887505,0.380895,0.259332
0.417669,0.382550,0.437399,-0.652297,0.478370,-0.587938
-0.420590,-0.596826,0.657088,0.068313,0.048784,0.996470
-0.882041,-0.018348,0.643781,-0.484493,0.633845,0.602916
0.189894,0.131244,0.749178,-0.132068,-0.898111,0.419470
-0.359249,-0.466385,0.809048,-0.486311,0.688380,0.538177
0.671422,-0.189902,0.447943,-0.430098,0.396114,-0.811240
-0.223889,-0.132717,0.886796,-0.190082,0.481549,0.855558
0.054971,0.804339,0.593420,0.580468,-0.429525,0.691784
-0.002392,-0.187492,0.832925,0.971306,0.237833,0.000297
-0.521207,0.732892,0.534113,0.003970,0.152195,0.988342
-0.708461,-0.114571,0.358721,-0.793783,0.086879,-0.601964
-0.144402,0.102719,0.905369,-0.014808,0.476182,0.879222
0.555576,-0.512589,0.705576,0.326642,0.022391,-0.944883
-0.119789,-0.206977,0.808707,-0.220779,-0.335031,0.915975
-0.443770,-0.148319,0.836737,0.843965,0.105898,0.525841
0.413070,-0.262555,0.740324,-0.386062,0.337820,0.858390
-0.265342,0.258337,0.721686,0.782129,-0.148708,-0.605112
0.067401,-0.184947,0.890188,0.185092,0.968558,0.166240
-0.322022,0.404982,0.801451,-0.079732,0.775591,-0.626179
-0.110593,-0.060198,0.799670,0.381320,0.562179,0.733860
-0.249433,-0.174836,0.906875,0.795965,0.067563,-0.601560
0.451353,0.021026,-0.008396,-0.301661,0.020572,0.953193
-0.144402,-0.694121,0.766860,-0.182543,0.293076,0.938501
-0.758615,0.213741,0.646675,0.846599,0.232279,-0.478871
-0.136882,-0.301460,0.583714,0.942369,0.274579,0.191175
-0.237996,0.434110,0.714024,0.231215,-0.228579,0.945670
-0.593797,0.663185,0.536628,0.379945,-0.390345,-0.838614
-0.470991,-0.387974,0.647592,-0.302392,0.244068,0.921407
-0.029116,-0.233561,-0.978978,0.156932,-0.250509,-0.955310
0.272927,0.131177,0.560361,-0.564472,0.819557,0.098476
0.040987,-0.158966,0.890830,-0.167639,0.977315,-0.129429
-0.107050,-0.010312,0.928185,-0.100210,-0.327079,0.939669
-0.497902,-0.395540,0.738962,0.829338,0.067801,0.554618
-0.365836,0.787733,0.527617,-0.137807,-0.666234,-0.732899
0.196546,-0.203964,0.839002,0.035141,0.995884,0.083544
-0.308909,-0.124079,0.437792,0.568975,0.559888,0.602323
-0.848170,-0.240659,0.644291,0.094678,0.842353,0.530545
0.524876,-0.140619,0.742446,0.116820,0.993046,-0.014551
-0.416362,0.182938,0.641318,0.382060,-0.911094,0.154719
-0.127372,-0.728137,0.487328,-0.199872,-0.977493,-0.067522
-0.116683,-0.149926,0.996660,0.837709,-0.039707,0.544671
-0.102202,-0.438128,0.784136,0.384915,0.184680,-0.904286
-0.164662,-0.158832,0.813671,-0.416740,-0.171669,0.892669
-0.103135,-0.577675,0.877890,0.975511,-0.163863,-0.146724
0.093876,-0.118254,0.694469,0.084063,0.280957,0.956032
-0.137938,0.031940,0.897969,0.760698,0.648394,-0.030392
-0.019669,0.361591,0.828092,-0.177031,-0.883230,0.434240
-0.260930,-0.562542,-0.974879,-0.009084,0.263395,0.964645
-0.035269,-0.029932,0.806062,0.869256,-0.091330,-0.485853
-0.014262,0.267578,-0.027846,0.506944,0.577480,-0.639941
0.332340,-0.108276,0.526529,0.397638,0.266917,-0.877861
-0.327801,-0.353355,0.883535,0.977501,0.078845,0.195641
-0.232341,-0.152471,0.608390,0.531824,0.822411,-0.202001
0.227372,-0.425874,0.653185,0.688975,-0.234084,0.685943
-0.525558,-0.032476,0.815623,0.464986,-0.526654,0.711634
0.463349,-0.264765,0.320751,-0.289229,0.441963,0.849126
-0.124328,-0.535289,0.835545,-0.663041,0.546684,0.511384
-0.807153,-0.147448,0.621174,-0.665040,-0.529711,0.526430
-0.453280,-0.288268,0.738778,-0.427683,0.883359,-0.191742
0.290577,-0.451989,0.174567,-0.116702,0.427511,0.896446
-0.381000,-0.103187,0.376023,-0.741696,0.571649,-0.350863
-0.183990,0.196197,0.679013,0.607232,0.290434,-0.739538
-0.534258,-0.692246,0.680363,-0.698312,-0.375518,-0.609382
-0.125881,-0.128164,0.948919,-0.563758,-0.643405,-0.517887
-0.197041,-0.432972,0.853606,-0.647523,0.596299,0.474491
-0.008668,0.525178,0.757194,-0.050984,-0.548625,0.834513
-0.159628,-0.043324,0.923679,-0.568644,0.521879,0.635836
0.154968,0.731820,0.574061,0.765300,0.562329,0.313213
-0.533264,-0.007031,0.824294,0.090776,-0.748182,0.657255
-0.182188,0.467390,0.519522,-0.615257,0.186397,-0.765973
-0.420154,0.408330,0.699289,-0.325516,-0.030900,-0.945031
0.174731,0.337218,0.827345,0.889879,-0.393639,0.230573
-0.164288,-0.199210,0.587997,0.989807,-0.120695,0.075596
-0.407725,-0.125619,0.448925,-0.601687,0.054243,-0.796888
0.611883,0.324896,0.613734,0.280537,0.455262,-0.845006
-0.303439,0.551962,0.730357,-0.454534,0.864222,-0.215684
0.133899,-0.257399,-0.973503,0.047996,0.137573,0.989328
-0.186786,-0.322954,0.784123,-0.471762,0.630101,0.616776
-0.127994,-0.318200,0.786022,-0.093914,0.144621,0.985020
-0.415928,0.585778,0.725890,0.300770,0.839453,-0.452610
-0.234952,0.232021,0.667042,0.737701,0.160649,-0.655736
0.589262,0.422057,0.395853,0.305736,-0.663833,0.682532
0.012337,0.031740,0.863273,-0.176984,-0.977708,-0.112980
-0.045895,-0.666533,0.795754,0.599745,-0.396761,0.694900
-0.053044,-0.444824,-0.977485,-0.159306,0.293641,0.942548
-0.442465,0.024575,0.427786,0.449817,0.225921,0.864074
-0.199527,-0.167269,0.847503,-0.615148,0.773490,0.152662
-0.096795,0.251708,0.685196,0.578227,0.341085,-0.741158
-0.314874,-0.147114,0.870280,-0.022212,0.935434,0.352802
-0.385476,0.402103,0.583269,0.879743,0.384243,-0.280019
0.613562,-0.351212,0.480910,0.508928,0.831773,0.221688
-0.538175,0.342641,0.549385,-0.713142,0.369381,0.595807
-0.109100,-0.155953,0.949286,-0.102726,-0.914815,0.390591
-0.626487,-0.420852,0.680598,-0.143033,-0.492031,0.858747
-0.006121,0.066694,0.855126,0.957679,0.252445,0.138283
-0.413690,-0.760814,0.634520,-0.887615,-0.011595,0.460440
0.210839,0.337686,0.766284,0.862818,-0.337960,0.375937
0.470807,-0.478371,0.292433,0.054534,0.168685,0.984160
0.097668,-0.839762,0.237672,0.480719,0.019567,-0.876656
0.032039,0.514397,0.749152,0.401152,-0.698650,0.592423
0.361362,-0.614772,0.623951,0.641114,0.765864,0.049252
-0.145210,0.026517,0.817679,-0.181127,-0.977687,0.106396
-0.210402,-0.219030,-0.664920,0.799527,-0.595511,0.078253
-0.966874,-0.138744,0.623165,0.644712,-0.064941,0.761662
-0.429849,-0.101580,0.605941,-0.329250,0.483095,-0.811304
-0.710947,-0.121066,0.469030,0.270197,0.888319,-0.371326
-0.567136,-0.398353,0.740927,0.649372,-0.570232,-0.503142
0.295113,0.088255,0.175942,-0.089041,-0.684892,0.723184
0.420901,-0.381344,0.564906,-0.005210,0.482187,0.876053
0.053355,0.184278,0.735845,0.874301,0.413088,-0.254865
-0.053292,-0.093880,0.840234,0.626386,0.268298,0.731885
0.111215,-0.214075,0.899684,0.324211,0.919082,-0.224001
0.575838,0.212870,0.397726,0.649977,0.592607,0.475760
-0.164848,0.045132,0.857994,0.907248,0.241026,-0.344686
0.394923,0.558592,0.453365,0.376366,-0.033125,-0.925879
-0.404742,0.183273,0.568246,0.297675,0.186442,-0.936285
-0.283054,0.196197,0.650002,0.459966,0.717613,-0.522936
-0.377830,0.395540,0.701607,-0.325516,-0.030900,-0.945031
-0.093066,-0.184612,0.815544,0.476810,-0.260384,-0.839555
-0.275161,-0.319204,0.867975,0.392161,-0.898487,-0.197309
0.343712,-0.670149,0.391531,0.225803,0.664487,0.712369
0.806594,0.029262,0.557335,-0.161643,0.109350,0.980772
0.530345,0.510044,0.246500,-0.450257,0.338669,-0.826179
0.020727,0.232824,0.729636,-0.684632,-0.309830,0.659762
0.038129,1.000000,0.516130,0.275895,0.001058,0.961187
0.486778,0.552632,0.426109,-0.444736,0.335385,-0.830498
0.105062,-0.186822,0.810318,0.370175,0.778050,0.507551
-0.039682,-0.468662,0.562915,0.873319,0.461855,-0.154931
-0.402069,0.005290,0.648011,0.537505,0.568410,0.622896
-0.230416,0.076001,0.524578,0.750871,0.278286,0.598957
-0.524253,0.561270,0.553432,0.156567,0.430055,0.889123
0.179019,0.305210,0.707632,0.235164,0.058875,0.970171
0.483235,0.121468,0.643296,0.673205,0.436398,-0.596953
-0.140362,-0.537699,0.677939,-0.270283,0.620598,0.736075
0.033530,0.352819,0.397098,-0.312495,0.629727,-0.711190
0.179144,-0.468394,0.588783,-0.534350,-0.767915,-0.353237
-0.058449,0.029530,0.073059,-0.170882,0.019633,0.985096
-0.064353,-0.093411,-0.984689,-0.318354,0.200573,0.926510
0.601194,0.059998,0.639707,-0.305544,-0.186994,0.933636
0.607720,-0.373577,0.201614,0.028136,0.930499,0.365213
0.098786,0.540712,0.796225,0.074170,0.861263,-0.502718
0.122900,0.679390,0.581645,0.591726,-0.016464,-0.805971
0.785029,0.046203,0.566491,-0.161643,0.109350,0.980772
0.159691,-0.268113,0.673303,-0.150093,-0.719924,0.677629
0.398092,-0.514129,0.459050,0.074850,-0.852075,0.518041
-0.154283,-0.117852,0.942160,-0.097301,0.628907,0.771368
-0.438052,-0.517008,0.744332,-0.614278,-0.699741,0.364726
-0.150118,-0.035757,0.805420,0.926136,-0.198266,-0.320877
-0.052547,-0.149256,0.852873,0.933383,0.343422,0.104205
0.552470,-0.636936,0.315315,-0.367571,-0.248631,-0.896144
-0.754638,-0.455605,0.475357,-0.469607,0.521537,0.712368
-0.217923,0.054708,0.912022,0.907070,-0.406367,-0.109956
-0.147198,-0.575465,0.847843,0.572602,-0.677132,-0.462190
-0.524377,-0.822954,0.689649,0.734755,0.379876,0.561987
-0.668065,-0.236976,0.638633,-0.295233,0.916765,0.269034
0.682857,-0.387974,0.492240,0.715534,0.637906,-0.284756
-0.197475,-0.531137,-0.981362,-0.071867,0.225722,0.971537
0.194930,-0.329717,0.782237,0.299841,0.862642,-0.407363
-0.308473,-0.114370,0.797352,-0.251489,0.715739,0.651515
-0.514620,0.525044,0.551324,0.208308,0.093337,0.973600
-0.411514,0.414357,0.704777,0.338733,-0.920935,-0.192714
-0.038874,0.257332,0.414216,-0.264179,-0.964462,0.004798
0.678197,0.110219,0.670906,0.436929,0.468928,-0.767593
-0.074608,-0.469533,0.835610,0.945098,-0.305290,-0.116564
0.009790,0.493371,0.733408,-0.359525,0.913066,-0.192491
0.116125,-0.194656,0.700258,-0.101035,0.409793,0.906566
-0.243715,0.211866,0.731103,-0.681371,-0.469612,0.561425
0.446320,-0.190103,0.742053,0.750264,0.435833,-0.497146
-0.629842,0.125084,0.773671,0.595387,0.801487,0.055979
-0.635498,-0.064684,0.704227,0.425630,0.137399,-0.894405
-0.023274,-0.412147,0.873633,0.885695,0.225346,-0.405910
-0.090456,-0.203429,-0.327876,-0.823752,0.566240,0.028363
-0.407973,0.305343,0.735478,-0.531159,0.847266,0.003260
-0.074733,-0.894603,0.519889,-0.321012,-0.830285,0.455608
0.305306,-0.552698,0.476758,-0.072536,0.124839,-0.989522
-0.147012,-0.011651,0.747449,-0.393420,-0.158448,0.905602
-0.568564,0.510714,0.554126,0.119917,0.156413,0.980385
0.309035,-0.317665,0.462350,0.002466,0.351827,0.936062
-0.298218,0.104594,0.746834,0.252832,0.204543,-0.945642
-0.029178,0.606469,0.654730,-0.177422,0.619738,0.764491
-0.229234,0.298983,0.786232,0.954892,-0.216689,0.203044
-0.084241,-0.866881,0.521421,-0.544146,-0.805844,0.233498
-0.060065,-0.119526,0.822015,0.960642,-0.135844,-0.242309
-0.272551,-0.375720,-0.979646,-0.488695,0.198038,0.849681
0.277215,-0.193384,0.745367,-0.258752,0.588401,0.766050
-0.146390,-0.457279,0.286841,0.277588,0.156529,0.947863
0.017247,-0.527521,0.261235,0.649943,0.157342,0.743517
0.182376,-0.650797,0.579903,-0.519437,-0.788133,0.330200
-0.149498,0.003482,0.914393,0.884048,-0.216632,0.414161
0.475095,-0.464243,0.305060,-0.038692,-0.333691,0.941888
-0.028371,0.269452,0.835558,0.950088,-0.246270,0.191530
0.425624,-0.766104,0.298079,0.383788,0.836291,-0.391567
-0.054720,-0.390183,0.787253,-0.328446,0.384435,0.862747
0.086790,0.165729,0.736879,-0.557570,-0.661280,-0.501821
-0.152171,-0.142560,-0.680048,-0.793487,0.607485,-0.036619
-0.107547,-0.050221,0.888263,0.832127,0.139686,0.536706
0.292067,-0.667336,0.541526,-0.681720,-0.092682,-0.725719
-0.079890,-0.646712,0.432330,-0.017435,-0.711445,0.702525
0.341289,0.228874,0.709675,-0.563394,0.823597,-0.065387
-0.274852,0.271930,0.437033,-0.351177,-0.900434,0.256697
-0.449301,0.259475,0.559641,-0.355353,0.192833,0.914625
-0.222956,0.101179,0.868630,-0.299503,-0.939354,0.167071
0.323018,-0.338958,0.322349,-0.158779,-0.684089,0.711907
0.120537,-0.645105,0.644331,0.943308,-0.020219,0.331302
-0.009105,0.495179,0.772427,0.895833,0.072638,0.438415
-0.505608,0.059194,0.839107,0.310103,-0.921734,0.232899
0.830647,-0.476965,0.472475,0.321073,-0.813005,0.485732
-0.251732,0.000134,-0.995193,-0.076258,0.086816,0.993301
0.133961,-0.211597,0.415893,0.272451,0.739570,0.615472
0.530345,0.396545,0.404838,0.135105,-0.574180,0.807505
-0.586899,-0.403107,0.469266,-0.078747,0.993245,-0.085220
0.275847,-0.081760,0.167376,0.203489,-0.674978,0.709223
-0.253348,-0.153944,0.868970,0.219372,0.227429,0.948763
-0.635126,0.231485,0.638070,-0.022175,-0.847603,0.530168
-0.361485,-0.110687,0.443765,0.544650,0.328617,0.771601
0.365590,-0.303335,0.320214,-0.107435,-0.815184,0.569151
0.388274,-0.386768,0.471807,0.434089,0.152730,-0.887829
-0.207419,-0.493371,0.591979,-0.729650,-0.304009,-0.612527
0.258446,-0.072653,0.690487,0.495531,0.256826,-0.829753
0.264659,-0.677849,0.090270,0.881857,0.461461,-0.096857
0.092446,-0.025445,0.180290,0.064219,-0.480569,0.874602
0.370438,-0.768716,0.413496,-0.127242,0.719477,0.682760
-0.062428,-0.667135,0.530236,-0.748138,-0.190628,0.635571
0.019733,0.261886,0.853973,-0.589167,-0.808010,0.001663
-0.350921,-0.062675,0.789113,0.069672,0.980461,-0.183963
-0.230725,0.328177,0.727030,-0.036527,0.988936,0.143775
0.394675,0.238784,0.404760,0.812493,-0.553007,0.184497
-0.248066,-0.398420,0.440490,-0.161532,0.314347,0.935464
0.077717,0.950850,0.514624,0.275895,0.001058,0.961187
-0.202882,-0.187357,0.248818,-0.047572,-0.998782,0.013086
-0.185917,-0.220771,0.819958,0.810116,-0.505975,-0.296145
-0.501008,-0.664390,0.677324,-0.653820,-0.463247,-0.598266
0.343401,0.017209,-0.019359,-0.010932,-0.203665,0.978980
0.588889,-0.381746,0.485953,0.012509,0.737063,0.675708
-0.678940,0.258471,0.741542,0.285982,-0.547172,0.786649
0.613996,-0.570443,0.577729,0.026801,0.148987,0.988476
-0.385599,0.572453,0.596079,0.796580,0.218461,0.563680
-0.000714,0.343444,0.840993,-0.378677,-0.915188,-0.137964
0.202822,0.369828,0.808668,0.786836,0.616474,-0.029126
0.044407,-0.391456,0.468873,0.326864,-0.670476,-0.666049
0.050248,-0.228338,0.876266,-0.554574,0.812554,0.179456
-0.066343,-0.045266,0.809009,0.878186,-0.102144,-0.467285
-0.399272,-0.014396,0.759669,-0.488272,-0.411202,-0.769743
0.380070,-0.444958,0.462901,-0.122512,-0.284461,0.950827
-0.562349,0.017544,0.782211,0.820708,0.569082,-0.050839
-0.243404,0.272265,0.755727,-0.271726,0.950930,-0.147976
0.050434,0.297175,0.736604,-0.372740,-0.324678,0.869281
0.255523,-0.915026,0.444027,0.555172,0.499748,0.664858
-0.386655,-0.308156,0.748929,0.062787,0.992175,0.107920
-0.881979,-0.315187,0.372788,-0.277377,-0.002005,0.960759
-0.224200,-0.602919,0.623951,0.922887,-0.307902,0.231251
-0.207233,0.206643,0.776867,-0.506827,0.401407,-0.762889
0.239117,-0.308022,0.803809,-0.113318,-0.956824,0.267669
