0.069414,-0.050690,0.881563,-0.093481,0.847430,0.522613
0.109000,-0.121856,0.922437,-0.645027,-0.410453,-0.644568
-0.183597,-0.136599,0.797092,0.334311,-0.819315,-0.465789
0.263733,-0.108084,-0.466879,0.504083,0.853080,0.134743
0.357285,-0.481086,0.824672,0.866973,-0.333247,0.370546
0.080593,0.426301,0.704301,0.287003,-0.569980,0.769904
0.346816,0.566267,0.327096,-0.041581,0.402167,0.914621
0.818741,-0.300652,0.633557,0.394664,-0.577650,0.714536
0.587936,-0.519733,0.307276,0.660627,0.036373,-0.749832
0.468469,-0.393114,0.567405,0.282839,0.955534,0.083410
0.645815,-0.436129,0.549150,0.111576,-0.926904,0.358329
0.385843,-0.689307,0.399850,0.441191,-0.219490,-0.870158
0.465064,-0.415077,0.519305,-0.406164,-0.856086,0.319606
0.155648,0.619840,0.469017,-0.268149,-0.557761,0.785493
0.491031,-0.331230,0.709988,0.358208,-0.869281,-0.340644
-0.345596,-0.173426,-0.034882,0.179980,-0.155433,0.971312
-0.007216,0.655210,0.515692,0.598431,-0.406455,0.690416
0.589613,0.441711,0.107853,-0.171312,0.770487,-0.614005
0.114691,-0.646534,0.613686,-0.334669,0.285712,0.897978
0.085471,-0.117063,0.800667,0.746835,0.514227,0.421672
0.006505,0.401122,0.492386,0.936509,0.035121,0.348879
0.154936,-0.347732,0.517600,0.868515,0.003974,-0.495647
0.513796,-0.380616,0.531123,0.290858,0.898593,-0.328531
0.783576,-0.235371,0.664063,0.805928,-0.206372,-0.554878
0.738299,0.246777,0.398807,-0.613043,0.786819,-0.071376
0.232939,0.241439,0.432366,-0.329423,0.050290,0.942842
0.233854,0.651995,0.523478,0.405115,0.319661,-0.856562
0.570507,-0.265646,0.642602,-0.080717,-0.987570,-0.134874
0.284415,0.665464,0.519050,0.506905,-0.273777,0.817370
0.681030,-0.518944,0.537319,-0.183968,-0.545882,0.817416
-0.125616,-0.548309,0.823489,0.842756,0.488382,-0.226376
-0.014076,0.003003,-0.487056,0.675660,0.695808,-0.243586
0.545657,0.556561,0.142634,0.069711,-0.868953,0.489960
0.289700,-0.193751,0.730228,0.694630,0.188998,-0.694096
0.183699,-0.183073,0.093261,0.095742,-0.982492,-0.159820
0.329133,0.821447,0.316600,0.550354,0.349950,0.758053
0.324000,-0.448991,0.829290,0.921084,-0.205689,0.330600
0.196910,-0.505597,0.507716,-0.008503,0.503003,0.864243
0.115097,-0.534476,0.461524,-0.434638,-0.744530,0.506720
0.071904,-0.619597,0.278601,0.139527,0.004523,0.990208
0.268357,-0.171667,-0.987609,0.498809,0.094821,0.861509
0.253468,-0.178766,0.293167,0.510475,-0.372768,0.774893
0.682860,-0.241377,0.421833,-0.006230,-0.912024,0.410090
-0.097820,-0.508570,0.602097,0.657982,-0.474758,0.584522
0.651913,-0.326740,0.589413,-0.174211,-0.911921,0.371552
0.060877,-0.345791,0.679507,-0.407395,0.779080,0.476513
0.571777,-0.272804,0.412152,-0.567092,-0.705415,-0.425201
0.117587,-0.177916,0.944725,0.742934,0.330730,-0.581951
0.650388,-0.164993,0.716768,0.920170,-0.294813,0.257630
-0.475481,0.036857,0.436831,0.216589,-0.189903,0.957615
-0.454291,-0.310481,0.359561,-0.171258,0.151168,0.973560
0.688703,0.418292,0.160317,-0.098191,-0.483940,0.869575
0.541491,0.156682,0.358441,-0.411098,-0.051415,0.910140
0.152701,-0.203822,0.928696,-0.513933,0.165589,-0.841696
0.442959,0.299560,-0.319335,0.734511,-0.288816,-0.614067
0.325677,0.110815,0.760301,0.893122,-0.438490,-0.100297
0.030337,-0.028970,0.220744,-0.648641,0.715500,0.259471
0.694954,-0.463188,0.542522,-0.625009,0.660105,-0.416684
-0.364551,-0.413802,0.239152,-0.318436,0.839284,0.440682
-0.084862,-0.371030,0.283664,-0.803986,0.594146,0.024434
0.296102,-0.160685,-0.394647,-0.601571,-0.795545,-0.072249
0.447787,-0.182284,0.176969,0.598504,0.126048,-0.791141
0.306824,-0.417988,-0.982203,0.230920,0.065343,0.970776
0.599979,-0.658365,0.344257,0.491442,0.331064,-0.805532
0.158138,0.036311,0.351495,0.958223,-0.276019,0.074979
-0.041516,0.056940,0.793428,-0.422059,-0.417422,0.804752
-0.025103,-0.402639,0.766204,-0.496266,0.844917,0.199589
0.592815,-0.402457,0.512435,0.510361,-0.852282,0.114659
0.217084,-0.074776,0.849008,-0.673015,0.666240,-0.321210
-0.046801,0.611102,0.438498,0.676968,-0.617669,0.400249
0.871029,0.214318,0.541262,0.523951,-0.848624,0.072888
0.391534,-0.598423,0.228835,-0.885346,-0.105112,0.452895
-0.104477,0.373093,0.567049,0.522818,0.837722,-0.157744
0.068906,-0.573366,0.716883,0.082210,0.483425,0.871517
0.390569,-0.070651,0.657104,-0.623917,0.338250,-0.704496
0.471416,-0.374428,0.718842,0.193530,-0.859787,-0.472559
0.690380,-0.036311,-0.150088,0.136499,-0.472255,0.870829
0.490879,0.581435,0.303739,0.545173,-0.220572,0.808786
0.204126,-0.499166,-0.976910,0.213160,0.091368,0.972736
0.157630,-0.157652,-0.068124,-0.696053,-0.706490,0.127988
0.359774,0.891582,0.313751,-0.532724,-0.130272,-0.836202
0.637126,-0.238404,0.537408,0.946171,0.089883,-0.310938
0.121500,0.308175,0.350363,0.826123,-0.040932,0.562001
0.181411,-0.310420,-0.974213,0.181355,-0.187152,0.965445
-0.059607,-0.202184,0.838081,-0.138553,0.280266,0.949871
0.118959,-0.207038,0.165278,-0.341762,0.603293,0.720581
0.858580,0.244471,0.536657,-0.216603,0.972039,0.090686
-0.155394,-0.463491,0.669113,0.881080,-0.057293,-0.469484
0.604959,-0.115486,0.689760,0.052942,-0.267015,0.962237
0.270999,0.291794,0.294605,-0.002182,0.506713,0.862112
0.520555,0.137995,0.671518,-0.890216,0.185268,0.416163
0.230194,-0.250599,0.028980,0.993322,0.106147,0.045218
0.064282,0.120704,0.740761,0.465866,0.701659,0.539113
0.152853,-0.168209,-0.745875,-0.238136,0.967879,-0.080634
0.406677,0.755256,0.312415,0.765992,0.313162,0.561414
0.177448,0.477506,0.369013,0.948356,0.268463,0.168962
0.350374,0.192598,0.225451,0.587224,-0.643457,0.491051
0.302556,-0.159897,0.694964,0.205461,-0.422933,0.882561
0.416180,-0.725284,0.566375,-0.718362,-0.019643,0.695392
0.469180,0.001972,0.694964,0.598498,-0.783558,-0.166844
0.777224,-0.339056,0.257318,-0.403893,0.183410,0.896232
0.160882,0.017686,0.532968,0.953600,-0.134658,-0.269285
-0.082423,-0.228455,0.838500,0.535443,0.209993,0.818048
0.174551,-0.115547,0.537726,0.953483,0.269520,0.135014
0.100259,-0.222691,0.893445,0.586966,0.798267,-0.135058
0.533259,-0.528773,0.305927,0.227455,-0.010919,-0.973727
-0.287312,-0.816593,0.294236,0.461839,0.230856,-0.856394
0.630418,-0.066525,0.711731,0.893430,0.213071,-0.395455
0.334468,-0.156196,-0.389304,0.487621,0.860949,0.144886
0.653590,0.082906,0.529215,0.486837,-0.508551,0.710187
0.103257,-0.257819,0.829112,0.066139,0.950233,-0.304438
0.392652,0.663947,0.256059,0.844690,0.498776,-0.194220
0.153158,-0.274928,0.191052,0.969132,-0.089704,-0.229643
-0.044768,-0.369392,0.784701,0.868062,0.496238,0.014720
0.613141,-0.633066,0.431056,-0.530504,-0.232587,-0.815149
0.140403,-0.583498,0.609437,0.448888,-0.134268,-0.883443
0.711520,-0.246352,0.404837,-0.015722,-0.987849,0.154617
-0.122110,0.418171,0.626687,0.910877,0.256332,0.323416
0.817267,0.219232,0.525182,0.148785,0.987072,0.059604
-0.171096,-0.602366,0.331624,0.021905,-0.948966,0.314618
0.415163,0.078295,0.675334,0.684496,-0.613181,-0.394303
0.482138,0.974215,0.421527,-0.163030,-0.764168,0.624074
0.240764,0.038010,-0.154872,0.953384,-0.108865,-0.281437
-0.017887,-0.082785,0.859911,-0.476659,0.557188,0.679954
0.339397,0.404945,0.306296,-0.447729,0.061819,-0.892030
0.052696,-0.581313,0.592072,0.088425,0.111874,0.989780
0.380202,0.200303,0.778404,-0.154562,0.953851,-0.257446
-0.094822,-0.031154,0.701439,0.088111,-0.977140,0.193479
0.022461,-0.104869,0.873357,-0.457928,-0.541456,-0.705073
0.083236,-0.170939,0.942219,0.831924,0.256676,0.491955
0.328827,0.566510,0.345733,-0.186982,0.681693,-0.707341
0.413283,-0.954922,0.444515,-0.490374,-0.858464,-0.150241
0.581889,0.710663,0.186090,0.737493,0.587958,0.332278
-0.592764,-0.696345,0.252191,-0.683541,0.583449,-0.438588
0.025255,-0.639011,0.731652,-0.111509,0.492372,0.863212
-0.711876,-0.580585,0.326065,0.394209,0.367325,0.842420
0.243356,-0.485393,0.726487,0.904790,-0.317633,0.283661
0.174704,-0.084484,0.398043,0.906278,0.277992,0.318404
0.183800,-0.064826,0.750226,-0.003093,-0.036744,0.999320
-0.299152,-0.263947,0.525729,0.242665,0.332236,0.911446
0.100208,0.014773,0.817026,0.883425,0.296854,0.362544
0.371563,0.657151,0.343506,-0.524801,-0.104675,-0.844765
0.784796,0.113545,0.501749,0.716957,-0.629110,0.300322
0.148636,-0.385288,-0.975982,0.220079,0.009632,0.975434
-0.198333,-0.215168,0.795184,0.111243,0.162335,0.980445
0.579349,-0.205400,0.319386,-0.257845,0.721832,0.642242
-0.426749,-0.290096,0.360617,-0.085194,0.110237,0.990247
0.245490,0.081632,-0.996018,0.269419,0.161180,0.949439
0.078713,-0.045290,0.883344,0.158879,-0.956867,-0.243234
-0.222217,-0.274807,0.691262,-0.205023,-0.964036,-0.169118
-0.335789,-0.063310,0.398209,-0.215493,-0.961114,0.172691
0.077595,-0.165054,0.906560,0.496790,-0.502433,-0.707644
0.808120,0.187806,0.509547,0.292079,0.942179,0.164281
0.648051,0.542546,0.162543,0.497953,0.176117,0.849132
0.893999,0.252420,0.566603,0.499833,-0.803924,0.322294
0.082372,-0.187684,0.904118,0.871404,0.484012,0.079923
0.280502,0.168573,0.627031,-0.651872,0.756819,-0.047826
-0.200214,-0.227120,0.452759,-0.655202,0.621606,-0.429322
0.145281,0.716852,0.198952,-0.022543,-0.682551,0.730491
0.114132,-0.257758,-0.279670,-0.501651,0.802739,-0.322423
0.212307,-0.089155,0.392891,0.666034,0.505105,0.548879
0.168149,-0.178462,0.223466,0.969360,0.199785,-0.142921
0.078663,-0.220082,0.923035,-0.042432,0.791140,0.610162
-0.391026,0.150250,0.676339,-0.540318,0.809902,-0.228287
0.157985,-0.166692,0.791113,0.518817,-0.824693,-0.225191
0.222521,-0.258486,-0.279377,-0.228486,-0.970248,-0.080078
0.767874,-0.105657,0.610340,-0.743866,0.601544,0.291219
-0.819808,-0.691309,0.347692,0.940894,-0.269666,-0.204937
0.271761,-0.452874,0.446780,-0.072024,0.391793,0.917230
0.014635,-0.053420,0.836490,-0.542079,0.074284,-0.837038
0.185680,-0.346337,0.222525,0.651796,0.352144,-0.671682
0.408811,-0.135628,0.698475,-0.227861,-0.764832,0.602588
-0.096143,0.106931,0.794929,0.227701,-0.973138,0.033977
0.219320,-0.052510,0.379992,0.911954,0.352085,0.210654
0.253417,0.201760,0.558360,-0.617311,0.748064,-0.243572
0.306723,-0.388503,0.696732,0.163553,0.239934,0.956913
0.596575,-0.300228,0.649649,0.803769,-0.278730,0.525610
0.000915,-0.040012,0.831529,0.817829,-0.098011,0.567053
0.445043,-0.404763,0.524508,0.422311,0.852594,-0.307793
0.335230,0.392326,0.304489,-0.472413,-0.104597,-0.875149
0.394837,-0.047232,-0.990828,0.032393,0.076272,0.996561
0.639666,-0.321341,0.631292,-0.499180,0.773032,0.391460
0.699883,-0.581920,0.345936,0.969647,0.071443,-0.233839
-0.269018,-0.453420,0.417889,0.559394,0.103279,0.822443
0.204940,-0.182709,0.804610,-0.331281,0.940868,-0.070858
0.050561,-0.085515,0.859084,0.006906,-0.239592,0.970849
0.720972,-0.179676,0.441449,-0.187798,-0.879373,0.437533
-0.447888,-0.453724,0.259659,-0.198840,-0.912497,-0.357508
0.670511,-0.123070,0.195402,-0.312405,0.617380,0.721973
-0.079679,-0.148976,0.671950,0.018966,-0.764050,0.644879
0.731084,-0.234157,0.343888,-0.033970,-0.328662,0.943837
0.053560,-0.167905,0.874566,0.594801,0.639146,0.487549
-0.223132,-0.398271,0.592492,0.226675,0.969351,-0.094749
-0.506479,-0.180828,0.325149,-0.145432,-0.154165,0.977283
0.097820,-0.227848,0.869961,0.934579,-0.290821,-0.204901
0.174450,-0.168937,0.880609,-0.421188,0.770768,-0.478035
0.526704,0.093039,0.161449,0.122335,0.028438,0.992081
0.224097,-0.351191,0.444744,0.255089,0.338744,0.905639
0.066568,0.062642,-0.049970,0.699674,-0.012290,-0.714356
0.288531,-0.345791,0.889208,-0.311222,0.751287,-0.581986
-0.656334,-0.641559,0.315570,-0.677520,0.317122,-0.663627
0.947151,-0.194115,0.361151,0.377540,0.083372,-0.922232
0.254179,-0.488730,0.836948,0.459047,0.719530,0.521108
-0.296255,-0.187987,0.350834,-0.089056,0.592602,0.800557
0.686417,-0.234885,0.426858,0.007201,-0.882836,0.469627
-0.078561,0.412771,0.644357,0.929482,-0.169669,0.327529
0.254738,0.713151,0.354002,-0.129309,-0.855869,0.500768
0.270440,-0.172698,0.676161,-0.375499,-0.805547,0.458361
0.100157,0.095525,0.728027,0.118549,0.822520,0.556243
0.269323,0.182042,0.405269,0.792788,-0.484218,0.370161
-0.057828,-0.084484,0.891422,-0.223312,0.896010,0.383793
0.038162,-0.483938,0.711209,0.554700,0.399025,0.730128
0.230449,-0.153041,0.157670,0.945984,-0.268749,0.181353
-0.040907,-0.377036,0.864325,0.720626,-0.530351,0.446571
0.137507,-0.234582,0.915580,-0.677193,0.610032,-0.411425
0.542964,-0.298346,0.652232,0.477638,0.728127,0.491623
0.300828,-0.417503,0.451792,-0.567112,0.161493,0.807653
-0.095126,-0.134658,0.344219,-0.013669,0.961657,0.273915
0.198943,-0.455847,0.847418,0.459497,0.873371,0.161513
0.493623,0.861065,0.401135,-0.165882,-0.955362,0.244473
-0.306927,-0.679721,0.313115,-0.105199,-0.172779,0.979327
0.226485,-0.147702,0.287125,0.613588,0.788146,-0.048318
0.040856,-0.230820,-0.149974,0.817473,-0.474652,-0.326256
0.480817,0.123374,0.693971,0.833543,-0.531054,-0.152275
0.458560,0.122585,0.158561,-0.328697,0.118252,0.937003
0.173738,-0.651388,0.725279,0.794695,0.489123,0.359471
-0.256619,-0.284999,0.433117,-0.295358,0.941735,-0.160930
0.197774,-0.185561,0.310265,0.842189,0.162330,0.514166
0.421312,-0.417988,0.795387,0.745209,0.634272,-0.205820
0.362061,-0.442500,-0.191332,0.498897,0.835951,-0.228667
-0.183496,0.431640,0.552534,-0.643237,-0.593029,0.484317
0.000864,-0.187138,0.841236,-0.646224,0.646029,0.406252
-0.267239,-0.475808,0.235933,-0.604567,0.194604,-0.772417
0.040195,0.674807,0.510565,-0.646111,-0.209463,-0.733938
0.619239,-0.252177,0.327439,-0.052443,0.565488,0.823087
-0.131511,-0.485636,0.402967,-0.621357,0.615268,-0.485140
0.495198,0.759563,0.305596,-0.115187,0.144296,0.982808
0.020529,0.343304,0.482998,0.470065,0.025483,0.882264
0.326998,0.816958,0.382243,-0.212202,-0.497600,0.841050
0.311296,-0.141028,-0.298498,-0.292386,0.787808,-0.542096
-0.651913,-0.697012,0.263742,0.496450,-0.391757,0.774638
0.132679,0.222327,0.830664,0.704482,-0.703569,0.093254
-0.281416,-0.332504,-0.064969,-0.347967,0.496012,-0.795544
0.802175,-0.360412,0.617235,0.507758,0.848827,-0.147225
0.866761,0.215228,0.530258,0.088386,0.974718,-0.205212
0.680573,0.267405,0.390003,-0.514727,0.105848,0.850795
0.263986,-0.294160,0.847138,0.605003,-0.736000,-0.303770
0.277555,-0.048263,0.145458,0.069976,-0.173068,0.982421
-0.363281,-0.190353,0.103070,-0.371568,-0.346111,-0.861478
0.756136,-0.412892,0.592161,-0.629326,0.466863,0.621279
0.542101,-0.163719,0.189207,0.155142,0.815763,-0.557191
0.379744,0.888488,0.310418,0.692240,0.116851,0.712144
0.133950,-0.234703,0.867302,-0.697700,0.199050,0.688182
0.238579,0.204914,0.430840,-0.394398,0.753992,0.525306
0.039636,-0.305081,0.323852,0.885132,-0.456377,-0.090898
0.584430,-0.316669,0.418856,0.187153,-0.200545,0.961642
0.152447,-0.172274,0.860534,-0.171482,-0.793645,0.583714
0.132883,-0.784498,0.295050,-0.554017,-0.257598,0.791649
-0.002541,-0.145579,0.835256,-0.517304,0.430563,0.739603
0.287616,0.443531,0.062221,0.931489,0.236949,0.276014
-0.208547,-0.031701,0.680639,0.088318,0.861609,0.499829
0.211087,-0.049355,0.049474,0.965899,-0.219507,0.137316
0.780172,-0.287365,0.637793,0.666725,0.734599,-0.125866
0.492708,-0.671106,0.430178,-0.407482,-0.367769,0.835886
0.077290,-0.051478,0.868841,0.748532,0.383747,-0.540775
0.247116,-0.202123,0.912769,0.064551,0.591248,-0.803902
-0.518624,-0.232155,0.335212,-0.680834,0.519466,0.516353
0.236699,-0.344577,-0.980880,0.088661,0.054342,0.994578
-0.187611,-0.158440,0.497157,0.239159,-0.875879,-0.419092
-0.055287,-0.528348,0.628659,0.801562,-0.553351,0.226499
-0.780731,-0.724981,0.274174,0.112647,-0.797910,0.592157
-0.294832,0.285181,0.112140,-0.288848,0.731440,0.617707
0.295950,0.129259,-0.085578,0.912546,-0.190554,0.361868
0.545353,-0.268315,0.171473,0.186650,0.854013,0.485616
0.420144,-0.359563,0.745722,-0.587377,0.704279,0.398724
0.130901,-0.328682,0.481789,0.876457,-0.418194,-0.238615
-0.121602,-0.376247,0.403628,-0.704440,0.082209,-0.704986
0.384878,-0.972031,0.423448,-0.079805,0.992478,-0.092837
0.269576,0.351919,0.427990,-0.565155,0.735758,-0.373176
-0.297729,0.069680,0.263361,-0.093023,0.683009,0.724462
0.055846,-0.052267,-0.323928,0.072724,0.991690,-0.106121
0.110270,0.019385,0.794611,0.259787,0.289485,0.921254
0.564460,0.017746,0.501279,0.178914,-0.868004,0.463205
-0.191829,0.165297,0.477680,0.100868,0.912654,-0.396092
0.402358,0.437221,-0.188075,0.939535,-0.086483,0.331353
0.036486,0.709996,0.156335,-0.457765,0.888306,-0.036922
0.145383,-0.187259,0.969952,-0.479806,0.796491,0.367951
0.875654,-0.253936,0.359459,0.131255,-0.405618,0.904570
0.231617,-0.283240,0.677192,-0.685525,-0.655177,-0.317486
0.208242,0.620750,0.193825,-0.447237,0.558371,-0.698714
0.112912,-0.243865,0.680868,0.692325,-0.412631,-0.591964
0.311652,0.647869,0.358149,0.390614,-0.450690,0.802682
0.136694,-0.259578,0.901434,0.048440,0.991530,0.120505
0.481224,-0.112574,0.691860,0.195809,0.097516,0.975781
-0.429493,-0.085090,0.099241,0.335977,-0.146687,0.930378
0.139031,-0.701562,0.540334,-0.585975,0.457606,0.668753
0.751868,-0.427696,0.609539,0.662276,-0.703061,0.259029
-0.051883,-0.300228,0.665093,0.307005,0.660491,0.685201
0.793739,-0.329895,0.600634,-0.205849,-0.883654,0.420454
0.213832,-0.283786,0.545829,0.901365,0.425137,0.082461
0.479445,0.510025,0.267304,-0.611975,0.720263,-0.326661
0.275623,-0.256605,0.858130,0.698975,-0.063126,-0.712355
-0.171147,-0.294585,0.602186,-0.014604,0.859962,0.510150
0.696021,-0.645927,0.334296,0.792246,0.024137,-0.609724
0.118959,-0.054937,0.452860,0.486278,0.866871,0.109861
0.033284,0.323222,0.367639,0.975994,0.170952,-0.134952
0.448955,0.633794,0.319806,0.203273,-0.815020,0.542606
-0.024646,0.453117,0.441945,0.862651,0.467188,0.193828
0.570557,0.003549,0.530945,-0.208963,0.955112,0.209990
-0.002643,0.582163,0.498314,0.774154,-0.422547,0.471316
0.192947,0.148490,0.606625,-0.731931,0.648257,0.209856
0.487576,-0.263340,0.695371,0.891642,-0.447609,0.067969
0.045327,-0.385651,0.333749,-0.219466,-0.455917,-0.862540
-0.411708,-0.392811,0.501927,-0.167389,0.894782,0.413939
0.004065,-0.267284,0.876143,0.182085,0.140164,0.973241
0.108441,0.333172,-0.251313,-0.637829,-0.112230,0.761957
0.301946,0.645260,0.353773,-0.046770,-0.748709,0.661247
0.191524,-0.189808,0.585978,0.789140,0.607360,-0.091500
0.030184,0.463916,0.314349,-0.509783,0.852203,-0.117776
-0.069973,-0.462278,0.823158,0.391507,-0.810361,-0.435933
-0.228162,0.028788,0.285191,-0.110367,0.661761,0.741547
0.685095,-0.495404,0.539939,-0.299765,-0.499691,0.812681
0.303013,-0.145154,-0.039360,-0.449062,0.711123,-0.540968
0.218050,0.109177,0.629804,0.635763,-0.770757,0.041698
0.594542,-0.368239,0.495427,0.843735,-0.285289,-0.454665
-0.011840,-0.014288,0.703360,-0.635709,0.496899,0.590733
-0.103867,-0.375156,0.620937,-0.545212,-0.696532,0.466464
-0.106306,0.475626,0.629015,0.720813,-0.174674,0.670759
0.626047,-0.201638,0.688768,0.423795,-0.535035,0.730845
0.347630,0.210253,0.598255,-0.633598,0.771212,-0.061529
0.095584,-0.405369,0.823387,-0.231388,0.171416,-0.957641
0.181869,-0.144122,0.911178,0.749181,0.519023,-0.411512
0.113979,-0.041043,0.917259,0.738224,0.457656,0.495556
0.312211,0.348339,0.564492,-0.403791,-0.320488,0.856878
0.002439,0.670074,0.545180,0.137882,0.990432,0.005698
0.619188,-0.394631,0.515018,-0.788261,0.506290,0.349736
-0.033640,-0.534112,0.721068,0.718610,0.361425,0.594114
0.253468,-0.339785,0.569669,0.174043,-0.579016,0.796523
0.625844,-0.181010,0.435814,-0.527187,-0.574271,0.626328
-0.211342,-0.616684,0.306042,-0.387002,0.804788,0.450051
0.000508,-0.094069,-0.171957,-0.352619,-0.350680,0.867573
-0.055542,0.150797,0.501418,-0.577414,-0.789842,0.206744
0.821891,-0.237980,0.676530,0.880715,-0.124098,-0.457101
0.433965,-0.464766,0.603394,-0.536817,0.692918,0.481345
0.244728,-0.560139,0.452606,0.850741,-0.518287,0.087284
0.439097,0.098135,0.154287,0.273513,-0.034287,-0.961257
0.511306,-0.408100,0.514623,-0.174682,-0.941333,0.288753
0.189999,-0.118156,0.322974,-0.509521,-0.834838,0.208407
0.241628,-0.300713,0.744272,-0.767629,-0.618025,0.169677
-0.249302,-0.293918,0.447556,0.298862,-0.937814,0.176597
0.050968,-0.253451,0.907871,-0.545002,0.833699,0.088987
-0.361249,0.007736,0.418220,0.324651,-0.182981,0.927965
0.003862,-0.117488,0.945692,0.901311,-0.322551,-0.289136
0.258346,-0.782739,0.518974,0.029060,0.860756,0.508188
0.078104,-0.557409,0.728345,0.180724,0.521190,0.834086
0.367143,-0.665100,0.580457,-0.078356,0.079774,0.993729
0.234921,-0.094555,0.438193,-0.175656,-0.982363,-0.064092
0.893440,-0.292461,0.349256,-0.029081,-0.559176,0.828539
0.300777,-0.164811,0.874146,0.776324,-0.468706,0.421469
0.164846,-0.255877,0.823743,-0.538553,0.614025,0.577005
0.019513,0.748278,0.529406,-0.246788,0.884811,-0.395228
0.095685,-0.820598,0.552330,0.472213,-0.785049,-0.400891
0.512780,0.106508,0.161232,-0.166011,-0.118768,0.978946
0.094364,-0.358411,0.275433,-0.062744,0.292430,0.954226
0.052442,0.680995,0.142290,0.390839,0.890185,-0.234129
0.600030,0.196785,0.370400,-0.459152,0.215259,0.861884
-0.823975,-0.312483,0.151373,-0.316273,0.321212,0.892633
0.076325,-0.713332,0.289147,0.619346,0.401643,-0.674606
0.017176,-0.279781,0.881143,-0.188636,-0.518451,0.834041
-0.793079,-0.673775,0.328482,0.463882,0.489900,0.738113
0.114996,0.197877,0.805933,-0.033403,-0.934629,0.354053
0.220641,0.211285,0.451308,-0.050339,0.472619,0.879828
0.002795,-0.347490,0.827700,0.909711,0.404754,-0.092732
0.242898,-0.152070,0.863982,0.996964,-0.009717,-0.077258
0.396768,0.440134,0.215808,-0.807483,0.352771,0.472783
-0.143808,-0.499348,0.376735,0.232299,-0.930778,0.282292
0.368260,0.057364,0.045339,-0.140543,0.794614,-0.590623
0.601352,-0.672440,0.426120,0.322848,-0.455264,0.829762
-0.569490,-0.572759,0.256186,0.034394,-0.023607,0.999129
0.796178,0.245625,0.537357,0.367304,0.672495,-0.642524
0.547030,-0.202851,0.576348,0.955661,0.156694,-0.249317
-0.531633,-0.224450,0.322567,0.279801,0.410037,-0.868090
0.489659,-0.100257,-0.552445,-0.363699,0.887841,-0.281890
-0.247726,-0.200485,-0.036129,-0.196865,0.455333,-0.868283
0.473702,-0.072592,0.808656,0.634288,0.421410,-0.648145
0.257178,-0.428545,0.142303,0.482349,0.770493,0.416749
0.311194,-0.498559,0.831643,0.781721,-0.618578,0.079213
0.850551,0.258729,0.575318,-0.673420,0.704151,-0.225116
-0.524163,-0.435522,0.269569,-0.013172,0.999413,0.031618
-0.022206,0.009495,0.786457,-0.021527,-0.233929,0.972015
-0.270238,-0.124951,0.350223,-0.634519,0.747849,0.195212
0.095685,-0.095344,0.940820,0.797820,0.570061,0.196247
0.789217,-0.078174,0.482947,-0.563525,-0.268991,0.781078
-0.254993,-0.043956,0.709161,0.443059,0.518861,0.731083
0.548656,0.146732,0.143384,0.856128,-0.370992,0.359736
0.261141,-0.531139,0.574898,0.772884,0.464326,0.432496
0.782661,-0.157227,0.631776,-0.390865,0.761353,0.517269
-0.455155,-0.491703,0.241772,0.753242,-0.657686,0.008663
0.084506,0.353072,0.696147,0.395371,-0.481654,0.782107
0.303725,0.382133,0.675805,-0.140017,-0.891210,0.431439
0.343158,0.245017,-0.086201,0.960473,0.136267,0.242739
0.353778,-0.146125,0.889743,-0.650983,0.691844,0.312367
0.483663,-0.210435,-0.063887,0.092453,0.185293,0.978325
0.092891,-0.129319,0.800361,0.748293,0.391055,0.535848
0.308501,-0.271106,0.871487,0.829724,-0.267385,-0.489963
0.103715,0.616260,0.489308,-0.056315,-0.599946,0.798056
0.069364,-0.356105,0.883026,0.143140,0.931668,0.333923
-0.044006,-0.363689,-0.175201,-0.744076,0.564908,-0.356693
-0.092738,0.316669,0.734871,0.802272,-0.524735,-0.284628
0.210783,-0.223236,0.715369,0.546175,-0.216691,-0.809159
-0.080695,-0.424480,0.818477,0.680737,-0.556048,-0.476873
-0.317445,-0.227727,-0.040200,-0.294908,0.329314,-0.896985
-0.615834,0.205400,0.138944,0.832018,0.469451,-0.295570
0.551959,0.611831,0.185480,-0.690585,0.057676,-0.720948
0.419228,-0.307993,0.706222,0.194077,-0.980894,-0.013479
0.344581,-0.153041,0.893127,-0.554058,0.802354,0.221921
-0.027187,-0.478174,0.161869,0.946532,0.030350,0.321178
0.341887,0.237980,0.636063,-0.625812,0.672558,-0.395000
-0.237613,-0.295374,0.606511,-0.298554,-0.887224,-0.351710
0.859748,-0.054330,0.495694,-0.327214,-0.548279,0.769624
-0.233243,-0.534961,0.403679,0.726907,-0.453373,0.515809
0.658925,-0.404277,0.550384,-0.050246,-0.955573,0.290440
0.822297,-0.304171,0.346216,0.138505,-0.702721,0.697853
0.376289,0.267648,0.274619,0.951365,-0.259198,0.166497
0.514253,0.073077,0.525386,-0.556220,0.467571,-0.687020
-0.169369,0.087093,0.802219,0.747193,-0.520391,-0.413396
0.616748,-0.718732,0.437671,-0.401960,-0.101546,-0.910009
0.791757,-0.331837,0.624448,0.459623,0.862086,-0.213434
0.397479,-0.349552,0.756727,-0.158902,0.974948,0.155646
0.332080,0.063674,0.745659,0.967744,-0.216339,0.129105
-0.060419,0.177856,0.736487,-0.705877,-0.686138,0.175935
-0.089791,-0.262612,0.843398,0.838800,-0.128633,0.529025
0.269882,-0.450811,0.560179,0.992435,0.041667,-0.115485
0.577417,-0.219172,0.177402,0.931566,0.361966,-0.034151
0.154327,-0.214925,0.887415,-0.040678,0.144174,0.988716
-0.408252,-0.583680,0.451944,-0.663694,0.684972,-0.300537
-0.934448,-0.407978,0.114468,0.123755,-0.661257,0.739881
0.835307,0.101593,0.493518,0.178136,-0.896520,0.405609
0.156055,-0.670620,0.372600,-0.379563,-0.924718,-0.028801
0.114640,0.269831,0.673757,0.256184,-0.652154,0.713488
0.638447,-0.639011,0.430025,-0.499340,0.035344,-0.865685
0.096905,0.580161,0.291272,0.848205,-0.186593,-0.495714
0.696021,0.100136,0.503149,0.102898,0.019240,0.994506
0.563799,0.071864,0.692305,0.781134,-0.618703,-0.083880
0.194421,-0.327286,0.441996,0.244114,0.357542,0.901428
0.091570,-0.841165,0.576094,-0.472057,0.716320,0.513856
-0.593475,-0.645442,0.259888,0.567334,-0.605628,0.557985
0.314346,0.056515,0.746944,0.808216,-0.532842,0.250730
0.325219,-0.100379,0.773722,-0.588139,0.808211,0.029803
0.400732,0.778371,0.286972,0.975453,0.127474,-0.179559
0.259617,-0.284150,0.655311,-0.414280,0.906733,0.078789
0.324559,-0.666434,0.700726,0.910282,-0.413989,0.000390
0.441841,0.864402,0.396555,0.066190,-0.746980,0.661544
-0.566797,-0.601335,0.251046,-0.429166,0.718675,-0.547104
0.253976,-0.563901,0.725813,0.506013,0.454874,0.732831
0.546471,-0.092007,-0.151361,-0.247787,0.422345,-0.871910
0.186747,-0.147338,0.241429,0.858531,0.511797,0.031440
-0.200315,-0.420355,0.127470,0.668201,0.426945,0.609283
0.431425,-0.091521,0.816136,0.306112,-0.649661,0.695871
-0.867270,-0.823146,0.288702,-0.528079,0.277715,-0.802501
-0.142233,-0.011618,0.284122,0.029742,0.475245,0.879351
0.338126,0.632823,0.316308,0.386212,-0.160941,0.908261
-0.127801,-0.195510,0.788861,-0.367201,0.044445,-0.929079
0.079018,0.083999,0.749030,0.519271,0.852579,0.058877
-0.295086,0.160989,0.465556,0.072885,-0.321314,0.944164
0.012043,0.080540,0.796303,-0.018582,-0.590106,0.807112
0.413740,0.664857,0.213709,0.231269,0.827111,0.512251
-0.360791,0.025270,0.413538,0.076942,-0.277743,0.957569
-0.357538,-0.245563,0.450698,-0.097983,0.586125,-0.804274
0.416840,-0.048506,0.018764,0.040082,-0.824449,0.564515
0.415010,0.795420,0.307415,-0.683391,-0.073582,-0.726335
0.905839,-0.328075,0.272368,-0.643781,-0.413229,0.644040
0.396666,0.472350,0.285051,0.871129,-0.469660,0.143367
-0.179481,-0.272016,0.457198,-0.180236,0.933074,-0.311268
0.267442,0.127742,-0.209053,-0.837129,0.511775,-0.193137
0.328878,-0.156257,0.900543,-0.691663,0.676376,0.253215
0.125515,-0.363992,0.700268,-0.415670,-0.112829,0.902490
0.032522,-0.388806,0.811518,0.994377,-0.061511,-0.086201
0.268713,-0.343061,0.707087,-0.126528,0.961499,-0.243948
0.388587,-0.405127,0.777857,0.946667,0.240961,0.213912
0.208598,-0.263582,0.831300,-0.364215,0.830409,-0.421626
0.084404,-0.017624,0.864465,0.492299,-0.551976,0.673027
-0.664922,-0.775823,0.252484,0.350797,-0.605098,0.714701
0.644952,0.050569,0.523249,0.531816,-0.654401,0.537523
0.289141,-0.207038,-0.447085,0.402659,0.914523,-0.038900
0.557650,0.064524,0.511367,0.292812,-0.102543,0.950656
-0.163575,0.523252,0.678947,0.701136,0.693110,0.167355
-0.481071,-0.258183,-0.026206,0.215191,-0.600785,0.769903
-0.042126,-0.255331,0.873205,-0.145856,-0.521583,0.840641
0.471517,-0.615350,0.455812,-0.260576,-0.257355,0.930521
-0.521012,-0.581010,0.270905,0.964285,-0.241339,0.109138
0.274302,-0.061672,-0.994224,-0.181384,-0.275981,-0.943893
0.265968,-0.600364,0.483278,0.312537,-0.949899,-0.003664
-0.708013,-0.268497,0.137354,-0.350876,0.066791,-0.934037
-0.200671,-0.043773,-0.159871,0.097002,-0.636600,0.765069
0.257483,-0.753193,0.595023,-0.599685,0.796126,0.081005
0.231820,-0.197269,0.908431,0.004912,-0.612866,0.790172
0.309467,0.440740,0.299706,-0.391454,0.333682,-0.857566
-0.402714,-0.359563,0.564822,0.077554,-0.779280,0.621858
-0.186544,-0.288639,0.674495,0.650641,0.042563,0.758192
0.243762,-0.109844,-0.719554,0.778302,-0.392020,-0.490475
0.438539,0.733597,0.305698,-0.009795,0.233947,0.972200
-0.296458,-0.332018,0.485695,0.189662,0.610567,0.768919
0.095228,0.097042,0.714300,0.294268,0.902131,0.315542
0.601606,-0.526467,-0.179183,0.150182,-0.699208,0.698966
0.503481,-0.618687,0.464908,0.003260,-0.435384,0.900239
-0.190965,-0.455483,0.409315,-0.454728,0.516457,-0.725600
0.098785,-0.084605,-0.072589,-0.281929,-0.959424,0.004720
-0.235175,-0.298104,0.686707,-0.705552,0.071266,-0.705065
0.075360,-0.832246,0.573791,0.284783,-0.672281,-0.683328
-0.412928,-0.507599,0.441398,-0.732654,0.679568,-0.037499
0.164846,-0.167481,0.873396,0.428007,0.903340,-0.028052
0.488185,0.449295,0.132813,0.305555,-0.657725,0.688501
0.578789,-0.307568,0.732594,-0.705427,0.681013,0.196453
0.168657,-0.174579,0.865508,-0.008867,-0.899125,0.437602
0.406067,-0.506750,0.611968,0.023257,-0.896699,0.442030
0.281366,-0.068284,-0.012340,0.175107,0.822121,0.541714
-0.267595,-0.633672,0.305902,0.140305,0.579475,0.802822
0.438081,-0.332686,0.720279,0.037064,0.977911,0.205710
0.052187,-0.186592,0.982521,-0.397954,0.913152,0.088239
-0.253011,-0.532777,0.425675,-0.723899,0.131676,-0.677224
0.386452,-0.071925,0.798224,0.137150,-0.392269,0.909568
-0.000356,-0.094069,-0.263539,-0.730869,-0.678280,0.075937
0.650237,-0.251448,0.682115,0.957372,0.046768,-0.285048
0.335840,-0.391658,0.808109,0.732642,0.388870,0.558584
0.142233,-0.198908,0.791901,0.301361,-0.953076,0.028778
0.289141,-0.596845,0.593001,0.367417,0.215877,0.904656
-0.329183,-0.376308,0.605735,-0.463665,0.460494,-0.756941
0.216169,-0.142788,0.880163,-0.216838,0.414927,-0.883638
0.286904,-0.640831,0.709263,-0.877804,0.310049,-0.365143
-0.597388,-0.454087,0.260956,-0.024945,0.989698,-0.140980
0.267544,-0.503958,-0.981058,-0.027802,0.247656,0.968449
-0.009401,0.056272,0.766802,-0.170042,0.959161,0.226043
-0.426444,-0.433642,0.548793,0.099740,-0.887231,0.450415
-0.010265,-0.084908,0.918290,0.885691,-0.342925,-0.312976
0.611515,-0.649689,0.321155,-0.622729,-0.519511,0.585078
0.510950,-0.028667,0.708168,-0.417205,0.874819,0.246234
0.782306,0.068164,0.495846,-0.531675,0.595127,-0.602615
0.018649,-0.329653,0.839022,0.131414,-0.989021,-0.067580
0.047970,-0.023085,0.902859,-0.688159,0.553573,0.469035
-0.011637,-0.197755,0.883153,0.862445,-0.097027,-0.496763
0.427258,-0.533991,-0.052832,-0.590956,0.371333,0.716158
0.409574,0.913181,0.381836,0.668111,0.682174,0.297099
0.717872,-0.107599,0.468164,-0.485696,0.049175,0.872743
0.360689,-0.348521,0.745735,-0.224642,0.970176,0.091079
0.477972,0.060337,0.353035,-0.164895,-0.201896,0.965426
0.198994,-0.240588,0.907896,-0.372168,0.903683,-0.211772
0.014177,0.571667,0.505833,0.658387,-0.476150,0.582930
0.006911,0.059245,0.686936,-0.306950,-0.026018,-0.951370
0.140555,0.584651,0.528655,-0.169201,-0.916512,0.362458
-0.341227,0.045109,0.415879,0.228235,-0.191309,0.954625
-0.118248,0.112574,0.800743,0.381133,-0.902016,-0.202745
0.608466,-0.152738,0.712774,0.661624,-0.590768,-0.461786
0.151735,-0.148187,0.964151,-0.560492,0.704989,0.434557
-0.528787,0.134658,0.117687,0.308228,0.850536,0.426127
0.223029,-0.156317,0.860878,0.328095,-0.888703,0.320251
0.247879,0.192841,0.413411,0.592515,-0.606477,0.530199
0.515016,-0.292765,0.329742,0.679416,0.322343,-0.659158
0.111489,-0.196481,0.873077,0.814076,-0.580751,-0.002855
0.307586,0.197270,0.560103,0.500029,-0.515273,-0.696035
0.140810,0.305445,0.688819,0.720791,0.662869,0.202646
-0.075207,-0.037221,0.395588,-0.244104,-0.926784,0.285457
0.082524,-0.626574,0.522918,0.616429,-0.159636,-0.771059
0.202754,-0.141332,-0.156640,-0.041286,-0.993817,-0.103068
-0.206921,-0.346034,0.622311,0.324737,0.906683,-0.269207
-0.295493,-0.323768,0.598229,-0.578461,0.522568,-0.626343
0.188628,0.029820,0.774804,-0.600118,0.286569,-0.746818
0.102800,-0.236645,0.977966,-0.286999,0.949992,-0.123073
-0.238783,-0.290884,-0.056763,-0.176077,0.513579,-0.839782
0.228416,-0.110572,0.734973,-0.743542,0.596297,-0.302613
-0.695665,-0.722736,0.265905,0.672947,-0.319152,0.667297
0.463133,-0.320552,0.749157,-0.430921,0.803410,0.410900
-0.061944,0.500198,0.615734,-0.768444,0.127850,0.627016
-0.204380,-0.074048,0.139122,-0.588190,-0.156945,0.793348
0.014990,0.328561,0.487552,0.397041,0.047748,0.916558
-0.770872,-0.344942,0.112674,0.314757,0.928100,-0.198891
0.642614,0.075869,0.486522,-0.162901,0.713169,0.681802
0.212003,-0.477749,0.562367,-0.643223,-0.606401,-0.467485
-0.450277,-0.367208,0.584223,-0.255778,0.913094,-0.317550
-0.010824,-0.057425,0.449934,0.356713,0.120605,0.926396
0.723207,-0.238040,0.337680,-0.123527,-0.354126,0.927004
0.472026,0.860579,0.406147,-0.060815,0.836420,0.544705
0.142893,-0.175732,0.561464,0.848199,0.517978,-0.110709
0.082677,-0.095707,0.898063,-0.736286,0.291083,0.610863
0.101225,-0.730927,0.545231,0.775461,-0.596190,-0.207888
0.148330,-0.671470,0.383744,0.326891,0.944772,0.023420
0.236038,-0.556196,0.714173,-0.832458,0.062493,-0.550553
-0.913207,-0.833156,0.299261,-0.642510,0.381682,-0.664454
0.042279,-0.098438,0.945348,0.365709,0.556756,0.745841
0.795823,-0.181010,0.449451,-0.380893,0.912691,-0.148040
-0.174704,-0.351676,0.413182,-0.509085,-0.020637,-0.860469
0.217643,-0.891825,0.296793,-0.002243,-0.218208,0.975900
-0.057371,-0.079327,0.572481,-0.245949,-0.201663,0.948072
0.039789,0.436069,0.713524,-0.451303,0.886649,-0.100894
-0.223132,-0.258365,0.527103,-0.366576,-0.162497,-0.916088
-0.072412,-0.262490,0.575152,0.234896,0.433022,0.870239
0.421464,-0.200243,0.313127,-0.425247,0.804374,0.414907
0.183596,-0.178401,0.932423,0.731777,-0.352753,-0.583153
-0.810814,-0.368361,0.147073,0.198065,-0.228383,0.953211
0.380202,-0.104565,0.446576,-0.275412,0.865178,-0.419065
-0.124498,-0.245745,-0.033839,-0.445626,-0.073813,0.892171
0.334011,-0.215896,0.109519,-0.274833,0.551297,0.787743
0.148483,-0.147763,0.878306,-0.518424,-0.842818,-0.144550
0.151227,-0.058820,-0.220387,-0.164869,-0.840171,0.516654
0.752833,-0.654482,0.353734,0.639281,0.074487,-0.765357
-0.180446,-0.491218,0.711196,-0.036635,0.945208,0.324407
-0.142487,0.187927,0.789103,-0.582501,0.809876,-0.069238
0.549621,-0.292280,0.734260,-0.612379,0.775316,-0.154518
0.097261,-0.315335,0.720152,-0.553512,0.827600,-0.093286
0.776615,-0.402639,0.257636,0.490886,0.106277,-0.864718
0.268459,-0.315213,0.208340,0.982550,-0.175481,-0.061654
0.069617,-0.286759,0.835651,-0.622260,0.158501,-0.766597
0.313735,0.439649,0.456219,-0.292389,0.658715,-0.693256
0.231414,-0.121674,0.897045,-0.620198,-0.350392,-0.701841
0.276234,-0.686455,0.734655,-0.784611,-0.373489,-0.494866
0.498958,0.683179,0.195199,-0.378029,-0.260764,0.888311
0.646933,0.156196,0.473431,-0.319852,0.940151,0.117521
0.206108,-0.267951,0.203862,0.919328,-0.290821,0.265063
-0.073175,-0.504747,0.263692,0.827084,0.113262,0.550549
0.319071,0.358411,0.376710,0.799050,0.072974,-0.596820
0.165100,-0.157652,-0.795374,0.272801,0.961618,-0.029516
0.460897,0.597452,0.301029,0.436962,-0.503969,0.745037
0.537222,-0.382800,0.304871,-0.304293,-0.282678,0.909670
0.327049,0.003732,-0.996336,0.024714,0.235290,0.971611
0.207023,0.191385,0.690842,0.934006,0.346133,-0.088454
-0.825804,-0.638829,0.326727,0.285308,0.425365,0.858874
0.175415,0.371152,-0.387294,-0.712009,-0.670572,-0.208270
0.242289,0.419202,0.298930,-0.431290,0.572182,-0.697564
0.197114,-0.097892,-0.263513,0.999917,0.012252,0.003940
0.371818,0.154133,0.773468,0.208771,-0.913145,0.350115
0.807663,0.187987,0.520895,0.047511,-0.673395,0.737754
0.407998,-0.008342,0.673172,-0.679846,0.723250,0.121319
0.394939,-0.952495,0.416350,-0.310682,0.683240,0.660802
0.793993,0.180039,0.526849,0.372189,-0.290626,0.881483
0.269627,-0.213651,0.868549,0.948969,-0.172253,0.264172
0.290156,0.030002,-0.325404,-0.239637,0.394736,0.886994
0.424056,-0.069983,0.815945,-0.037912,-0.597993,0.800604
0.420600,0.767147,0.188673,0.183112,-0.980651,-0.069231
-0.070532,0.266374,0.744654,0.579715,-0.139898,-0.802720
0.587834,0.112574,0.692763,0.867165,-0.497292,-0.026934
-0.344174,-0.498801,0.252382,-0.547763,0.038904,-0.835728
-0.209564,-0.221659,0.658415,0.576678,-0.706636,-0.410009
0.182276,0.004338,0.382218,0.949544,-0.210653,-0.232360
0.267697,0.184226,0.445749,0.955474,0.053739,-0.290142
0.184105,-0.388321,0.835409,0.843726,0.026557,-0.536116
0.567508,0.714243,0.173789,0.700356,0.710906,0.064144
0.224909,0.302169,0.309260,0.124575,0.420147,0.898865
0.604553,-0.536964,0.318801,0.782239,-0.061909,-0.619894
0.072361,-0.255392,-0.211113,0.134958,-0.679003,-0.721624
0.097871,-0.241923,0.930388,0.300256,-0.028322,0.953438
0.251181,-0.444865,0.392624,-0.591302,-0.394182,0.703550
-0.106510,0.020901,0.769512,0.152092,0.977629,-0.145294
0.518420,0.159108,0.353187,-0.163864,-0.468309,0.868237
0.132781,-0.026786,-0.460074,-0.159613,-0.987066,0.014978
0.152294,-0.166692,-0.618520,0.774159,-0.632463,-0.025858
0.137659,-0.003186,0.344639,0.995730,-0.005609,0.092145
0.338076,0.428849,0.197603,0.857176,0.014126,-0.514829
0.598150,-0.020355,0.037465,0.306376,0.850653,-0.427227
0.838660,0.206796,0.543934,-0.213586,-0.927687,-0.306231
-0.827634,-0.259457,0.149669,-0.316273,0.321212,0.892633
-0.078307,-0.588108,0.832610,-0.502718,-0.849794,-0.158509
0.193201,-0.526953,0.271961,0.280306,-0.690595,0.666713
-0.039992,-0.294585,0.746804,-0.296040,-0.202747,0.933410
-0.091824,-0.124344,-0.042223,0.139744,-0.989743,-0.029659
0.420906,-0.418292,0.623850,0.170091,-0.058287,0.983703
-0.121399,-0.309995,0.669635,0.234120,-0.146147,0.961160
0.602978,0.432368,0.160596,-0.237715,0.721772,-0.650028
0.571574,0.572092,0.266846,-0.581645,0.597169,-0.552339
0.124600,-0.496921,0.592263,0.454237,-0.645715,-0.613776
0.203618,0.302958,0.318661,-0.603137,0.214584,-0.768232
0.190711,-0.412953,0.761891,-0.305197,-0.917322,0.255685
-0.176483,-0.002761,0.749450,-0.900854,0.170541,0.399222
0.502464,0.785895,0.196840,0.615847,0.787795,0.010527
-0.623761,-0.297497,0.128894,-0.530159,-0.029881,-0.847372
0.346359,0.029820,-0.997735,0.008823,0.249355,0.968372
0.048326,-0.348642,-0.208989,-0.266541,0.852258,0.450125
0.225976,0.279781,0.388401,0.701412,0.556777,-0.444995
0.162457,-0.072774,0.167059,0.873295,0.291716,0.390203
0.128563,0.353861,0.457885,0.810500,-0.585241,0.024134
0.262615,0.617412,0.495605,-0.303924,-0.935919,-0.178005
0.449616,0.120583,0.542636,0.446610,-0.411992,0.794230
0.169469,0.037828,0.551796,-0.573978,0.818018,0.037358
-0.130800,-0.525375,0.170239,0.753320,0.544667,0.368575
0.640835,-0.293554,0.690015,0.789771,-0.356478,0.499184
-0.115961,-0.037646,0.392662,-0.071868,0.765084,-0.639908
0.086844,-0.191202,0.914550,-0.461888,-0.727448,-0.507423
0.248996,-0.037463,0.845357,-0.661660,0.660671,0.354569
0.489964,-0.628940,0.463318,-0.241361,-0.618998,0.747387
0.551806,0.464523,0.166715,0.056596,-0.419810,0.905846
-0.092941,-0.371090,-0.162008,-0.819589,0.555305,-0.141101
-0.695970,-0.368846,0.073365,-0.059122,0.964694,0.256650
0.803241,-0.682511,0.365069,0.731419,0.320711,-0.601807
0.750495,-0.298711,0.631000,-0.643409,-0.685924,0.339902
0.222877,-0.118459,0.706095,0.888853,0.054075,0.454990
0.037197,-0.231427,0.967789,0.076913,0.996553,-0.031082
-0.065756,-0.412710,0.750595,-0.073080,-0.950895,-0.300763
-0.467097,-0.204004,0.073034,-0.234686,-0.940805,0.244557
-0.138270,-0.436311,0.147493,0.739897,0.659942,-0.130495
0.321358,0.528591,0.320175,-0.466897,0.792362,-0.392644
0.700798,-0.459912,0.535334,0.740262,0.033314,-0.671493
0.008486,-0.139330,0.897147,-0.223332,0.717670,0.659600
0.672341,0.104262,0.376480,0.763292,-0.637019,-0.107666
-0.040653,-0.060640,0.844785,0.753374,-0.657356,-0.017610
0.117689,0.771880,0.355134,-0.311354,0.800466,0.512165
0.838610,-0.111482,0.472464,-0.801976,0.532171,0.271346
0.587479,-0.325223,0.630873,-0.360105,0.837415,0.411170
-0.331877,-0.355013,0.616892,0.381316,-0.752864,0.536465
0.682351,0.192841,0.387065,0.234572,-0.452664,0.860274
-0.192592,-0.478720,0.403870,-0.398140,0.511413,-0.761539
0.881142,-0.113484,0.488277,0.113259,-0.818671,0.562983
0.029778,-0.187077,0.775364,0.478303,0.361701,-0.800249
0.416942,-0.688882,0.418360,0.595662,0.350254,-0.722848
0.127192,0.138784,0.793899,0.978093,0.189299,0.086600
0.078459,-0.273169,0.935031,0.960903,-0.275688,-0.025716
0.453122,0.956560,0.416490,-0.199101,-0.768312,0.608322
0.382845,0.424056,0.306792,0.327541,-0.276483,0.903479
0.365770,-0.408767,0.737148,-0.001701,0.999036,0.043870
-0.107577,-0.423328,0.397509,-0.688745,0.361444,-0.628481
0.523502,-0.297012,0.316244,-0.718369,-0.412787,0.559957
-0.456578,0.103595,0.458318,-0.025739,-0.752562,0.658018
0.399055,0.169847,0.803007,-0.354929,0.908228,-0.221692
-0.408710,0.103231,0.134365,0.059518,0.526583,-0.848038
0.378271,0.967785,0.398896,0.479277,0.773368,-0.414965
0.367549,-0.198908,0.561629,-0.563929,-0.730973,-0.384269
0.350018,-0.521250,0.466969,-0.392430,-0.068639,0.917217
0.474211,0.103413,0.158586,-0.176066,-0.009849,0.984329
-0.457290,-0.211831,0.348951,-0.086127,0.785199,0.613224
0.267697,-0.224207,0.839416,0.992745,-0.118887,0.017961
0.257076,-0.199029,0.879616,0.889310,-0.456868,-0.019982
0.398597,0.741181,0.365794,-0.671849,0.732223,-0.111664
-0.162458,-0.090065,0.143193,-0.182732,0.515000,0.837487
0.272575,-0.227544,0.410192,0.122344,0.992095,0.027930
-0.011637,0.055726,0.729528,-0.500421,0.841705,-0.202760
0.037604,-0.470469,0.591907,0.449536,0.244306,0.859204
0.258397,-0.326194,0.804394,-0.409994,0.128346,0.903013
0.024747,0.436494,0.698220,-0.136770,0.819491,-0.556533
0.292697,-0.263158,0.601817,0.026842,0.568411,0.822306
-0.089435,-0.296163,0.632654,-0.218796,-0.770095,0.599234
-0.094568,-0.524950,0.782144,-0.648478,0.747322,0.144867
0.593424,-0.268982,0.187413,-0.656492,-0.260331,0.707988
0.104883,-0.529986,-0.010559,0.747929,0.236758,-0.620120
0.134306,-0.161050,-0.504993,-0.438106,0.878114,-0.192300
0.666700,-0.552071,0.331116,-0.512081,0.338855,0.789272
0.419432,0.847596,0.389202,0.162465,-0.758789,0.630749
-0.298440,0.193266,0.473609,-0.114095,0.991856,-0.056605
-0.207481,-0.253147,0.795820,0.461176,0.870597,-0.171400
-0.433254,0.135508,0.130675,-0.194093,0.086055,-0.977201
0.111286,-0.427878,0.497971,0.794021,-0.405231,-0.453121
0.100513,-0.037949,0.917857,0.810938,0.442757,0.382552
0.275319,-0.167541,-0.382141,-0.192440,-0.973511,0.123465
0.155496,-0.075079,-0.048965,-0.847105,0.351140,0.398891
0.453173,-0.243440,0.671823,-0.024766,-0.987858,0.153375
0.660450,-0.683604,0.321473,-0.691056,-0.372813,0.619235
0.522638,0.181253,0.719185,0.947702,-0.314337,0.055247
0.407998,-0.632337,0.441144,0.360692,0.931683,-0.043229
0.077138,-0.654179,0.267584,-0.381836,0.645502,-0.661459
0.660348,-0.731230,0.316664,0.725230,0.410766,-0.552551
-0.034098,-0.386258,0.718422,0.969364,-0.200140,-0.142398
-0.701865,0.129319,0.112153,-0.685855,0.135289,0.715053
0.304487,-0.043167,-0.995217,0.050219,0.170207,0.984128
0.635296,-0.321401,0.609513,0.098252,0.962407,-0.253219
0.165506,0.041226,0.352030,0.958223,-0.276019,0.074979
0.712739,-0.115608,0.461218,0.319468,0.417614,-0.850611
0.231617,-0.528652,0.205173,0.965101,0.184442,-0.185904
0.251283,-0.252905,0.854237,0.399413,-0.297763,0.867068
0.684080,-0.247080,0.619118,0.684528,0.290484,0.668611
-0.394736,-0.502988,0.259417,-0.414049,-0.392153,-0.821449
0.246405,0.249689,0.639409,-0.391276,0.591660,-0.704870
0.144011,-0.238162,0.902655,0.163478,-0.965638,-0.202036
0.616698,-0.446868,0.541593,0.803079,0.572402,-0.165587
-0.114843,0.240042,0.728676,0.741574,0.408168,-0.532415
0.155292,-0.521978,0.601460,-0.557573,0.398730,0.728098
0.237613,0.236948,0.091340,0.562356,-0.823785,0.071657
-0.075716,-0.035947,0.584134,-0.189397,-0.871785,0.451796
0.110270,-0.283543,0.923556,0.881948,0.228458,0.412280
0.381777,-0.535082,0.611650,0.241204,0.879137,-0.411022
0.466842,-0.064462,0.483214,-0.138821,0.960767,-0.240114
0.617765,-0.395965,0.539634,0.698986,0.478891,-0.531113
0.266324,-0.346883,0.665590,0.328277,-0.688112,-0.647098
0.013415,-0.108570,-0.070604,-0.033532,0.327212,0.944356
0.136897,-0.216017,0.914422,0.854677,-0.380810,0.352862
0.144672,-0.110875,-0.035722,0.973225,0.052694,-0.223732
0.377407,-0.760048,0.575025,-0.524552,0.797441,0.298216
-0.243661,-0.403246,0.870533,-0.227857,0.570635,0.788959
-0.124600,-0.208190,0.854924,0.792362,-0.571587,0.213192
-0.300676,0.054816,0.266172,-0.093023,0.683009,0.724462
0.371563,0.391051,-0.213124,-0.764684,0.312578,-0.563520
0.401138,0.477143,0.296958,0.899343,-0.380416,0.215561
-0.019971,0.206249,0.703576,0.661990,0.698820,-0.270961
0.428731,-0.848021,0.415192,0.835292,-0.419499,0.355398
0.150973,-0.161110,0.965105,-0.475811,0.669163,0.570810
-0.521063,-0.156560,0.343150,0.361957,-0.764740,-0.533066
0.299761,-0.015562,0.911942,0.031471,0.837427,0.545642
0.196300,-0.265402,0.181752,0.969899,0.116520,-0.213822
0.489862,0.023449,0.359790,-0.260024,-0.405810,0.876188
0.184308,-0.069437,0.828730,-0.387953,0.873330,0.294597
-0.094517,-0.144426,0.809597,-0.410546,0.904955,0.111842
0.538137,-0.173851,0.442620,0.170041,0.830206,-0.530890
0.133899,-0.252540,-0.400855,-0.462538,0.877288,-0.128154
0.171096,-0.167359,-0.130408,0.571744,-0.797102,0.194261
0.471314,-0.409616,0.289440,0.799086,0.387563,-0.459627
0.389704,0.413378,0.705637,-0.265365,0.883272,-0.386538
0.208801,-0.122342,-0.302021,0.750361,0.660961,-0.009376
0.102139,0.195753,0.729477,-0.153137,0.333623,0.930185
0.249606,-0.680510,0.454629,-0.343138,-0.908516,0.238444
0.215712,-0.215896,0.696490,-0.693860,0.535535,-0.481415
0.276539,0.447535,0.318127,0.853873,-0.440410,0.277381
0.326134,0.645806,0.522612,0.668028,-0.592239,0.450546
-0.385233,0.194722,0.118425,0.190179,-0.618296,-0.762589
0.097058,0.414106,0.411694,0.847688,0.478800,0.228419
0.089842,-0.344335,0.892122,0.655102,-0.616243,-0.437134
0.707810,-0.395116,0.308917,-0.331187,0.886806,-0.322319
0.176838,-0.009495,0.742618,0.213724,0.046337,0.975795
0.156918,-0.402032,0.695943,-0.232990,0.509426,0.828372
0.149195,-0.465554,0.442709,0.936370,0.348495,-0.041986
0.359164,-0.258729,0.850866,0.900526,-0.232006,-0.367732
-0.814269,-0.298225,0.144962,0.213301,-0.288419,0.933444
0.906499,-0.319642,0.346203,0.010209,-0.454713,0.890580
-0.083693,-0.254118,0.675220,-0.528429,0.046435,-0.847707
0.037553,0.574155,0.437302,0.818475,0.448053,0.359649
0.281975,-0.181859,0.282303,0.345734,0.728461,-0.591450
-0.110930,0.000941,0.769982,0.742556,-0.636170,0.209516
-0.017277,-0.130411,0.876411,0.969794,-0.165653,-0.179048
0.104070,-0.227969,0.949063,0.658457,0.497406,0.564820
-0.035266,-0.136599,0.881868,-0.486086,-0.068320,-0.871237
0.059301,-0.171970,0.499319,0.006095,-0.435216,0.900305
0.164592,-0.532170,0.340669,0.930811,0.361312,0.055184
0.299457,0.399242,0.116402,-0.107988,-0.962182,0.250090
-0.332741,-0.548430,0.437022,-0.792919,0.377755,-0.478101
0.177854,-0.054088,0.794611,-0.386071,-0.047982,0.921220
0.300727,-0.352404,0.718257,0.470942,0.870942,-0.140262
0.670918,-0.403853,0.345771,0.572429,0.453038,0.683434
-0.031252,-0.230638,0.212347,0.026743,0.972068,0.233172
-0.863560,-0.780130,0.285089,0.890191,0.116770,0.440370
0.208902,-0.109419,0.287786,-0.409913,-0.694483,0.591325
-0.044870,-0.492795,0.624677,0.756538,-0.375990,0.535053
0.161949,-0.606673,0.286221,0.339740,0.276541,0.898945
-0.072056,0.326013,0.733077,0.770945,-0.594471,-0.228581
0.191219,-0.004641,0.793657,-0.588489,0.122739,0.799134
0.231414,-0.248840,0.884234,-0.203951,0.364517,0.908588
0.166929,-0.547702,0.309336,-0.725585,0.622077,0.294187
0.343310,-0.195086,0.751396,0.968129,0.226676,-0.106504
0.145078,0.615592,0.463928,-0.494764,0.842406,-0.213448
0.458662,0.076839,0.691402,-0.733925,0.412587,0.539561
0.854007,0.154679,0.526416,-0.325210,-0.728863,0.602492
-0.387469,-0.286273,0.467935,-0.110814,0.991577,0.067049
0.326134,-0.700713,0.531212,0.958523,0.171518,-0.227631
0.890035,-0.291188,0.262788,0.512204,0.368979,-0.775565
0.184105,-0.006522,0.512028,0.797569,0.550484,-0.246680
-0.035317,-0.291612,0.870838,-0.763578,-0.095377,0.638633
0.362467,-0.622812,0.575610,0.064559,0.336186,0.939580
0.302302,-0.483028,0.303166,-0.622057,-0.203084,-0.756176
