0.782161,-0.331920,0.107743,0.544836,-0.280770,0.790141
0.037333,-0.441125,0.135334,-0.227018,0.238499,0.944236
0.731046,0.485862,0.157804,0.188234,-0.647740,0.738242
-0.072718,0.168155,0.820841,0.443771,0.406313,0.798735
0.024640,0.447702,0.769914,0.805107,0.437934,0.400020
-0.235889,0.666630,0.370468,-0.156892,0.752612,0.639500
-0.027018,0.170146,0.867041,-0.045667,0.967117,-0.250200
-0.590998,-0.515025,-0.426567,-0.299256,-0.291764,-0.908471
0.023580,0.282899,0.580881,-0.282936,-0.529869,0.799491
-0.524784,-0.482618,0.635767,-0.727082,-0.560486,-0.396494
0.031030,-0.145571,0.926060,0.869917,-0.400802,0.287406
-0.035356,0.259838,0.586152,0.429421,-0.519193,0.738943
-0.308349,-0.537653,0.234119,0.103671,0.845571,0.523701
-0.443528,0.090492,0.391527,0.825428,0.191466,0.531046
0.008566,-0.052980,-0.182920,0.282754,0.795105,0.536523
-0.309839,-0.463797,0.219074,0.708031,0.067816,0.702918
-0.481520,-0.671953,-0.026033,0.595776,0.793640,-0.123235
0.417999,0.447961,0.246591,0.884306,0.115785,0.452324
0.434330,0.053543,0.443072,0.317810,0.575823,0.753276
-0.397972,0.224272,0.755265,0.501237,0.767374,0.399872
-0.578907,0.444240,0.171067,0.205802,-0.883156,0.421522
0.122285,0.095424,-0.124075,0.794978,-0.594456,-0.120962
0.112171,0.734559,0.354483,0.996276,-0.084199,0.018553
0.368603,-0.332482,-0.092524,0.844765,-0.506521,0.172649
-0.117529,0.184380,0.823043,-0.396395,0.365374,0.842243
-0.058564,-0.059210,0.601247,0.845529,-0.107219,0.523053
0.043694,-0.039524,0.339586,0.063377,0.971973,0.226389
-0.087588,0.112688,0.406449,-0.037600,-0.916797,0.397579
-0.172483,0.069162,0.443567,0.970957,-0.116836,-0.208785
-0.376254,-0.056788,0.582366,0.574271,-0.510049,-0.640362
0.569738,-0.370038,0.474722,0.142227,0.898837,0.414564
-0.490745,-0.074311,0.368068,-0.260089,0.406962,-0.875635
0.150478,0.169757,0.858182,0.797757,-0.139537,-0.586611
-0.239184,-0.048653,0.814803,-0.225376,-0.429617,0.874434
0.126211,0.010838,-0.208409,0.028517,0.937496,0.346826
0.304509,0.694840,0.179332,-0.098134,-0.692186,0.715016
0.764684,-0.332353,0.131722,-0.524906,0.186481,-0.830481
-0.033351,0.064013,0.584890,0.371527,-0.911322,0.177372
-0.435849,-0.781460,-0.230705,0.703821,-0.072958,-0.706621
0.131883,0.439783,0.887555,-0.324670,0.164780,0.931363
0.094436,0.312406,0.753978,0.361120,0.685656,0.632035
-0.089336,0.352212,0.860013,0.141602,-0.513378,0.846399
-0.430463,0.489540,0.543218,-0.207496,-0.324642,0.922796
0.636066,0.472666,0.090668,-0.438362,-0.189446,0.878606
0.257120,0.762639,0.312118,-0.201493,0.430861,0.879636
-0.700676,-0.255468,0.225211,-0.403341,-0.383791,-0.830675
-0.491290,-0.085387,0.699042,0.134851,0.985836,-0.099717
-0.956765,0.246728,-0.071095,-0.715671,-0.456040,-0.529001
0.414561,0.135576,0.434337,-0.302562,0.385849,0.871537
-0.115437,0.526663,0.791641,0.892821,0.263415,-0.365354
0.570454,-0.350265,0.470293,-0.049142,0.617986,0.784652
-0.467910,0.411487,0.734528,0.292828,-0.484381,-0.824395
0.535184,0.142196,0.446091,-0.098109,-0.240609,0.965651
-0.299038,0.064316,0.745837,-0.027904,0.083256,0.996137
0.102601,0.081925,0.856227,0.592889,0.782029,-0.192128
-0.919518,0.207355,-0.025884,0.858772,0.192339,0.474885
-0.548192,-0.302152,0.163025,-0.319633,0.174416,-0.931350
0.508538,0.018626,0.188884,0.193484,0.757561,-0.623430
0.696378,-0.087420,0.219470,0.112032,-0.893432,0.435005
-0.594063,-0.412353,0.619039,-0.420503,0.906732,0.031839
-0.065613,0.667755,0.457474,0.555511,0.143259,-0.819075
-0.316830,-0.403310,0.684071,-0.152023,-0.647747,0.746534
-0.278952,0.398075,0.804954,-0.444324,0.745137,0.497339
-0.746490,-0.474743,-0.281582,0.289657,0.496448,0.818314
0.210361,0.073012,0.443048,0.836042,0.295013,-0.462602
-0.068277,-0.286620,0.910321,-0.018364,0.744236,0.667664
0.160449,0.384316,-0.979090,0.277551,-0.011065,0.960647
-0.527706,-0.130514,0.622677,-0.317269,-0.377323,0.870039
-0.225259,0.404391,0.932246,-0.036563,0.933484,0.356751
0.076099,0.590568,0.794734,-0.148527,0.929899,-0.336493
-0.547705,-0.276452,0.559130,0.594418,0.740820,0.312814
-0.013065,0.145224,0.862463,0.008439,-0.299940,0.953921
0.022033,-0.149551,0.141224,0.589954,0.428799,-0.684167
-0.032577,-0.195976,0.542847,0.756456,0.646063,-0.101867
-0.024440,0.768437,0.241221,-0.002547,-0.801339,0.598205
0.534869,0.357837,0.238202,0.836209,0.497586,0.230570
0.040857,0.666544,0.831185,0.499106,0.394674,0.771444
-0.385508,-0.800671,0.405286,0.289022,0.902549,-0.319173
-0.129190,-0.482012,0.253322,0.227935,-0.320236,0.919508
-0.019283,-0.559286,0.696098,-0.568944,0.719972,0.397422
-0.198928,-0.661049,0.272203,-0.689332,0.382208,-0.615417
-0.377370,0.285538,0.597139,0.799682,-0.326393,0.503961
-0.156495,0.187928,0.511643,-0.900928,0.335309,-0.275493
0.161653,0.299297,-0.990250,-0.304063,0.302672,-0.903291
-0.364507,0.625744,0.431417,-0.088193,0.988359,0.123971
0.398201,0.067301,0.477791,-0.368038,-0.585942,-0.721956
0.745143,0.029616,0.355893,0.454449,0.393643,-0.799075
-0.126010,-0.370903,0.578852,0.099535,0.379913,0.919651
-0.359321,-0.349227,0.374428,0.527519,0.226563,0.818775
-0.193971,0.080671,0.840638,0.287564,-0.599988,-0.746539
-0.154691,0.157469,0.274133,0.758005,0.627585,0.177669
0.142542,-0.331747,0.199673,0.890971,0.453555,-0.021407
-0.484528,-0.063667,0.237831,-0.072699,-0.985815,0.151273
-0.174718,-0.664034,-0.322066,-0.612025,0.630638,-0.477202
-0.311043,-0.586804,0.593279,-0.339045,0.131510,0.931533
-0.233024,-0.363245,0.125461,-0.432594,0.806788,0.402437
0.226119,0.148383,0.367004,0.861899,-0.349806,0.367104
0.520801,0.186847,0.503378,0.009328,-0.870410,0.492239
0.037935,-0.144532,0.366781,0.676401,0.574878,0.460432
0.417368,-0.363721,0.170622,0.827751,-0.151372,0.540292
-0.339608,-0.741439,0.464972,-0.117319,0.851913,-0.510373
-0.303908,-0.458042,0.661132,-0.119905,-0.366729,0.922569
-0.322933,-0.082099,0.785133,-0.635188,0.438462,-0.635836
0.427625,0.089497,0.204350,-0.027747,-0.274717,0.961125
0.164059,0.212374,0.224865,-0.117863,-0.122210,0.985481
-0.103633,-0.078637,-0.456336,-0.226678,0.902592,-0.365984
0.257836,0.159675,0.880849,-0.036660,-0.833531,0.551255
-0.504785,-0.493953,0.377991,-0.105854,-0.953524,-0.282110
-0.701564,-0.336982,0.461310,-0.509147,-0.740422,-0.438800
0.053406,0.299946,0.810646,-0.444914,0.485856,0.752326
-0.387915,0.209042,0.687387,0.328784,0.828775,-0.452805
-0.176007,0.088372,0.873227,0.780626,-0.383908,-0.493192
-0.425419,-0.392493,0.625325,-0.156825,-0.575711,0.802473
-0.533666,0.001449,0.597882,0.970481,0.233563,0.060123
0.060770,-0.265289,0.282794,0.162500,-0.612730,0.773405
0.615695,0.087117,0.484126,0.436597,0.640411,-0.631868
-0.319953,-0.462455,0.515454,0.098571,-0.994495,-0.035548
0.403271,-0.229292,0.379525,-0.240315,0.762065,0.601253
-0.019770,0.722401,0.010072,0.394668,0.916823,-0.060606
-0.351584,-0.023732,0.760857,0.508556,0.287031,-0.811778
-0.153229,0.516668,0.896587,0.801941,-0.596053,0.040148
0.479428,-0.389465,0.458489,-0.783099,0.561674,0.266978
0.800985,-0.567766,-0.114993,0.042182,-0.338078,0.940172
0.761933,0.379037,-0.425825,-0.655443,0.306880,-0.690086
-0.356427,-0.342693,0.790255,-0.013790,0.993329,0.114484
0.720187,0.507323,0.172156,0.146279,-0.740509,0.655933
-0.244857,-0.122985,0.108584,0.254485,-0.868088,0.426217
-0.069108,0.154181,0.871421,-0.566461,0.600109,0.564793
-0.280013,-0.158161,0.553166,-0.818925,-0.313633,-0.480620
0.041029,0.514289,0.288436,0.524329,0.641019,-0.560512
-0.434101,-0.642012,0.673802,0.607378,0.755371,0.245980
-0.428772,0.473358,0.496177,0.798315,-0.321083,0.509509
0.079221,0.068772,0.522729,0.994350,0.055080,0.090738
-0.382929,-0.400541,0.605949,-0.078537,-0.705147,0.704698
-0.157155,0.310287,0.842221,0.736531,-0.141881,-0.661356
0.360839,0.140508,0.806488,0.490932,-0.826047,-0.276824
0.848576,-0.705441,-0.107322,0.109763,-0.232677,0.966340
0.353103,0.651228,0.186113,-0.171699,-0.490943,0.854104
0.000974,-0.453153,0.501250,0.082479,0.061836,0.994673
0.436651,-0.417025,0.113261,-0.195320,0.980538,-0.019892
-0.124922,-0.532591,0.614338,-0.136971,0.451322,0.881786
-0.913500,0.299989,-0.084482,0.111123,0.202378,0.972982
0.200762,-0.290471,0.722600,-0.472995,-0.083012,-0.877146
-0.006274,0.227604,0.861003,0.127156,0.651475,0.747939
0.026159,0.610038,0.160130,0.481566,0.836923,-0.260104
-0.041660,0.698951,0.756353,0.843016,-0.512690,0.162704
0.314165,0.049172,0.648413,0.930666,0.361771,0.054621
0.535184,-0.430265,0.177031,-0.072233,0.374452,0.924429
-0.171423,-0.609086,0.627255,0.146936,0.929364,-0.338662
0.083920,0.212720,-0.209324,-0.604953,-0.785440,-0.130827
-0.235058,-0.088459,0.805598,0.956154,0.291155,0.031583
-0.330697,0.341352,0.826409,0.783811,-0.474223,-0.400941
0.554466,-0.121125,0.351389,-0.078621,-0.662861,0.744603
-0.199587,-0.491704,0.677662,-0.382668,0.324930,-0.864862
0.263767,0.146696,0.548068,0.322205,0.894602,-0.309630
0.031087,0.247939,0.460988,0.376564,0.131570,0.917000
-0.116469,0.000584,0.277251,0.962211,0.190085,0.194983
-0.552977,-0.204067,0.667071,-0.434945,0.887671,-0.151205
-0.369463,-0.461503,0.570612,0.058500,-0.945339,0.320797
0.505472,-0.356972,0.500309,-0.025110,0.818399,0.574102
0.467279,-0.200606,0.099206,-0.084425,-0.983981,0.157016
-0.090712,0.533888,0.864987,0.051534,0.000821,0.998671
0.468455,-0.250146,0.428052,-0.058059,0.894861,0.442552
-0.035900,-0.313142,0.468313,-0.405204,0.559994,0.722646
0.364220,-0.091790,0.886491,0.358812,0.931502,0.059650
-0.542319,-0.327161,-0.115365,-0.378437,0.410981,0.829385
-0.288035,0.575165,0.735196,-0.542681,0.745365,-0.387206
0.160421,0.429746,0.032887,-0.396914,0.837839,0.374813
-0.266088,0.017890,0.798372,0.753930,0.143034,-0.641195
0.421752,-0.265852,0.430675,-0.339502,0.879791,0.332727
-0.374993,0.097847,0.751577,0.042755,0.336465,0.940725
-0.019655,-0.801536,-0.021974,-0.705229,0.542262,0.456732
-0.315484,-0.447312,0.431046,0.994035,-0.059230,0.091577
0.474041,-0.170925,0.098538,0.473578,0.858694,-0.195879
0.096011,0.174083,-0.315533,0.877985,-0.028473,0.477841
-0.039138,0.154353,0.648462,0.780328,-0.215999,0.586884
-0.040972,0.194029,0.819109,0.255418,0.239712,-0.936643
0.074551,0.023775,0.574101,0.944166,-0.258052,0.204842
0.455676,0.316301,-0.392492,-0.420179,-0.096310,0.902316
-0.172455,0.460768,0.826656,0.109690,0.984923,-0.133769
0.217437,-0.167550,0.702358,0.341989,-0.164118,-0.925261
0.033236,-0.389118,0.728539,0.495148,0.215028,0.841779
-0.471549,-0.109054,0.530895,0.961284,0.172824,0.214629
0.086012,-0.122207,-0.308505,0.965833,-0.083807,0.245243
-0.047218,0.737847,0.825518,-0.034814,0.531032,0.846636
0.124721,-0.029919,0.061221,0.965364,0.252899,0.064152
0.549682,-0.309595,-0.147138,0.396458,0.322870,-0.859404
0.107845,-0.338973,0.638069,-0.920189,-0.054195,0.387705
-0.341585,-0.170103,0.705402,0.608664,0.445344,0.656656
0.727780,0.034202,0.358813,-0.169216,-0.437766,0.883022
0.095266,-0.333694,0.107545,-0.491744,0.505003,0.709337
-0.673228,0.292331,0.195046,-0.184755,0.495556,0.848699
0.594865,-0.216701,0.197199,0.620385,-0.214095,-0.754510
-0.362959,0.138431,-0.468684,-0.483752,0.820858,-0.303605
-0.274196,-0.112818,0.696790,-0.408206,0.806946,0.426856
-0.309208,-0.588751,0.651728,-0.610936,-0.676194,0.411727
0.017335,0.441601,0.666304,0.374683,0.693255,-0.615638
-0.184717,-0.299470,0.748930,0.501865,-0.678016,-0.537053
0.318750,-0.011271,0.912796,-0.589615,-0.130417,0.797086
0.417597,-0.072234,0.050729,0.806123,0.229763,-0.545320
-0.228812,-0.293975,0.720324,-0.161470,-0.949292,0.269764
-1.000000,0.465268,-0.188142,0.027581,0.681439,0.731355
0.335023,0.168502,0.789810,0.264170,-0.696587,-0.667069
0.342359,-0.288999,0.541536,0.338975,0.353899,0.871695
-0.206779,-0.366750,-0.163842,-0.217814,0.405259,0.887875
-0.185405,0.154700,0.827819,0.043769,0.292989,0.955114
-0.750043,-0.166512,0.332063,0.397669,-0.770669,0.497925
0.020371,0.097415,0.854594,0.282466,0.003239,-0.959272
0.042719,-0.346501,0.073297,-0.446331,0.385520,0.807566
0.697581,-0.478464,0.141051,0.216115,-0.160375,0.963107
0.001661,0.149464,0.858281,0.825092,0.467007,0.318007
0.444588,-0.143537,0.182797,0.729158,-0.329894,0.599582
-0.156581,0.700119,0.186533,-0.673863,0.509595,0.534998
-0.327346,0.365105,0.839128,0.921966,-0.219325,-0.319180
0.172999,0.539470,0.146445,0.089058,-0.733473,0.673859
-0.786029,0.421352,-0.209374,0.102628,0.050444,0.993440
-0.491032,-0.314786,0.675187,-0.142066,-0.670536,0.728148
-0.448885,-0.095944,0.724135,0.990253,0.090751,0.105659
-0.264254,0.107799,0.830591,-0.480541,0.433957,0.762077
-0.352071,0.527658,0.562025,-0.131991,-0.057462,-0.989584
0.527362,-0.194332,-0.156344,-0.469468,-0.424355,0.774288
-0.960718,0.018367,-0.143748,-0.222698,0.916279,-0.332924
-0.247693,-0.117793,0.509638,0.432934,-0.835271,-0.338956
-0.327746,-0.466696,0.378313,0.135780,0.216018,0.966902
-0.174546,0.009930,0.886887,-0.694898,0.666557,0.269852
0.075239,0.099621,0.882309,0.335568,0.732488,-0.592331
0.007220,0.769908,0.519586,0.042264,-0.882526,0.468360
0.794051,-0.597577,-0.082453,-0.199233,-0.246394,0.948470
-0.241247,0.584034,0.657816,0.775700,0.344805,-0.528582
-0.336915,-0.516539,0.393482,-0.576785,0.796187,0.182773
-0.073262,0.787388,0.791393,0.463787,0.874042,0.144752
0.157441,-0.044327,0.794561,0.699514,0.714390,0.018053
0.327804,-0.546133,0.062904,0.252240,-0.755993,-0.604028
-0.252908,-0.007940,0.871322,0.658719,0.293246,0.692889
-0.387944,-0.093045,0.775012,0.536004,-0.351748,-0.767446
-0.276460,0.338367,0.829997,-0.675136,0.405760,0.616077
-0.361097,-0.081925,0.437084,-0.718356,0.517117,-0.465353
-0.393359,0.540378,0.166613,-0.353871,0.884441,-0.304202
-0.535728,-0.484045,0.367845,0.762970,0.518169,0.386494
-0.258466,0.479719,0.884190,-0.324094,0.406267,0.854348
-0.072030,0.375663,0.858331,-0.590340,0.478180,-0.650264
-0.545786,-0.379816,0.529336,0.743695,-0.535756,-0.399855
-0.166237,-0.430352,0.058350,0.790684,-0.416412,0.448797
0.780843,0.477123,0.139764,0.364171,-0.120052,0.923562
-0.730330,-0.019751,0.150627,0.494000,-0.869345,-0.014251
-0.613661,-0.136009,0.650565,-0.636469,0.087221,-0.766355
-0.348949,0.083959,0.766722,0.645038,0.064708,-0.761406
-0.024641,-0.620335,0.770929,-0.034789,0.926238,0.375331
-0.303679,0.390330,0.591052,0.753404,0.175723,0.633643
0.062689,0.496722,0.281606,-0.691049,-0.656581,0.302247
-0.014784,0.252309,0.829081,0.523304,0.483158,0.701934
0.136066,-0.014689,0.697607,0.954894,-0.105153,0.277707
-0.036416,-0.548080,0.151172,0.665342,-0.596693,0.448640
-0.497651,0.163137,0.253743,-0.528351,0.258296,-0.808782
0.429173,-0.348232,0.528767,-0.400605,0.543891,0.737359
-0.780070,-0.069984,0.210017,-0.021966,0.636225,0.771191
-0.626755,-0.267496,0.608968,0.711436,-0.701925,0.034053
-0.070999,-0.331228,0.738339,0.751941,0.594774,-0.284306
-0.084781,0.279178,0.824751,0.952790,-0.257213,0.161347
0.438542,-0.120692,0.295885,-0.605645,0.368889,0.705064
0.123345,0.170319,-0.299250,0.900294,0.263574,0.346409
-0.026503,-0.341655,0.097028,-0.525454,-0.538295,-0.658890
-0.089823,0.401060,0.583232,0.510772,-0.831574,0.218165
0.598504,-0.071368,0.117394,0.686796,-0.405208,-0.603422
-0.249813,0.300725,0.514241,0.904032,0.322615,0.280438
-0.496247,-0.382455,0.560318,-0.637139,-0.430668,-0.639202
-0.060427,-0.421222,0.744896,0.189496,-0.917134,-0.350651
0.406338,0.414343,0.226077,-0.087290,0.253708,0.963334
-0.435878,0.112255,0.762664,0.963525,-0.236970,0.124357
-0.193571,0.019232,0.854545,-0.354351,-0.709248,0.609428
-0.008882,-0.071282,0.868130,-0.313848,0.561417,0.765709
-0.321586,0.384359,-0.219742,-0.419437,-0.548568,0.723288
0.624864,-0.483440,0.156022,0.005802,-0.054056,0.998521
-0.346542,-0.727117,0.374873,-0.328372,0.931451,-0.156750
0.681765,-0.095338,0.253545,0.254712,-0.919498,0.299408
-0.279297,0.167550,0.795130,-0.432591,0.897365,-0.087185
0.313822,0.439827,0.423548,-0.396880,0.501668,0.768646
-0.641224,0.006728,0.124298,-0.050705,-0.571421,-0.819089
-0.349722,0.129908,0.201232,0.240384,0.019319,0.970486
-0.528050,-0.277318,0.143501,-0.343101,0.216810,-0.913934
0.079193,0.579275,0.846799,0.009825,0.470502,0.882344
0.074752,-0.423991,0.706961,-0.051988,0.958530,-0.280210
-0.329866,0.183731,0.809483,-0.386587,0.209313,0.898186
0.209214,0.232969,0.774492,0.747956,0.425707,-0.509250
-0.772448,0.175468,0.356363,-0.907452,0.049837,-0.417190
-0.477308,-0.161320,0.484076,0.167625,-0.870139,0.463422
0.540255,0.242661,0.511841,-0.667710,-0.218201,0.711725
-0.101885,0.093261,0.186558,0.027410,0.880094,0.474007
-0.202051,0.203764,0.442676,0.761895,-0.625950,0.166440
0.565870,0.226349,0.508401,-0.238193,-0.489502,0.838839
-0.228439,0.055013,0.830145,0.203170,0.229036,0.951979
0.029798,0.012612,0.632724,0.579380,0.809702,-0.093280
-0.279239,0.566035,0.170325,-0.063695,0.359611,0.930926
0.544152,0.143148,0.480686,0.251664,0.731424,-0.633785
0.415363,0.307950,-0.416966,-0.465563,-0.167892,0.868944
-0.147270,0.423861,0.171735,0.655793,-0.147001,0.740490
0.154003,0.200433,0.889213,0.468455,-0.021490,-0.883226
-0.488368,-0.552883,0.463636,0.615930,0.002563,0.787797
0.215403,-0.308599,0.225013,0.465199,0.058259,-0.883287
0.116526,0.490708,0.333919,0.889603,-0.260055,-0.375470
-0.447911,-0.392926,0.280023,0.532086,0.791714,0.300122
-0.377886,-0.387950,-0.230284,0.134324,-0.523788,0.841192
-0.024240,0.758226,0.245898,-0.002547,-0.801339,0.598205
-0.245143,0.654213,0.748831,0.637196,-0.754222,0.158523
0.019827,0.638464,0.803840,0.271169,0.838175,0.473212
0.099336,0.432471,0.662171,0.596401,0.784075,0.171849
0.126669,0.097458,-0.143303,0.881311,-0.463751,-0.090697
-0.226320,0.136138,0.646754,-0.192910,-0.380915,0.904262
0.011117,-0.180573,0.949197,-0.542549,0.608108,-0.579522
-0.620509,-0.092007,0.346094,-0.519528,0.694884,-0.497219
-0.006619,0.324218,0.448690,0.558482,-0.426804,-0.711292
-0.340811,0.166036,-0.577071,0.371041,-0.802235,-0.467705
-0.099450,0.531812,0.810794,0.774640,-0.076390,-0.627772
-0.051086,-0.055879,0.910693,-0.180976,0.131595,0.974644
-0.020171,-0.557729,0.724085,0.743915,-0.620651,0.247758
-0.476448,-0.077815,0.766103,0.906646,-0.411921,-0.091183
-0.207152,-0.016766,0.022939,0.676786,-0.454534,0.579102
-0.018538,-0.595197,0.313182,-0.570690,-0.163851,0.804652
-0.023008,-0.134451,-0.128034,-0.737813,0.667332,0.101492
-0.785800,-0.179578,0.327931,0.370618,-0.857161,0.357656
-0.302218,-0.404608,0.634505,0.683862,0.716637,-0.136981
0.152284,0.062715,0.042092,-0.592742,0.805066,0.022938
-0.144719,-0.112904,0.112024,0.408135,0.786335,0.463792
-0.256862,-0.811055,-0.000445,-0.215556,-0.494700,0.841907
-0.085898,-0.781028,0.046992,-0.397226,0.529820,-0.749335
0.269182,0.001493,0.887382,0.332677,0.433750,-0.837369
-0.751304,-0.003829,-0.490040,0.010310,0.782998,0.621938
-0.112659,0.557772,0.869318,0.147577,0.720854,0.677193
-0.056587,0.015771,0.813293,0.831344,-0.196341,-0.519920
-0.908056,0.359524,-0.197570,0.127971,0.651837,0.747483
-0.388402,0.347929,0.759694,0.584248,0.645067,-0.492487
-0.143029,-0.037361,-0.029027,0.659410,0.262886,0.704321
0.352587,-0.587842,0.480612,-0.458865,-0.403794,-0.791450
-0.335797,-0.140379,0.688525,0.091337,-0.951647,0.293302
0.768666,0.123115,0.356561,-0.258076,-0.019043,0.965937
0.378402,0.429962,0.193858,-0.375615,0.320360,0.869645
-0.177153,-0.169237,0.814110,0.647275,0.491303,0.582801
-0.524984,-0.042077,0.510331,0.177904,0.875899,0.448500
0.180849,0.427669,-0.152261,-0.355924,-0.864892,0.353949
0.760157,0.484478,0.162678,-0.212423,0.013967,-0.977078
0.121081,-0.037101,0.163470,0.243426,0.958474,0.148566
0.534525,-0.276063,0.418723,0.125506,0.876166,0.465383
0.040828,0.128350,0.866026,0.102481,-0.561042,0.821419
0.840381,-0.720022,-0.098661,0.109930,-0.232974,0.966250
-0.130394,-0.265333,-0.058054,-0.857681,0.483444,0.175113
0.608131,-0.051726,0.109228,0.189358,-0.964352,-0.184846
-0.195834,0.692763,0.386058,-0.338986,0.654136,0.676161
0.416165,-0.473488,0.514909,-0.264918,-0.430327,0.862923
-0.531574,-0.187496,0.684121,0.929501,-0.331395,0.161879
-0.143000,-0.458734,0.270248,0.175592,-0.259598,0.949619
0.166237,-0.362855,0.150627,0.953571,0.139716,0.266799
-0.653573,-0.296268,0.346886,0.682156,0.471085,-0.559234
0.691020,0.066220,0.344609,-0.658738,0.577497,-0.482247
-0.148301,0.320541,0.874193,0.995997,-0.085641,0.025593
0.124749,-0.248761,0.825270,0.739946,-0.456199,0.494331
-0.549367,-0.075782,0.289822,-0.171269,-0.982905,-0.067560
-0.277348,0.334559,0.454579,0.792542,0.511021,-0.332768
0.115552,0.189702,-0.432382,0.981527,-0.004800,0.191263
-0.132343,0.130254,0.877335,0.039018,0.938529,0.342988
0.151166,-0.401839,0.165772,0.982156,0.014116,0.187536
-0.021403,0.145873,0.821163,0.626167,0.092001,-0.774242
0.106756,0.161666,0.798669,0.448618,-0.257510,-0.855822
-0.090023,0.527874,0.875727,-0.597698,-0.790198,-0.135445
-0.772907,0.053412,-0.234218,0.089955,-0.809536,0.580138
0.426279,-0.603462,0.494395,-0.254571,-0.204566,0.945170
-0.443041,0.009930,0.304051,0.159169,-0.836136,0.524921
0.035242,-0.015814,0.789067,-0.039826,-0.964291,0.261834
-0.470288,-0.064576,0.778773,0.968598,-0.242413,-0.055270
0.208039,0.419621,-0.986241,0.083342,-0.022063,0.996277
0.090797,-0.187539,0.874984,-0.484412,0.382556,-0.786763
-0.021661,0.500140,0.819777,0.292467,-0.395612,0.870606
0.060914,0.378561,0.861869,0.295915,0.194924,0.935115
0.189788,-0.418150,0.645987,-0.140004,0.446656,-0.883684
-0.520285,0.179146,0.427359,0.970938,-0.030979,-0.237317
0.415306,0.200259,0.231026,0.196927,0.411786,-0.889748
0.155264,-0.131163,0.868971,-0.624785,0.559091,-0.545033
0.206836,0.120822,0.635767,0.045704,-0.888554,0.456491
-0.464844,-0.186934,-0.081785,0.298851,-0.711063,0.636457
0.021518,-0.125149,-0.025562,0.909829,0.063883,-0.410036
0.113002,0.305830,0.852194,0.883091,0.467923,0.034616
0.438428,0.075782,0.452575,0.214287,0.554208,0.804322
-0.310498,-0.168329,0.075054,-0.101410,0.007689,0.994815
0.153143,0.422866,-0.980773,0.153696,0.057389,0.986450
0.177841,-0.336636,-0.127515,0.541481,0.300252,0.785269
-0.215002,-0.299513,0.683725,-0.269631,-0.891792,0.363327
-0.238525,-0.389032,0.122689,-0.433576,0.889967,-0.141316
0.002922,0.094689,0.884437,0.917437,-0.298905,0.262613
0.551802,0.028275,0.364331,-0.439463,0.707396,-0.553592
0.181737,-0.328978,0.711267,0.360687,-0.912431,0.193324
-0.381784,0.217739,0.202965,0.575080,0.088023,0.813348
-0.029397,0.015511,0.785578,-0.331914,0.943305,-0.002985
0.053951,-0.134408,0.927619,-0.714420,0.601603,-0.357321
0.216176,0.138994,0.782336,-0.772518,0.180724,-0.608732
0.162111,-0.401060,-0.113781,-0.572731,-0.151599,-0.805603
0.105123,-0.410536,0.740491,-0.394164,0.901689,-0.177740
-0.322789,-0.215273,0.335602,0.542569,-0.537689,0.645375
0.201736,-0.207788,0.686373,-0.669550,0.098201,0.736247
-0.787777,-0.185549,0.358516,0.755237,-0.631846,-0.174320
-0.101140,-0.043158,-0.052684,0.710072,0.347006,0.612686
-0.429718,-0.001320,0.776472,0.845457,-0.117015,0.521067
-0.296917,0.158897,0.699216,-0.522796,0.699084,0.487818
-0.132915,0.440779,0.478187,-0.246069,-0.926113,0.285945
0.030371,-0.122077,0.894954,-0.432366,0.570450,-0.698317
-0.273881,0.276019,0.848903,0.488630,0.720707,-0.491754
-0.158730,0.091876,0.507906,0.893581,-0.115345,0.433831
0.159045,0.310806,0.949939,0.804246,0.549369,0.226675
-0.211191,0.682163,0.393903,-0.293187,-0.292743,0.910134
0.294711,-0.026544,0.695726,-0.271457,0.183835,0.944731
0.303221,0.183212,0.753953,-0.531004,0.410874,0.741092
0.689989,0.079762,0.432432,-0.113951,0.300925,0.946815
-0.314223,-0.643916,0.056123,0.174237,-0.149872,0.973232
0.092173,0.573954,0.366138,0.509260,-0.107251,-0.853904
0.166982,-0.098583,0.665982,0.604054,0.127451,0.786686
0.217524,0.200519,0.890896,0.260589,0.326999,0.908386
-0.724715,0.024640,0.429240,0.003627,-0.507168,0.861839
-0.260530,-1.000000,0.309718,-0.570825,0.380991,-0.727327
-0.021460,-0.142282,0.284155,-0.315982,0.947534,-0.048312
-0.529081,-0.130211,0.701987,0.934628,-0.329284,-0.134324
0.522405,-0.345462,0.512113,0.092171,0.761318,0.641793
-0.136726,-0.202423,0.678454,0.320782,-0.644986,0.693608
-0.125523,0.359784,0.878548,-0.157819,0.598848,-0.785159
0.270786,-0.064446,0.700107,-0.515062,0.778241,-0.359238
-0.343934,0.298258,-0.399767,0.261979,-0.522367,0.811480
-0.219070,-0.402964,0.557744,0.818819,0.368414,0.440234
0.171279,-0.449173,-0.102967,0.970982,-0.021780,0.238157
-0.287319,-0.558637,0.311425,-0.253917,-0.947366,-0.194996
-0.429832,0.370124,0.502388,0.812001,-0.000332,0.583656
-0.736720,0.114289,-0.189082,0.385751,-0.709927,0.589237
0.022721,-0.168026,0.941204,0.749829,-0.551801,0.365066
0.003610,0.381633,0.508104,-0.118306,0.976405,0.180655
0.186637,0.037404,0.347925,-0.513022,0.828202,0.225587
0.127127,0.632234,0.310782,0.843454,-0.474904,-0.251102
0.303822,-0.335425,0.531860,0.233344,0.428331,0.872974
-0.090196,0.360519,0.865235,0.160419,-0.612225,0.774239
-0.028566,0.162834,0.882309,0.342818,0.805289,-0.483721
0.186522,-0.497242,0.237510,-0.342024,0.345741,0.873775
0.324910,0.189876,0.377570,0.646938,-0.415533,-0.639377
-0.262793,-0.339405,0.319764,0.791449,0.459571,0.402993
-0.121168,-0.249194,-0.085769,-0.578505,0.809679,-0.098753
0.078305,0.596755,0.234317,-0.735464,0.636642,-0.231904
0.317345,-0.020487,-0.075747,0.564259,0.803942,0.187856
-0.340669,-0.347020,0.760338,0.044706,-0.989342,-0.138578
-0.185176,-0.099362,0.785801,-0.599272,-0.279167,-0.750292
0.194602,0.229724,0.868971,0.141174,-0.008785,0.989946
0.445762,-0.420573,0.476826,0.718241,-0.203436,0.665389
-0.151224,0.680260,0.813318,0.204366,0.703207,0.680980
0.035442,-0.093997,0.972854,0.790616,-0.611227,0.036443
0.118904,0.507885,0.349509,0.891984,-0.350541,-0.285457
-0.209903,0.717339,0.424439,-0.285781,-0.573884,0.767454
-0.473755,0.585852,0.231917,-0.475981,0.877893,-0.052402
-0.295198,0.668794,0.154686,-0.660234,-0.140089,-0.737880
0.349349,0.885906,-0.510257,0.724098,-0.073008,0.685822
-0.005788,0.126230,0.847591,0.361823,-0.329991,0.871889
-0.171279,-0.288826,0.750464,-0.655091,0.636138,0.407656
-0.851240,-0.202640,-0.288956,-0.169374,0.683644,0.709890
0.134147,0.122639,-0.119250,0.795321,-0.592056,-0.130135
0.069852,0.211596,-0.020044,0.944591,0.322499,0.061180
0.603175,-0.233099,-0.092549,-0.080211,0.060118,0.994963
0.138072,0.268621,-0.989260,0.016694,-0.328450,0.944374
-0.427396,0.043418,0.766895,-0.459217,0.266099,-0.847532
-0.069595,-0.816247,0.007993,0.354944,-0.879288,0.317596
0.107673,-0.104943,-0.306674,0.779835,-0.342910,-0.523708
-0.442296,-0.015208,-0.485190,-0.000869,0.438482,0.898740
0.446937,0.857393,-0.523471,0.724098,-0.073008,0.685822
-0.526990,-0.376225,0.625795,-0.693198,-0.273162,-0.666977
-0.013294,0.560021,0.284749,-0.152484,0.672126,0.724566
-0.297433,0.342910,-0.071416,0.124598,-0.218829,0.967775
-0.109134,-0.330406,0.569251,-0.161659,0.247075,0.955416
-0.691851,-0.392061,0.189503,-0.120390,0.919075,0.375243
-0.506188,0.336809,0.532058,0.886988,0.332667,0.320290
0.232824,0.050471,0.490436,0.101515,0.990728,-0.090298
0.161337,-0.181093,0.256984,-0.221225,-0.685231,0.693915
-0.415850,0.259794,0.514266,-0.431563,-0.513748,-0.741496
-0.279354,0.314354,0.927817,0.186301,-0.892458,0.410866
-0.001977,0.170319,0.839969,0.907826,0.088776,0.409841
-0.250531,-0.546912,0.237336,0.065724,0.867710,0.492706
0.364620,-0.298388,0.486081,0.725185,0.075245,0.684431
-0.057590,0.703061,0.204202,-0.592021,-0.202083,-0.780175
-0.164203,-0.708123,-0.071961,0.344150,0.822425,0.452965
0.114807,-0.245041,0.434708,0.168671,0.831398,0.529459
0.096814,0.378475,-0.252679,0.804133,-0.017698,0.594186
-0.683771,-0.192688,0.233080,-0.468122,-0.246488,-0.848590
-0.038651,-0.396214,0.770409,0.569840,0.787739,0.233985
-0.520916,-0.523721,0.687610,0.746206,0.592304,0.303895
-0.148101,0.048826,0.889931,-0.129670,-0.248380,0.959944
-0.348204,0.496636,0.157482,0.218327,-0.860745,0.459838
-0.340811,-0.342217,0.401302,0.611921,0.389818,0.688182
-0.350782,-0.701633,0.533147,-0.421457,-0.890395,0.171960
-0.806057,-0.190481,0.256118,-0.361466,-0.584494,-0.726436
0.356712,-0.009497,0.792062,-0.188230,0.982062,-0.011128
-0.399318,0.295273,0.791789,0.279522,0.631469,-0.723266
-0.589708,-0.333348,0.411893,-0.550819,0.831086,0.076776
0.812789,-0.440952,-0.059142,0.059554,-0.284761,0.956747
-0.154003,-0.028448,0.805845,0.567983,0.317962,0.759142
-0.249613,-0.687312,0.397812,0.668357,-0.592977,0.449086
-0.057389,-0.728242,0.070798,0.184248,-0.514657,0.837365
0.552117,0.324651,0.100740,0.341384,-0.752720,0.562911
-0.096843,0.213845,0.809359,-0.320330,0.349328,0.880545
0.046931,0.854970,0.403257,-0.063066,0.691145,0.719959
-0.432611,0.419362,0.736730,-0.057912,0.227270,0.972108
0.068707,0.861330,0.359283,-0.152314,-0.976317,0.153640
-0.128216,-0.138345,0.418005,0.726541,-0.162249,-0.667693
-0.374879,-0.109356,0.348568,0.841846,0.360505,0.401661
-0.231792,-0.286144,0.786172,-0.142447,-0.757631,0.636949
-0.324996,-0.200303,0.629408,-0.581344,0.053822,-0.811876
0.330124,-0.289129,0.374576,0.547525,-0.560841,-0.621027
-0.163744,-0.026847,0.709163,0.892306,-0.386231,0.233698
-0.701880,0.335944,0.361164,-0.719328,0.482995,-0.499282
-0.117873,0.224229,0.794511,0.327298,-0.205376,-0.922332
0.825540,-0.334386,0.092970,0.463480,-0.221831,0.857891
-0.688786,0.230113,0.241172,-0.354645,0.879733,0.316697
-0.185204,-0.363548,0.758680,0.882528,0.450184,0.135938
-0.266088,0.065354,0.856178,0.995893,0.058000,-0.069522
0.357228,-0.122293,0.509218,-0.016740,0.186948,0.982227
-0.067933,-0.039827,0.891688,0.861611,0.019662,-0.507188
-0.509828,-0.435414,0.583034,0.809462,0.210511,0.548139
-0.501949,-0.284284,0.214521,0.529475,0.241524,-0.813217
0.128388,0.445754,0.163569,0.989744,-0.141960,-0.015915
0.193055,-0.157166,0.691767,0.451960,0.450747,-0.769779
-0.321902,-0.137263,0.374824,0.469203,-0.617381,0.631419
-0.645980,-0.357274,0.443691,-0.268603,-0.482415,-0.833743
0.029998,-0.567983,0.514167,-0.050543,0.420303,0.905975
-0.320297,0.422434,-0.048823,0.439850,-0.433443,0.786549
-0.408372,-0.220595,0.704338,0.568941,0.313548,-0.760259
-0.585898,0.060076,0.422039,-0.338858,0.340228,0.877166
-0.002722,-0.086988,-0.114795,-0.149726,0.933461,0.325932
-0.385049,-0.093434,0.613496,0.054450,0.360374,0.931218
0.717867,0.476604,-0.389498,0.235890,-0.552581,0.799381
0.405364,-0.402791,0.510307,-0.791878,0.599243,0.117630
-0.071429,-0.303797,0.856797,0.520288,0.852262,0.054318
-0.109564,-0.256506,0.769320,-0.528000,-0.746571,-0.404780
-0.321672,0.066046,0.762466,0.607357,0.760702,-0.229019
0.065469,0.532418,0.308357,0.803361,-0.134736,-0.580049
0.133288,0.126490,0.833140,0.784974,-0.073988,-0.615095
0.408028,-0.236084,0.381357,-0.408478,0.656415,0.634243
0.515501,0.300465,0.298929,0.467460,0.279867,-0.838544
-0.479170,0.133759,-0.380243,0.490646,-0.530662,-0.691132
0.306630,0.847701,0.314964,0.164017,0.481789,0.860801
-0.283336,0.070546,0.787632,0.304712,0.460394,-0.833779
0.199616,0.199481,0.708099,-0.478488,0.769110,0.423698
0.684660,0.087593,0.375665,0.034612,-0.979743,0.197246
-0.194459,0.574429,0.205315,-0.694946,0.266187,0.667978
-0.185347,0.676668,0.402910,0.371262,-0.032179,-0.927971
-0.293708,0.253910,0.810200,-0.612552,-0.346213,0.710575
-0.126383,0.550503,0.824577,-0.731852,-0.677023,0.077664
0.506733,0.364197,0.508055,-0.113573,-0.428497,0.896377
0.393272,-0.109659,0.591151,-0.571109,0.778652,-0.259876
-0.011346,0.550979,0.828141,-0.624547,0.057578,0.778862
0.384248,-0.023213,-0.002054,0.780222,0.482952,-0.397505
-0.058736,-0.204630,0.662542,-0.301672,-0.795476,0.525559
0.135150,0.199611,-0.455495,0.981026,-0.059371,0.184561
-0.089222,0.098021,0.402737,-0.038778,0.977588,-0.206923
0.338261,-0.303234,0.297048,-0.512325,-0.733347,0.446906
-0.330039,-0.108751,0.086833,0.151443,0.717686,-0.679700
0.271302,0.216052,0.898122,0.770440,0.490171,-0.407620
0.447768,0.367312,0.209299,-0.384143,-0.148960,-0.911178
-0.262678,0.071455,0.850857,0.997344,0.021177,0.069689
-0.364564,0.154397,0.749771,0.808303,0.102524,-0.579772
-0.251762,-0.951022,0.307441,-0.447337,0.311017,-0.838545
0.081915,-0.328199,0.555913,-0.706170,0.532059,0.467159
-0.370409,0.044716,-0.512187,-0.227094,-0.034770,0.973252
0.186723,0.131422,0.460023,0.729825,0.087696,0.677986
-0.001433,0.108015,0.854074,0.513420,0.081010,-0.854305
0.141941,0.769432,0.243993,-0.083273,-0.684262,0.724466
-0.358174,0.471195,0.637128,0.333780,0.843709,0.420412
0.518452,-0.327550,0.459330,-0.089258,0.584506,0.806465
-0.489743,0.234397,0.783772,-0.499267,0.818792,0.283394
-0.388832,0.186977,0.587513,-0.522768,0.808232,-0.271061
-0.084379,-0.037404,0.889189,0.780202,0.027192,-0.624936
0.034497,0.488978,-0.158323,-0.260919,-0.879388,0.398245
-0.134834,-0.373369,0.574695,-0.439907,-0.316247,-0.840518
-0.825110,-0.187020,0.380144,0.645706,-0.599877,-0.472452
-0.188127,0.080887,0.828611,0.012531,0.430707,0.902405
-0.061830,-0.088632,-0.026478,-0.305626,0.483231,0.820415
0.097014,0.614797,0.295613,0.189624,0.270694,0.943805
-0.369606,0.537263,0.160600,-0.217080,0.901395,-0.374651
0.865882,-0.780855,-0.116948,0.096084,-0.208704,0.973247
0.070054,-0.044976,0.555814,-0.701565,0.685581,0.194387
-0.496332,0.269876,0.535918,0.696164,0.570593,0.435636
-0.064638,0.085689,0.809458,-0.074770,0.250665,0.965182
0.645808,0.034808,0.460939,-0.298703,0.884296,-0.358883
-0.286803,0.141633,0.817030,-0.477186,-0.868059,0.136995
-0.430577,-0.199394,0.455990,-0.257970,0.662327,-0.703402
-0.199530,-0.134148,0.798471,0.670097,0.363301,0.647289
-0.029798,0.108924,0.232981,-0.198749,0.979574,0.030543
0.182339,0.193683,0.889634,-0.184264,0.410412,0.893089
-0.272850,-0.166425,0.745985,-0.100760,0.256897,0.961172
-0.667183,-0.122466,0.045235,0.212154,-0.781115,0.587239
0.077531,0.561060,0.344659,-0.645369,-0.052471,0.762067
-0.286947,0.537956,0.728119,-0.407177,-0.701893,-0.584425
0.004870,0.507106,0.660761,0.545539,0.274802,0.791752
-0.248983,0.627604,0.794388,-0.408811,0.286830,0.866373
-0.186321,-0.514938,0.688773,-0.612445,0.790439,0.010804
0.457194,-0.286750,0.434882,-0.004594,0.860135,0.510046
0.018107,-0.174732,0.413427,0.847015,0.243869,0.472327
0.231219,-0.103559,0.841751,-0.205102,0.878472,-0.431532
0.306085,0.412829,0.376135,-0.504125,0.352212,0.788546
-0.335138,0.480887,-0.023162,0.567464,-0.365049,0.738054
-0.482723,-0.189313,0.609240,-0.524179,0.567802,-0.634695
-0.532748,-0.203332,0.709930,0.033192,-0.813834,0.580149
-0.908258,0.561276,-0.209720,-0.015929,0.283987,0.958696
0.098991,0.031433,-0.018683,0.940520,0.338560,0.028285
0.083806,0.191693,0.160154,-0.641549,0.718140,0.269610
0.111426,0.531249,0.854074,0.645425,0.621324,0.444279
0.493209,0.091747,0.447378,0.068125,0.338451,0.938515
-0.703283,0.246641,0.308035,0.710877,-0.522116,0.471221
0.474471,-0.091531,-0.126277,0.771550,0.635758,-0.022847
-0.260558,0.138085,-0.541833,-0.241245,0.966315,0.089650
-0.378030,0.339102,-0.066096,-0.178801,0.686967,0.704348
0.161222,-0.074786,0.667615,0.393958,0.230993,0.889629
0.107444,-0.325689,0.559897,0.961608,-0.252295,-0.107974
-0.097989,0.665159,0.243374,-0.060861,0.396435,0.916043
-0.194029,-0.020227,0.506520,-0.694904,0.363994,-0.620175
-0.482379,0.150546,-0.372250,-0.079584,0.479164,0.874110
0.627385,-0.148643,-0.103239,0.246748,0.148013,-0.957710
-0.294395,0.152320,0.833090,0.555071,0.046885,-0.830480
-0.151023,0.295273,0.869813,0.903859,-0.335450,-0.265541
0.578104,-0.341396,0.415951,0.646804,0.619632,0.444635
0.205977,-0.085041,0.593205,0.692340,-0.601004,-0.399324
-0.300757,-0.642791,0.541660,-0.645246,0.750535,0.142670
0.541888,0.267885,0.289055,0.413551,0.190282,-0.890376
0.057934,-0.049043,0.176165,-0.216958,0.975902,-0.023328
-0.667440,-0.114246,0.419490,0.349525,-0.147320,0.925272
0.015386,0.701200,0.226201,0.332625,0.374276,-0.865609
0.287290,-0.000844,0.887704,0.373206,0.573029,-0.729627
0.679273,-0.040173,0.069140,0.119430,0.845444,0.520539
-0.061515,0.580573,-0.418104,-0.396126,0.816952,-0.419135
-0.480259,-0.113770,0.343496,-0.440392,0.842321,-0.310724
0.077331,-0.692288,0.112742,0.063669,-0.512859,0.856109
-0.452410,0.070027,0.531934,0.682373,-0.479941,0.551384
-0.303994,-0.274029,-0.197694,-0.179804,0.017027,0.983555
-0.535327,0.270525,0.341961,0.258277,-0.964962,-0.046279
0.142971,-0.091531,0.891886,0.308455,0.518792,-0.797314
-0.139735,-0.323353,0.601693,-0.186662,0.848875,-0.494539
0.157183,0.282293,-0.426270,0.977621,-0.077599,0.195541
0.221162,-0.287831,0.705130,0.743139,-0.097891,0.661938
0.411295,-0.384575,0.495459,0.772370,-0.548861,0.319683
-0.302561,0.223797,0.781272,0.042159,-0.053421,0.997682
-0.394619,-0.748318,0.395140,0.044466,-0.953504,0.298081
-0.357974,0.565560,0.770607,0.318310,-0.472766,0.821688
0.395049,-0.450081,0.209398,0.912943,0.178179,0.367133
-0.435878,-0.297393,0.688649,0.354909,0.159776,-0.921147
0.125551,-0.553402,0.541016,-0.322203,-0.938823,0.121646
-0.082746,0.360692,0.103907,-0.267771,-0.930869,0.248559
0.112630,-0.239373,0.446116,0.191764,0.829985,0.523785
0.673886,-0.255122,0.482492,0.802927,-0.595534,-0.025442
-0.108103,0.051076,0.859370,0.785469,-0.618894,-0.002787
-0.180792,-0.287096,0.283957,0.761796,-0.492664,0.420654
-0.317632,0.419275,-0.068843,-0.355004,0.399888,-0.845022
-0.062088,-0.309595,0.912549,0.357242,0.684551,0.635428
-0.904217,0.177977,-0.063374,0.353733,0.529221,0.771232
-0.466191,0.215446,0.775012,0.106068,0.968738,-0.224267
-0.177583,0.750698,0.784539,-0.391303,0.866048,0.311197
-0.187955,-0.035197,0.019401,-0.610047,0.166372,-0.774702
-0.203627,0.341828,0.647423,0.917580,-0.161974,0.363057
-0.054610,-0.026241,0.816164,-0.628909,0.703436,0.331137
-0.679188,0.336290,0.207122,-0.570184,-0.184493,-0.800533
-0.146267,0.594635,0.603301,0.728524,0.473815,0.494724
-0.375337,-0.640497,0.557497,0.857672,0.480766,-0.182383
-0.137987,-0.288740,-0.066591,0.798492,0.035009,-0.600987
0.090109,0.083829,0.811759,0.653400,0.660639,0.369628
0.074580,-0.017069,0.573458,0.627530,-0.648984,-0.430146
-0.254083,-0.252180,-0.197248,-0.342354,0.021048,0.939335
-0.161567,0.584943,0.228552,-0.441126,0.401759,0.802494
0.245058,-0.534148,0.268862,-0.242279,0.421836,0.873702
-0.132170,-0.152580,-0.191582,-0.354930,0.710084,0.608116
-0.451779,-0.350654,0.155675,0.563504,-0.542007,0.623452
0.574236,-0.316128,0.417287,0.598421,0.656906,0.458658
0.336628,0.162185,0.369058,-0.132149,0.932592,0.335871
-0.471549,-0.486771,0.585014,0.254096,0.549268,0.796078
0.023466,0.549551,0.279305,0.535149,0.543483,-0.646717
0.431064,-0.592818,0.485610,-0.254571,-0.204566,0.945170
-0.082832,-0.144446,0.843607,0.215448,-0.941078,0.260679
-0.916165,0.163050,-0.048130,-0.769861,0.148523,-0.620689
0.054323,0.229291,-0.094949,-0.562132,-0.791171,0.240948
0.126067,0.140033,-0.426221,-0.777213,-0.565322,-0.276316
-0.076328,0.725603,0.817995,-0.714270,0.247838,0.654518
-0.266231,-0.143148,0.284650,-0.442051,-0.781849,-0.439662
-0.462724,0.168761,-0.370221,0.277073,0.054250,0.959316
0.008824,0.643959,0.808493,0.505151,0.606962,0.613530
0.756089,-0.423299,-0.056594,-0.060215,-0.092338,0.993905
-0.578362,-0.296312,0.462869,-0.466182,0.876687,-0.118714
-0.536044,0.272645,-0.072555,0.207991,0.920806,-0.329933
0.600137,-0.267193,0.170548,0.009347,-0.536758,0.843685
0.096928,0.358269,0.851699,0.797730,0.348228,0.492306
0.077474,0.275284,0.810621,0.887331,0.322695,-0.329411
0.517792,0.304446,0.287917,0.467460,0.279867,-0.838544
0.793937,0.057436,0.361510,-0.544749,0.051239,0.837032
-0.131167,-0.328372,0.206998,-0.491632,-0.211188,-0.844806
-0.022778,-0.274895,0.675187,0.193217,-0.511140,-0.837498
-0.027706,-0.114375,0.552795,-0.510568,0.190552,-0.838457
0.070311,-0.386479,0.702927,-0.288625,-0.957338,0.014134
-0.385565,-0.147647,0.706936,0.171121,-0.355179,-0.919002
-0.810727,0.044283,-0.219544,0.326254,-0.789264,0.520212
-0.871898,-0.215143,-0.287818,-0.169374,0.683644,0.709890
-0.550857,-0.396950,0.584816,-0.496756,0.140348,-0.856467
0.069623,0.326685,0.857737,-0.099362,-0.367422,0.924731
-0.566987,-0.425506,-0.142956,-0.037528,0.039831,0.998501
-0.614722,-0.453456,0.234119,-0.012417,0.480833,0.876724
-0.137069,-0.390763,0.023607,0.846624,-0.413012,0.335631
-0.412354,0.195630,0.758457,0.665714,-0.061750,-0.743648
0.045957,-0.108361,0.919626,-0.634385,0.669162,-0.387011
-0.162226,-0.504814,0.730544,0.202115,-0.977731,-0.056499
-0.390866,0.043029,0.761896,0.249673,-0.297559,-0.921478
0.610452,-0.324781,0.437133,0.334230,0.121802,0.934588
-0.264971,0.630070,0.795675,-0.103153,0.454650,0.884677
-0.625351,-0.050817,0.402613,-0.179669,-0.652726,0.735981
-0.367515,-0.221936,-0.208631,-0.152559,0.164530,0.974503
0.151080,0.474310,-0.984534,0.093869,0.109465,0.989548
0.655091,-0.148945,0.189552,0.044224,-0.303141,0.951919
-0.585640,0.059426,0.591374,-0.325096,0.028287,0.945258
-0.421695,-0.540595,0.381827,0.093349,-0.955849,-0.278636
-0.557618,0.269097,0.611467,-0.324674,-0.747273,-0.579801
0.394247,0.250103,0.244265,0.128323,-0.441594,0.887991
-0.529512,-0.482401,0.368093,0.665733,0.677863,0.311931
0.165234,-0.438356,0.226052,-0.500575,0.373232,0.781103
-0.001232,-0.378518,-0.163124,0.189824,0.124560,0.973885
-0.638387,-0.335684,0.205117,-0.629224,0.082771,-0.772804
-0.031517,0.013694,0.737448,0.236630,-0.965900,-0.105089
-0.660850,-0.409324,0.222217,0.072156,0.390426,0.917802
-0.382127,-0.339016,0.753904,0.102181,0.986173,0.130468
0.403329,0.089367,0.457029,0.219914,0.546478,0.808084
0.146954,-0.285019,0.739502,0.918883,0.325677,0.222686
0.160306,0.148729,-0.054094,0.837519,-0.543992,-0.051327
-0.719672,-0.348578,-0.239366,-0.810050,0.470369,0.350102
0.067962,-0.373369,0.502561,0.935130,-0.243343,-0.257518
-0.306515,-0.701763,0.617381,-0.224641,-0.078764,0.971253
-0.011948,-0.285279,0.453317,-0.760150,-0.609586,-0.224891
0.081285,-0.527745,0.642449,-0.666502,0.639949,-0.382413
-0.852931,-0.194678,0.271758,0.522603,0.851441,0.043975
0.186837,0.074700,0.231397,-0.393715,0.916555,0.070109
0.184344,0.173737,0.702829,0.750277,-0.660450,-0.029851
-0.150049,0.506025,0.904234,0.801941,-0.596053,0.040148
-0.798866,0.443331,-0.198684,-0.602962,-0.146152,-0.784268
-0.659504,-0.267799,0.226448,0.250013,0.248202,0.935890
-0.332846,-0.537480,0.208755,-0.506373,0.812875,0.287786
0.567102,0.420573,-0.354804,-0.334501,0.709702,-0.620026
-0.367229,-0.331098,0.800698,-0.013790,0.993329,0.114484
-0.360180,-0.130946,0.091757,0.471447,0.018948,0.881691
-0.736978,0.423040,-0.200317,-0.022566,-0.342514,0.939242
0.111312,-0.108664,0.325728,0.386309,0.890255,0.241271
0.391267,0.397685,0.334018,0.534443,-0.794157,0.289284
0.647699,-0.260400,-0.085917,-0.368282,-0.083653,0.925943
-0.098132,0.500443,-0.411150,-0.334981,0.841416,-0.424037
-0.430577,-0.492180,0.311425,0.077758,0.982319,0.170304
-0.595897,0.466436,0.353518,-0.427596,0.667762,-0.609307
-0.520027,-0.166122,0.694143,0.718088,-0.695929,0.005601
0.690018,-0.405949,0.178070,-0.337685,-0.062766,-0.939164
-0.290528,0.264856,-0.238475,0.393408,-0.428780,0.813252
-0.969343,0.486035,-0.206528,-0.016463,0.262902,0.964682
0.617099,0.080411,0.288436,0.883393,0.147706,-0.444748
0.551946,0.275976,0.526688,0.438535,-0.042456,-0.897711
-0.404819,-0.019189,0.358021,0.460048,-0.357686,0.812660
-0.125809,0.108058,0.893197,0.077202,0.590039,0.803675
-0.501232,-0.466522,0.607038,-0.705391,-0.527830,-0.473095
0.283193,0.395608,0.127960,-0.715151,0.311201,0.625869
-0.428256,0.336679,0.456039,-0.585358,-0.280136,0.760842
-0.266060,0.018280,0.852565,0.994250,0.076882,0.074540
-0.555498,-0.363159,0.627032,-0.582964,-0.650629,-0.486656
0.055125,-0.347366,0.136522,0.918633,-0.016800,0.394754
0.154833,0.054927,-0.310905,-0.495511,0.632045,0.595809
0.027992,0.148945,0.140729,-0.327766,0.598187,0.731260
-0.686006,-0.250406,-0.290886,-0.727490,-0.073039,0.682220
0.630278,-0.207702,0.405187,0.223410,0.891777,0.393475
0.271188,0.047355,0.904902,0.197184,0.810847,-0.551040
0.329093,0.717166,-0.487145,-0.756541,0.202912,-0.621669
0.062404,-0.200173,-0.294450,-0.901801,0.422403,0.091271
-0.492293,-0.263429,0.603004,-0.666756,-0.408679,0.623232
-0.020286,0.034029,0.834030,-0.714945,0.603686,-0.352727
-0.332072,-0.882142,0.191977,-0.585189,-0.668634,0.458783
-0.582861,-0.256463,0.605429,-0.417859,0.253108,-0.872543
-0.421036,0.320671,0.768850,0.791265,-0.306815,-0.528927
0.323907,-0.333391,0.278637,-0.305352,-0.667351,0.679266
-0.424245,0.071844,0.566900,-0.674824,0.194864,0.711787
-0.173572,0.575165,0.814580,-0.524917,0.645207,0.555131
-0.329294,-0.390546,0.695702,0.040892,-0.733911,0.678014
-0.297319,0.081276,0.804113,0.405884,0.103391,-0.908058
0.219787,0.933283,0.295093,0.228504,0.315971,0.920841
0.632771,-0.220465,0.379773,-0.411673,-0.714672,-0.565481
-0.373703,0.265765,-0.023409,-0.516915,0.767455,0.379225
-0.086069,0.218085,0.826656,-0.425981,0.213581,0.879161
0.608962,0.040043,0.423325,-0.191126,0.957959,-0.213974
-0.472294,-0.330103,0.606345,0.762658,0.482032,-0.431275
-0.474386,0.265203,0.445596,0.446695,-0.825551,-0.344862
-0.323506,-0.920736,0.196852,0.810558,0.548807,-0.204466
0.121512,0.181395,-0.321620,0.922994,-0.037163,0.383015
-0.435276,-0.187669,-0.092029,0.277163,-0.724073,0.631585
0.274339,0.055186,-0.231447,-0.420416,-0.642541,0.640619
-0.796430,-0.229595,0.252209,0.297563,0.644162,0.704636
-0.586385,-0.018324,-0.317414,0.497089,-0.823127,0.274526
-0.303421,0.164997,-0.479968,-0.224312,0.954670,-0.195676
-0.086069,0.057609,0.802381,0.947240,0.272956,-0.168024
-0.708212,0.442985,-0.206652,0.304428,0.214988,-0.927957
0.578792,-0.265722,0.433743,-0.649207,-0.732202,-0.205940
0.054925,-0.180054,0.674816,-0.034660,0.167529,0.985258
0.073176,-0.002920,0.422632,-0.314759,0.532814,-0.785517
-0.443499,-0.206836,0.652199,0.747064,0.065665,-0.661501
0.415449,-0.364716,0.153597,-0.771153,0.182474,-0.609940
-0.147241,-0.304230,0.801143,0.711759,-0.043428,-0.701080
0.511489,-0.304922,0.459751,0.178614,0.132837,0.974911
0.130938,0.727680,0.274851,-0.423945,0.846685,0.321550
-0.347086,0.440865,0.728267,-0.428640,-0.750372,0.503199
0.479199,0.556560,0.189973,0.506676,0.615652,0.603534
-0.854307,0.467344,-0.185420,-0.170650,0.431512,0.885820
-0.587130,-0.486512,-0.155082,0.120504,0.049874,-0.991459
-0.209816,0.624619,0.164262,0.687186,0.721083,-0.088399
-0.046043,0.458950,0.839400,-0.629235,-0.124533,-0.767173
0.084064,0.120260,-0.566207,-0.734526,0.507431,0.450539
0.102802,0.412309,0.870951,0.848193,-0.482943,-0.217563
0.168328,0.500876,-0.079978,0.428100,0.897133,-0.109005
0.130680,0.843851,0.396056,-0.828147,0.405663,-0.386796
0.815111,0.404348,0.125288,-0.072994,-0.781068,0.620165
0.104522,-0.284673,0.515503,-0.350454,0.891643,0.286627
0.011575,0.179189,0.916137,-0.718375,0.689148,-0.094933
-0.785714,-0.601125,-0.232140,-0.375555,-0.723524,-0.579199
-0.049137,0.328069,0.303383,0.968235,-0.071901,0.239479
0.513266,-0.341785,0.474054,0.153292,-0.828774,-0.538178
-0.024010,-0.323743,0.581797,0.187013,0.257703,0.947953
0.199960,0.286966,0.436069,-0.701669,0.574949,-0.420826
0.314365,-0.113078,0.260820,0.489948,-0.594081,-0.637980
0.036302,0.506847,0.854223,0.984507,0.165689,0.057392
-0.079394,-0.564175,0.212541,0.988441,-0.073267,0.132725
0.263509,0.115068,0.535993,-0.599452,-0.792719,0.110698
-0.276403,-0.102391,0.631041,-0.667723,0.645110,-0.371455
-0.084637,-0.627647,0.662864,-0.664876,-0.512390,0.543503
-0.590969,0.005819,0.313726,0.950883,0.011869,0.309321
0.272821,-0.341352,-0.228527,-0.552112,-0.555738,-0.621553
-0.102058,-0.170795,0.515553,-0.014990,0.999886,-0.001769
-0.242995,-0.547993,0.249511,-0.009461,0.942156,0.335042
0.114463,0.022693,0.028309,0.803089,-0.565213,-0.188632
-0.373187,-0.723526,0.246690,-0.450626,0.551868,0.701696
0.173658,0.002704,0.890698,0.714806,0.389116,0.581069
0.196063,0.376138,0.798966,0.932611,0.068474,0.354326
-0.538192,0.020097,-0.412487,0.177083,-0.918863,0.352609
-0.017391,0.193207,0.865606,-0.795268,0.374259,-0.476947
0.102716,-0.442553,0.172626,-0.589563,0.205957,0.781023
0.209845,0.217307,0.678429,-0.353292,0.702763,-0.617502
-0.286115,0.155478,0.751602,0.994207,0.096550,-0.047234
-0.352129,0.289951,0.805400,0.993267,0.050911,-0.104062
-0.305685,0.250579,0.140853,0.349651,0.168420,0.921618
-0.087990,-0.466912,0.213160,0.993637,-0.107942,0.032157
0.742163,0.396604,-0.425429,0.235890,-0.552581,0.799381
-0.726090,0.194894,0.357427,-0.756291,0.458232,-0.466955
-0.588161,-0.461893,-0.157531,-0.077058,-0.028800,0.996611
-0.114607,0.636560,0.249115,-0.134183,-0.425414,-0.894996
0.162168,0.218778,0.854619,0.498562,-0.291859,-0.816244
0.005759,0.304013,0.259954,-0.151181,0.982521,-0.108612
-0.337774,0.100270,0.775977,-0.710587,-0.117818,0.693675
0.064294,-0.011141,0.919255,0.788929,-0.039442,0.613217
