-0.181377,0.449841,-0.356404,-0.699283,-0.693479,0.173466
-0.441542,-0.459591,0.230379,-0.181336,-0.918855,0.350460
-0.471843,-0.001147,0.644737,0.931717,0.290743,0.217652
0.174958,0.112404,0.860739,-0.065645,-0.915242,0.397520
0.496225,-0.008294,0.700150,-0.271634,0.621486,0.734827
-0.338902,-0.270646,0.288002,0.235451,0.635341,-0.735462
0.091681,0.129212,-0.777651,-0.772836,-0.621183,0.129830
-0.121678,0.787497,0.391189,-0.597164,0.354426,0.719567
0.319236,-0.346833,0.734456,0.107313,0.918397,0.380830
-0.130007,0.182812,0.686116,0.147911,-0.913368,0.379317
-0.127649,-0.083951,-0.082732,0.074403,0.211751,0.974487
0.335642,-0.149638,0.816315,0.039352,0.875614,0.481406
-0.064690,0.396152,0.169061,-0.481210,-0.825190,0.295801
-0.506108,-0.095951,0.375325,0.493502,0.106542,-0.863194
-0.031429,0.060701,0.782771,0.527163,-0.300284,-0.794939
-0.218200,0.691414,0.620181,0.689589,-0.646472,0.326408
0.604134,-0.517028,0.507772,0.202321,0.890907,0.406633
-0.383751,-0.175094,0.565321,0.338825,0.696571,0.632445
-0.130558,0.310348,0.366043,-0.412616,0.571204,0.709559
0.471543,0.439473,0.771364,0.550948,0.717631,-0.425985
-0.009807,-0.254632,0.608197,0.619354,-0.651111,-0.438697
0.253518,-0.079540,0.761971,-0.508997,0.809869,0.291605
0.343568,0.029733,0.852402,0.971145,-0.081648,-0.224080
0.495122,0.416092,0.399047,0.864964,-0.409214,-0.290485
-0.377480,-0.036263,0.434126,0.222732,-0.621434,0.751139
0.190108,0.144740,0.955651,0.967164,0.145073,0.208681
-0.559435,-0.428579,0.048340,-0.347744,0.210588,0.913634
0.384855,-0.583025,0.132299,0.531027,0.488280,-0.692526
-0.002232,-0.319923,0.623152,0.693068,0.196427,-0.693595
0.598967,-0.559777,0.173874,0.204189,-0.955071,-0.214817
0.458902,-0.454607,0.402117,0.218925,0.877975,-0.425714
0.092232,0.306025,-0.276472,0.775460,0.611640,-0.156712
-0.313668,0.560349,0.417772,0.821255,-0.201553,0.533776
-0.462913,0.668166,0.473810,-0.042155,-0.841635,0.538399
0.630121,0.067628,0.354882,0.292598,-0.506536,-0.811054
-0.071262,0.091980,0.765851,0.721422,-0.582568,0.374385
0.238970,-0.050115,0.865073,0.858678,0.490234,-0.149472
-0.259086,0.104773,0.650508,0.595606,-0.800161,0.070677
-0.201042,0.066568,0.532010,0.825243,0.197855,-0.528987
-0.054706,-0.020161,0.532292,0.967331,0.204978,0.149181
-0.428348,0.681356,0.447645,0.523563,0.379519,-0.762789
0.502897,0.116110,0.625890,0.586429,0.805785,0.082528
0.108587,0.126477,0.965252,-0.454076,0.846242,0.278727
-0.226577,0.588495,0.599688,0.171394,-0.157315,0.972562
-0.357965,0.180078,0.166372,-0.073042,-0.939042,0.335952
0.260491,-0.436078,0.542459,-0.450271,0.862971,0.229211
-0.535554,0.074553,0.380237,-0.686284,0.719361,-0.107401
-0.099305,0.802761,0.340909,0.050419,0.197924,0.978920
0.109239,0.150476,0.884853,0.727478,0.277614,-0.627460
-0.031429,-0.235089,0.518786,0.977479,-0.014417,-0.210538
0.418115,0.195164,0.300415,-0.320103,-0.429328,-0.844518
0.397998,0.624757,0.652915,0.673789,0.087546,0.733719
0.199739,0.153211,0.342591,0.385866,-0.879072,-0.279893
0.653248,-0.894169,0.191137,0.274113,-0.299256,-0.913952
-0.335339,-0.172755,0.418938,0.669277,0.391156,0.631716
-0.697494,0.280968,0.251289,-0.217846,-0.535271,-0.816106
-0.455639,-0.394433,-0.037572,0.312694,-0.459996,-0.831039
0.495875,-0.622772,0.179006,0.883928,-0.399065,-0.243758
-0.127649,-0.477943,0.574125,-0.424009,0.677871,0.600589
0.276645,-0.280131,0.698296,-0.386537,0.740887,0.549249
0.337447,0.254499,-0.949597,0.182472,-0.049966,-0.981941
0.679484,0.294820,0.359720,-0.578604,-0.790071,0.202497
-0.830888,0.250352,0.208217,-0.005377,0.838251,0.545258
0.789250,-0.902771,0.207406,-0.595743,0.746965,-0.295184
-0.510673,-0.408285,0.069889,-0.250814,0.225899,0.941309
-0.526274,-0.172843,0.219660,0.898839,-0.431435,-0.077151
0.627211,0.023734,0.522445,0.578136,0.405755,-0.707899
-0.203250,-0.028631,0.073695,0.894599,0.424709,-0.138981
-0.822409,0.177871,0.107104,0.741889,-0.491861,-0.455713
0.075125,0.474987,0.404572,0.800822,0.207334,-0.561869
0.036497,0.117523,0.833358,-0.663338,-0.423212,0.617150
0.182381,-0.016676,0.821190,-0.810880,-0.074802,0.580413
0.073721,0.492367,0.394246,0.863332,0.193015,-0.466266
-0.058820,0.423240,0.529456,-0.581153,-0.044192,-0.812594
0.038202,-0.089510,0.683390,-0.420952,-0.887781,-0.186128
0.461711,0.052716,0.569004,0.163779,0.805152,0.570006
-0.411041,0.613552,0.444858,0.100074,-0.381054,0.919121
-0.345474,-0.115273,0.398003,0.822634,0.210587,-0.528135
0.154539,0.117125,-0.703600,0.619140,0.782788,0.062518
0.923194,0.094097,0.374478,-0.229602,-0.381257,0.895503
-0.615822,0.703413,0.317691,0.070434,-0.641948,0.763506
0.366243,0.085892,0.446614,0.300426,0.953178,0.034588
0.152331,0.273381,0.899956,0.942211,0.265815,-0.203912
0.112098,0.124006,0.937380,0.909279,-0.214759,0.356498
-0.112499,0.150476,0.781592,-0.653954,0.735731,0.176193
0.032835,0.110243,0.541034,-0.314562,-0.010488,-0.949179
0.173252,-0.241266,0.616988,0.443086,-0.035212,-0.895787
0.344822,-0.362626,0.750810,-0.273070,-0.956027,-0.106984
-0.357513,0.826584,0.365110,0.795295,0.546816,-0.261722
-0.704517,0.303510,-0.081639,0.149091,0.988382,0.029562
-0.140041,0.233941,0.824628,0.915604,0.395693,0.071389
-0.591441,0.139933,0.478046,0.516794,0.418339,-0.746938
-0.344620,-0.216165,0.424390,-0.695574,-0.250352,-0.673425
0.498533,-0.799277,0.226057,0.655125,0.232245,0.718939
0.292447,0.226090,0.398875,-0.766602,0.301112,0.567145
0.112450,-0.023073,0.102610,0.907044,-0.322461,0.270722
0.204254,0.205972,0.766355,0.088545,0.258967,-0.961819
-0.894700,0.295085,0.191297,0.294838,0.801347,0.520494
0.323852,-0.047292,0.076556,0.917525,0.126822,0.376914
0.536008,0.171519,0.803718,0.805827,0.132631,-0.577107
-0.251411,0.447018,0.395855,0.363189,-0.504972,0.783005
-0.188752,-0.049983,0.809108,-0.698949,-0.543048,-0.465371
0.700053,-0.796189,0.295491,0.466397,-0.523862,-0.712771
0.000577,0.209458,0.457431,0.560654,0.822511,0.095621
0.232649,-0.405551,0.474743,-0.446840,-0.027902,-0.894179
0.232147,-0.134773,0.231067,0.153408,-0.379545,0.912366
0.064740,0.352963,0.752186,0.210533,-0.705238,0.676989
-0.250307,-0.058453,0.017435,-0.324965,0.104812,0.939900
-0.000024,0.318422,0.658452,-0.061769,-0.456339,0.887659
0.551709,0.320716,0.390919,0.781900,0.023320,-0.622968
-0.367797,-0.174431,-0.081970,-0.550973,0.406893,0.728606
-0.049590,0.335891,-0.272162,0.601953,0.798488,-0.008352
-0.111846,0.780483,0.391017,-0.597164,0.354426,0.719567
0.389672,-0.246383,0.568059,-0.027579,-0.710320,0.703338
0.787293,0.342950,-0.919245,-0.321481,0.012510,0.946834
-0.140041,0.320760,0.871924,0.226308,-0.973458,0.034117
-0.363683,0.372860,0.370119,0.416480,0.681674,-0.601552
0.307549,-0.145536,0.534944,0.628159,-0.777642,0.026242
0.253418,-0.401007,0.387432,-0.508510,0.336596,-0.792541
0.181128,0.125948,-0.523169,0.406251,0.910797,-0.073542
0.151078,-0.153256,0.776534,-0.551941,-0.454979,-0.698824
0.526626,0.110199,0.454288,0.154946,-0.731987,0.663465
-0.203199,0.349038,0.626050,-0.648694,0.083988,0.756400
-0.352948,0.605788,0.565996,0.714229,-0.018201,0.699675
-0.379435,0.158594,0.664321,0.422358,-0.362449,0.830809
-0.393433,-0.465194,0.069520,-0.251101,0.094001,0.963386
-0.325758,-0.464531,0.473172,-0.581400,0.011097,-0.813542
0.688214,0.009572,0.631280,-0.064101,0.568552,0.820146
-0.246595,0.915828,0.325622,-0.514600,0.654655,0.553727
0.108034,-0.560085,0.554246,-0.601395,-0.605974,-0.520691
-0.077282,-0.443313,0.555805,0.001191,0.747006,0.664817
-0.209371,-0.155683,0.453821,-0.026109,0.992747,0.117352
0.404871,-0.794601,0.124564,-0.502839,0.294640,-0.812614
0.005092,0.284541,0.838490,0.666624,-0.499720,-0.553076
0.132867,-0.275102,0.613440,0.271644,0.214751,0.938132
0.577244,-0.219428,0.661559,-0.785998,0.152821,0.599043
0.251964,0.764205,0.493971,-0.330805,-0.587948,0.738164
0.156897,0.177253,0.314290,0.400859,0.250823,-0.881136
-0.339805,0.405770,0.320650,0.972375,0.153397,0.175942
-0.666541,0.520865,0.161215,-0.259527,-0.701122,0.664134
-0.420423,0.441017,0.287670,-0.353165,0.906552,0.231164
-0.411893,0.526380,-0.018442,0.736973,0.023564,0.675511
-0.598666,0.023998,0.532980,-0.718761,-0.255294,-0.646690
0.108435,0.002161,0.705258,0.516338,-0.059747,-0.854298
-0.223668,-0.366377,0.658600,-0.769811,-0.504548,-0.390924
-0.117615,-0.070937,0.506078,-0.448272,0.495521,0.743983
0.738933,0.201826,-0.921750,-0.405301,0.163178,0.899502
0.019440,0.485266,0.705503,0.536494,0.668238,-0.515396
0.794316,-0.565865,0.315309,-0.516281,0.117223,-0.848359
0.609803,-0.179858,0.645671,0.855828,-0.210695,-0.472405
-0.397798,0.643682,0.586685,0.467970,-0.868421,0.163858
-0.035442,-0.127272,0.014427,0.052767,0.439240,0.896819
0.054607,0.387330,0.593794,0.975935,-0.085303,-0.200683
0.012116,-0.227237,0.088674,0.595641,-0.539424,-0.595175
0.451327,-0.396242,0.605962,-0.382134,-0.896150,-0.225587
0.168837,-0.489413,0.485818,0.745701,-0.618384,-0.248053
0.227983,-0.025058,0.838822,0.756685,0.639563,-0.135599
0.172700,-0.313614,0.173481,0.950220,-0.310593,-0.024782
-0.130809,-0.202003,0.057586,0.567557,-0.648266,-0.507573
0.136279,-0.488310,0.516969,0.223881,0.508196,0.831634
-0.528331,0.461796,0.401159,0.348289,0.359453,-0.865730
-0.910452,0.129433,0.221072,0.286387,0.435513,0.853411
0.295257,-0.097098,0.878125,0.978808,0.075172,-0.190486
-0.014723,0.134462,0.275969,-0.366783,-0.708637,0.602747
-0.105175,0.044335,-0.983056,-0.251161,-0.065749,0.965710
0.102215,0.103626,-0.964908,0.476643,0.333627,-0.813329
0.258535,-0.360155,0.675789,0.469151,0.808378,0.355558
0.092132,-0.229399,0.014771,0.534997,0.767534,0.353087
-0.380490,0.527439,0.548315,0.124624,-0.865389,0.485357
0.174605,0.061761,0.828164,0.520148,0.488986,0.700242
-0.520807,0.294336,0.096840,-0.568446,0.708178,0.418751
0.552513,-0.923108,0.265888,0.302543,0.865231,0.399803
-0.770587,0.275454,0.122293,0.745537,0.300953,-0.594645
0.012266,-0.380228,0.385713,-0.159794,0.335891,0.928247
-0.061078,0.020645,0.837864,-0.613679,-0.411968,-0.673558
0.236813,-0.138257,0.720974,0.993556,-0.037953,-0.106800
-0.406074,0.525190,0.383810,-0.674028,0.505715,0.538459
-0.163569,0.213075,0.452556,-0.608381,-0.685130,-0.400588
0.315424,0.361698,0.665488,0.107727,-0.643337,0.757966
0.503951,0.092861,0.260203,0.420587,0.738658,-0.526774
-0.579049,0.445694,0.081320,-0.552655,0.633900,0.541057
-0.399453,0.442474,0.287658,0.745230,0.490303,-0.451924
-0.446509,-0.302938,0.021745,-0.626279,0.693590,0.355960
0.366143,0.245323,0.300734,0.393378,0.414789,0.820490
0.601023,-0.838230,0.192255,0.915732,0.401644,0.010784
0.519202,-0.518925,0.199425,0.697529,0.698246,-0.160953
-0.271678,-0.356318,0.620758,0.178343,-0.951550,-0.250493
0.471193,-0.325834,0.251584,0.630895,0.615502,-0.472365
0.171245,-0.342730,0.686803,-0.562271,0.277270,0.779085
0.642011,-0.694856,0.310618,0.180729,0.973555,0.139739
-0.626107,-0.048395,0.541194,0.668229,0.028890,0.743395
-0.064890,0.243118,-0.139765,0.192176,0.777272,0.599097
-0.212682,-0.026425,0.015802,0.009074,0.214680,0.976642
0.368200,0.356096,0.613403,0.105395,0.295101,0.949635
-0.154187,-0.418917,0.638046,-0.468556,-0.692522,-0.548515
-0.382998,0.047070,0.644725,0.835483,0.511373,0.201160
0.353952,0.415078,0.667403,-0.016647,0.807090,-0.590194
-0.118770,-0.372023,0.547186,0.419837,0.192530,-0.886944
-0.059873,0.227545,0.599786,0.992454,0.078679,-0.094050
-0.187949,0.614302,0.597404,0.017557,-0.451532,0.892082
0.354655,0.003881,0.576985,-0.181611,0.908029,0.377493
0.313417,-0.090437,0.709567,0.770169,0.558816,-0.307513
-0.197080,0.038820,0.746378,-0.859897,0.262177,-0.437995
-0.271879,0.891389,0.221502,0.312118,0.596661,0.739309
0.565004,-0.533572,0.311674,0.454488,0.884948,0.101529
0.336495,0.367036,0.843426,0.350037,0.796941,-0.492300
-0.352898,0.615360,0.182383,0.243318,0.875617,-0.417241
0.464570,0.421033,0.697264,-0.391510,-0.920116,0.010332
0.463417,0.002734,0.496611,-0.652269,0.235445,0.720494
-0.086863,0.000440,0.438854,0.119447,-0.626425,0.770275
0.183837,0.171828,0.868069,0.949071,-0.217369,0.228066
0.341411,0.096700,0.866927,0.829765,-0.211346,-0.516549
-0.440790,0.225824,0.181376,0.343265,0.876628,-0.337184
-0.528682,0.254014,0.432322,0.515141,0.204347,0.832390
0.083352,-0.134728,0.594605,-0.511535,0.580659,0.633377
0.084055,-0.158991,0.516367,0.273866,-0.679716,0.680429
0.526174,0.390594,0.477334,0.597230,0.508344,0.620405
-0.223067,0.006528,0.502345,0.076786,0.791263,-0.606636
0.495071,-0.657139,0.328447,0.166804,0.701740,-0.692631
-0.198535,-0.313041,0.606589,0.090407,0.567129,0.818652
-0.454084,-0.460032,0.061416,0.131210,-0.100345,-0.986263
-0.461258,0.626609,0.436840,0.680514,0.542979,-0.492010
-0.322998,0.110683,0.676845,-0.338010,-0.401449,-0.851227
0.367898,0.111478,0.809133,-0.366857,0.818436,-0.442243
-0.209320,0.093038,0.276963,0.891662,-0.431617,0.136547
0.014073,0.229177,0.843389,-0.537091,-0.646737,0.541539
-0.295356,-0.104509,0.016883,-0.206284,0.366044,0.907446
-0.504402,-0.148712,0.223454,0.840683,-0.540356,-0.035609
-0.033234,0.286527,-0.981902,-0.480398,0.148735,0.864347
-0.375773,-0.290365,0.602770,0.808729,0.437477,0.393154
0.146462,0.676151,0.468641,0.274310,0.691185,-0.668594
-0.489301,-0.108348,0.430934,-0.461381,-0.406808,0.788438
-0.554117,0.134198,0.400852,0.797410,-0.521917,0.302886
0.295959,-0.363376,0.516932,-0.697549,0.037347,0.715564
0.352950,-0.280969,0.576236,-0.428764,0.502238,0.750945
0.591141,-0.640683,0.147365,0.133234,0.691876,-0.709617
-0.359018,0.502470,0.297505,0.410735,-0.029277,-0.911285
-0.215340,0.196708,0.772592,0.940132,-0.324508,-0.104142
-0.255373,0.384815,0.578582,-0.032197,-0.973474,0.226522
-0.236360,0.009396,0.760474,0.631563,0.567151,0.528648
0.177014,0.142359,-0.649882,0.333012,0.942909,0.005060
0.003638,0.057923,-0.086403,-0.874233,0.469683,0.122940
0.311361,-0.524616,0.199695,0.345671,0.749252,-0.564919
0.113955,-0.472208,0.572700,0.458748,-0.357779,0.813354
0.495824,-0.336466,0.394148,-0.575812,0.417710,0.702822
-0.137130,0.746955,0.397598,-0.655192,0.443268,0.611750
-0.726189,0.198561,0.116952,0.263429,-0.576566,-0.773419
0.127801,0.112185,0.895707,0.729120,0.655496,-0.196746
-0.648180,-0.283882,0.337680,0.963444,-0.195160,0.183544
0.079941,0.569260,0.390538,0.732798,-0.045154,-0.678947
-0.256728,0.505558,0.279714,0.205502,-0.562464,0.800877
0.554921,-0.748853,0.198750,0.872581,0.488227,0.015398
0.153686,0.480720,0.710660,0.457878,-0.463278,0.758763
0.000126,0.943400,0.465670,-0.825190,-0.006869,0.564814
0.659770,0.173151,0.438485,0.123514,0.662454,0.738850
-0.434569,0.636801,0.158367,0.863859,0.422350,-0.274531
0.158102,-0.215988,0.284748,-0.268903,0.179309,0.946330
0.216245,-0.166976,0.512769,-0.625833,0.379514,0.681397
0.180475,0.142403,-0.741344,0.673585,0.738328,-0.033995
0.269721,0.297732,0.802822,0.194145,-0.901168,0.387562
-0.484486,-0.169225,0.429927,0.092817,0.321044,0.942505
0.637747,0.149858,0.149256,-0.158240,0.763426,0.626211
0.130158,0.475163,0.767570,0.902907,-0.339086,0.264159
-0.471693,0.617698,0.423935,0.476445,0.774440,-0.416225
0.028972,0.962016,0.249325,-0.624636,0.027821,0.780420
-0.192264,0.496029,0.614324,-0.007093,-0.998198,0.059592
0.107684,0.235221,0.844580,0.013313,-0.933039,0.359530
-0.363784,-0.022235,0.442599,0.317645,-0.334344,0.887308
0.084055,0.164548,-0.005844,0.841800,-0.484552,-0.237870
0.037951,0.105434,0.810287,0.369594,0.238905,0.897956
-0.929465,0.312466,0.205503,-0.743364,0.301546,0.597059
-0.152481,-0.312688,0.080399,-0.459948,0.537518,0.706768
0.269673,0.081127,0.854010,-0.120180,-0.363892,0.923655
-0.124038,0.568687,0.374503,-0.201521,-0.680541,0.704452
-0.447965,0.567275,0.659668,-0.626599,0.589050,-0.510288
0.228987,0.156211,0.834966,-0.260718,-0.811185,-0.523455
-0.727293,0.130315,0.260216,-0.395403,-0.536845,-0.745287
0.037651,0.159696,0.633810,-0.263699,-0.964453,0.017124
0.032734,0.250000,0.834647,0.700041,0.681953,0.211855
0.257933,-0.277794,0.701439,-0.527902,0.161570,0.833795
-0.152331,0.464001,0.462379,-0.639638,0.412608,-0.648550
-0.216545,-0.393507,0.261947,0.313075,-0.799693,-0.512323
-0.205006,-0.398403,0.662738,-0.769811,-0.504548,-0.390924
0.204957,-0.290499,0.692071,0.751982,-0.387976,-0.532915
0.062131,-0.352304,0.509405,0.542103,0.645298,0.538252
-0.165023,0.077597,-0.988262,-0.221912,0.052835,0.973634
0.067701,0.151799,0.837324,0.269356,-0.001137,0.963040
0.082700,0.534895,0.658943,0.978833,0.162157,0.124863
-0.455789,0.733456,0.184740,0.792962,-0.403337,-0.456652
-0.281962,-0.208047,0.271119,-0.716300,0.028706,-0.697202
0.501494,0.145226,0.282501,-0.455763,-0.754658,0.471986
-0.054155,-0.222693,0.703981,-0.455981,0.812114,0.364077
-0.065192,0.421209,0.519633,-0.528513,0.666172,0.526203
0.052299,0.633889,0.421676,-0.533999,-0.078755,0.841809
0.522512,-0.700768,0.197817,0.999168,-0.037669,0.015618
0.466226,-0.251280,-0.081872,0.002047,-0.050524,0.998721
-0.275992,0.468854,0.391692,0.433656,-0.319844,0.842402
0.176311,0.493691,0.267276,-0.035810,-0.533204,0.845229
-0.892391,0.064055,0.384780,0.886086,0.188582,0.423424
0.385758,0.135521,0.837790,0.441266,-0.897299,-0.011788
-0.136428,-0.527925,0.169994,0.990103,-0.110217,-0.086884
-0.319086,-0.250177,0.581528,-0.478902,0.712188,-0.513265
0.789400,-0.039571,0.511750,-0.678053,-0.520126,0.519339
-0.303685,0.481075,0.271708,0.196230,-0.768743,0.608710
0.219605,0.154093,0.796744,-0.665189,0.742452,0.079300
-0.541675,0.315996,0.128726,0.354297,-0.801631,0.481519
0.391326,0.574465,0.744917,0.545114,0.542780,-0.638937
0.291343,-0.217928,0.684176,-0.097614,0.076977,0.992243
-0.108134,-0.209680,0.598460,-0.158001,0.471530,0.867580
0.481426,-0.313130,0.556591,0.664240,0.139847,-0.734321
0.049741,0.247529,0.811367,0.762297,-0.069744,0.643459
-0.244036,0.303510,0.811822,0.490951,0.869829,-0.048630
0.583867,0.419578,-0.924586,0.401974,0.016988,-0.915493
0.144104,0.090480,0.849799,0.447104,0.810579,-0.378233
-0.421476,0.625022,0.450223,-0.291808,-0.519617,0.803023
0.136279,0.676636,0.425028,0.495390,0.590062,-0.637508
-0.104873,0.296806,-0.079945,0.780816,0.566408,-0.263645
0.262397,0.279600,0.571706,-0.267242,-0.224437,0.937129
-0.561592,0.394608,0.388193,-0.040095,-0.347452,0.936840
0.190509,0.166092,-0.658538,0.307126,0.950770,0.041341
0.191814,0.280086,0.926710,-0.359362,-0.778790,-0.514144
0.392179,-0.338539,0.590872,0.813084,0.474840,-0.336780
-0.078485,-0.569570,0.604857,0.164559,0.812920,0.558642
-0.393433,0.170592,0.448418,-0.152365,0.906847,0.392955
0.611859,-0.773823,0.283766,-0.688749,0.067728,0.721829
0.153836,0.781498,0.488176,-0.307383,-0.452285,0.837230
0.495824,-0.395712,0.613673,0.270214,-0.866809,-0.419078
-0.344320,-0.311144,0.289696,-0.422801,0.412576,-0.806858
0.286377,0.164328,0.810250,0.669684,-0.133427,-0.730562
-0.123185,0.471457,0.704816,-0.570681,0.688393,-0.447703
-0.068001,0.296806,0.330608,0.137048,-0.616127,0.775632
0.151228,0.358302,0.721244,0.429115,0.445004,-0.786022
-0.169137,0.275630,0.795111,-0.131549,-0.913805,0.384259
0.263653,0.098376,0.227334,-0.196412,-0.819624,0.538181
0.324855,0.128331,0.484861,-0.026501,-0.321658,0.946485
0.175861,0.242236,0.919736,0.941515,0.130688,0.310596
-0.741891,0.199091,0.488544,-0.452122,-0.628001,-0.633404
0.634235,-0.075304,0.652105,0.088971,0.744257,0.661940
0.061931,-0.609494,0.267779,0.349995,-0.811878,0.467288
-0.390573,-0.591054,-0.060692,-0.111959,-0.228028,0.967196
0.865655,-0.009265,0.329981,-0.657695,-0.480048,0.580509
-0.115207,0.022763,0.548254,0.807577,0.353010,-0.472445
-0.459703,-0.442518,0.497041,0.513407,0.728997,0.452744
0.170443,0.022322,0.814781,0.894942,-0.425773,-0.133400
0.682996,-0.749295,0.275649,0.276570,0.959008,-0.061747
0.265810,-0.313306,0.656844,-0.503176,0.769000,0.394275
0.020143,0.081172,0.806088,0.405244,-0.847675,0.342380
-0.369804,-0.127935,0.600400,0.943449,-0.278236,0.180247
0.185041,-0.111611,0.657139,0.603934,-0.322212,0.729002
-0.593849,-0.065423,0.327489,0.549154,-0.062397,0.833388
0.144406,0.311100,-0.963619,-0.233833,0.494519,0.837122
0.559084,0.341626,-0.933292,-0.413121,0.165982,0.895422
-0.271277,-0.202885,0.584819,-0.261413,0.528789,0.807493
-0.574636,0.211399,0.249251,-0.486952,-0.314961,-0.814664
0.164172,0.857508,0.351247,0.235092,-0.006725,-0.971950
-0.272681,0.395712,-0.063553,0.760059,0.405354,0.507935
-0.120173,0.487206,0.568526,0.993872,-0.086220,0.069169
-0.422981,0.119065,0.662222,-0.624399,0.461824,-0.629956
0.313117,-0.027926,0.084623,0.815816,0.058378,0.575357
0.115711,-0.537454,0.217536,-0.438266,0.142654,-0.887453
0.153536,0.374624,0.401564,0.625492,0.355946,-0.694307
-0.015477,-0.185195,0.582314,-0.638260,0.716978,-0.280299
0.509369,-0.273690,0.561453,0.470679,0.568460,-0.674769
-0.423432,0.076628,0.468346,-0.742012,0.574599,-0.345333
0.307999,0.402814,0.679485,0.374813,0.484848,-0.790214
0.126245,0.546056,0.752885,0.886095,-0.081151,0.456345
-0.048686,0.342508,-0.161682,0.726997,0.357765,0.586071
-0.004489,0.593567,0.662087,-0.685160,-0.610172,0.397801
0.363033,-0.399110,0.530254,0.559607,-0.044583,-0.827558
-0.186495,0.661637,0.345992,0.444555,0.353675,-0.822973
0.211779,-0.577820,0.161424,0.863960,-0.067628,0.498999
0.597462,-0.001368,0.626627,-0.357143,0.807455,0.469538
0.660070,-0.133713,0.693323,0.758960,0.317775,-0.568330
0.251361,-0.067143,0.777418,-0.221170,0.895352,-0.386561
-0.419319,-0.045043,0.659373,-0.110885,-0.968606,0.222503
-0.190558,0.452091,0.262205,-0.248440,-0.817985,0.518824
-0.058168,-0.004588,0.004678,-0.177681,0.569437,0.802603
-0.306142,0.518484,0.408944,0.348019,-0.557816,0.753474
-0.012416,0.348553,0.290040,0.878426,0.297270,0.374162
-0.045225,-0.275058,0.756655,0.328025,0.786418,0.523399
-0.093636,0.423813,0.614557,0.136603,0.726422,0.673536
-0.414051,0.273954,0.651036,0.872750,0.268417,0.407750
0.299170,-0.361083,0.691211,-0.635066,0.772271,-0.016968
0.447714,-0.393728,0.451697,-0.349037,0.690642,0.633393
-0.183285,-0.153079,0.499803,0.545745,-0.241057,0.802529
0.429302,0.374934,0.600658,0.333732,0.932190,-0.140159
0.443952,-0.362273,0.606183,-0.694778,0.574928,0.432135
0.074272,0.231824,0.792410,0.266532,0.925639,-0.268614
0.536158,0.338803,0.393792,0.798615,-0.014005,-0.601679
0.450774,0.419975,0.753720,0.721159,0.620964,-0.307137
0.136529,-0.319394,0.644615,0.840257,-0.531681,-0.106219
0.071513,0.060349,0.876492,0.772241,-0.480319,0.415858
-0.448716,0.342068,0.663057,-0.670566,-0.283681,-0.685468
0.420925,-0.479708,0.568280,-0.524329,0.827686,-0.200038
-0.475104,0.454119,0.010535,-0.527057,-0.068587,-0.847058
0.069707,-0.044293,0.044755,0.830847,-0.372619,-0.413338
-0.006095,0.622771,0.686386,-0.459776,-0.832465,0.309206
0.038052,0.684710,0.417944,-0.470021,-0.164658,0.867161
0.061230,0.050643,0.824296,0.085191,-0.983204,-0.161405
0.440389,-0.538512,0.329515,0.033878,-0.339129,0.940130
0.279606,-0.214973,0.679718,-0.368932,-0.124063,0.921139
0.121680,0.530924,0.732872,0.980043,-0.079052,-0.182388
-0.080091,0.489103,0.307180,-0.730639,-0.626542,0.271313
0.176813,0.172533,0.834168,0.057185,-0.379202,0.923545
0.479369,-0.070894,0.706387,0.688779,-0.191090,-0.699334
0.330475,0.865096,0.511750,0.759175,0.006592,-0.650853
0.160710,0.123345,0.638046,-0.622687,0.724890,-0.294610
0.064641,0.594714,0.556837,0.587895,0.803673,0.092136
-0.472396,-0.087922,0.465989,0.949242,0.214790,0.229791
-0.126946,-0.071996,0.801962,-0.507079,-0.690580,-0.515723
-0.264453,-0.287410,0.283618,-0.673420,0.157468,-0.722294
0.442046,0.214619,0.628481,-0.623031,-0.593669,0.509303
0.585020,-0.514955,0.504727,0.202321,0.890907,0.406633
0.372664,-0.017382,0.679829,-0.226360,-0.176180,0.957978
0.158853,-0.417372,0.509577,0.449108,0.889353,-0.085755
0.191512,0.210825,0.314228,-0.435572,-0.134795,0.890004
0.145560,-0.203636,0.291427,-0.268903,0.179309,0.946330
-0.212682,-0.001986,0.754445,0.717930,0.274874,0.639547
0.324053,-0.708885,0.214073,-0.329278,0.267401,0.905579
-0.186244,0.451693,0.536762,0.297655,-0.072174,-0.951941
-0.203351,-0.041292,0.397304,-0.459275,0.881978,0.105742
-0.415908,0.308893,0.659901,0.766989,0.394806,0.505822
0.216646,-0.082496,0.777995,0.949671,0.272398,-0.154675
0.335742,0.344582,0.834266,-0.310177,-0.797427,0.517591
0.513383,-0.195342,0.600621,0.313148,0.842221,-0.438866
0.130709,-0.350583,0.660442,0.937043,-0.322982,-0.132787
0.102768,0.185019,0.308470,-0.681329,-0.258618,0.684768
-0.099756,0.196090,0.632717,-0.132149,-0.377843,-0.916390
-0.251260,0.557305,0.620316,0.759467,0.194476,0.620797
-0.078787,-0.082628,0.585900,0.755867,0.348989,0.553960
0.457547,-0.511647,0.448443,-0.908425,-0.240914,0.341651
0.113653,-0.199401,0.345931,0.906269,-0.417411,0.066672
-0.257279,-0.350494,0.585335,0.793449,0.218563,0.568039
-0.709384,-0.017558,0.542704,0.567612,0.720232,0.398852
0.594953,0.316790,0.675421,0.818423,0.232990,-0.525261
0.469688,-0.428005,0.046916,0.003559,0.888659,0.458555
0.628967,0.343391,0.698504,0.957433,-0.086867,-0.275273
-0.110291,0.194812,0.565309,0.937475,0.225486,-0.265135
0.439387,0.408902,0.739625,0.833236,0.221629,-0.506555
0.456745,-0.262617,0.374761,0.640511,-0.156463,-0.751841
-0.230239,-0.033617,0.776251,0.546923,0.823715,0.149566
0.104423,0.359978,0.894480,-0.600989,-0.689044,0.405006
-0.355156,0.435458,0.520161,0.661793,0.313066,-0.681189
0.225375,-0.000883,0.860984,-0.432655,0.706190,0.560452
-0.800587,0.456502,0.128113,0.466133,0.224926,-0.855645
-0.920586,0.085760,0.233130,0.418106,0.398557,0.816297
0.236813,0.160446,0.812841,-0.176599,0.983834,-0.029725
-0.458850,0.521969,0.525392,-0.279028,-0.956411,0.086142
0.497429,0.195209,0.535669,0.015664,0.831700,0.555004
0.836557,0.121977,0.502173,-0.198742,0.803078,0.561753
-0.472244,0.711751,0.470593,-0.137585,0.852977,-0.503489
0.190961,0.394653,0.727580,0.664382,0.728646,0.166347
-0.176009,0.322834,0.633331,0.338709,-0.011395,-0.940822
-0.323200,0.464487,0.176759,0.927468,0.026935,-0.372931
0.273936,0.127492,-0.200494,0.839289,0.532554,0.109453
-0.250257,-0.466473,0.290678,-0.004367,0.597015,0.802218
-0.664885,-0.009000,0.429657,-0.187325,-0.644196,0.741566
-0.112298,0.270689,0.813332,0.948197,-0.314765,0.042966
-0.005141,0.221457,0.830681,0.479204,0.877700,-0.002461
-0.302731,0.438459,0.397463,0.016785,-0.523812,0.851668
0.498934,0.084436,0.495764,-0.205004,0.509551,0.835662
0.563349,-0.337921,-0.090344,0.055210,-0.164243,0.984874
-0.436175,0.572083,0.443814,0.880872,0.351787,-0.316718
0.550605,0.242676,0.826715,0.476415,0.747135,-0.463485
0.417615,0.202752,0.702777,-0.387486,0.867199,-0.312762
-0.071211,0.392800,0.636241,0.001670,0.226323,0.974051
-0.305690,0.374978,0.291440,0.264886,0.913579,0.308559
0.337247,0.754323,0.494868,0.156665,-0.756524,0.634924
-0.695738,0.051835,0.343463,0.849772,-0.323117,0.416512
-0.212782,0.763279,0.236911,-0.058385,0.064116,0.996233
0.447414,0.203723,0.753806,0.712718,-0.690333,0.124389
0.159957,0.765749,0.334193,0.461581,0.405925,-0.788776
0.580807,0.214619,0.480035,-0.274225,0.124353,0.953591
-0.389870,0.405373,0.387751,0.313063,0.696792,-0.645346
0.149824,0.062511,0.322737,0.976808,0.150045,-0.152750
-0.199738,0.268440,0.629021,0.529757,-0.413514,-0.740516
0.644318,-0.381993,0.441850,0.012962,-0.832149,0.554400
-0.203651,0.272189,0.530008,0.728366,-0.316155,0.607889
-0.411241,-0.046674,0.543686,-0.054545,0.841816,0.537001
-0.325307,-0.361744,0.347441,0.819634,0.287064,0.495776
-0.387262,0.763984,0.454300,-0.683213,0.708152,-0.178161
0.801190,0.225824,0.418619,0.000726,-0.948702,0.316170
0.502646,-0.800909,0.142012,0.346504,0.919566,-0.185293
-0.519150,0.218678,0.502849,-0.318040,0.338466,-0.885602
-0.126946,-0.196313,0.682886,0.788358,-0.253634,0.560501
0.083753,0.149638,0.884325,0.190668,-0.010043,0.981603
-0.708580,0.186827,0.250454,0.065789,0.378164,0.923398
-0.081396,-0.377758,0.433353,0.872224,-0.222897,-0.435363
0.188903,-0.302541,0.690364,0.728441,-0.175719,-0.662190
-0.629467,0.064716,0.469427,0.197080,0.979912,-0.030540
0.118820,0.353979,0.693225,0.803372,-0.292725,-0.518561
0.706726,-0.566438,0.312644,-0.309674,0.575927,-0.756578
0.067049,-0.194989,0.656844,-0.348458,-0.913674,0.209228
0.482278,0.405063,0.463631,0.413872,-0.547980,0.726930
-0.001229,0.002029,-0.230146,-0.194555,0.964321,-0.179536
0.057918,0.067539,0.922634,0.262753,0.901520,0.343835
-0.224572,-0.031720,0.778572,0.385920,0.876453,0.287918
0.171545,-0.455091,0.304921,0.801947,0.361153,-0.475867
0.357965,-0.315114,0.515090,0.878554,0.451202,0.156712
0.158252,0.288777,0.778952,0.691612,0.293729,-0.659846
0.017583,-0.081216,0.191702,0.981117,-0.147965,0.124563
-0.718814,0.265528,0.248834,0.215356,0.248205,0.944466
0.044222,0.053997,0.849430,-0.427582,0.299167,0.853037
0.438785,0.582804,0.660085,-0.655832,-0.534569,0.533030
-0.213485,0.517778,0.651441,-0.377314,0.585870,-0.717210
-0.489752,0.645315,0.440524,-0.713327,-0.341984,0.611729
0.445256,-0.505383,0.469402,0.944242,-0.191206,-0.268044
0.101964,-0.312599,0.252173,0.715436,0.697914,0.032676
-0.415355,-0.043101,0.627855,0.817680,0.567711,-0.095409
-0.798379,0.265749,0.242314,0.770554,-0.443427,-0.457842
0.311663,-0.357685,0.025699,-0.344854,-0.138716,-0.928350
-0.178768,0.118846,0.768896,0.748537,0.398809,-0.529758
0.509721,0.182370,0.694219,0.660247,0.355035,-0.661834
0.318284,-0.801218,0.131170,-0.551554,0.790780,0.265434
0.217699,0.093214,0.849357,0.257685,0.428351,-0.866091
0.373968,-0.124891,0.629905,0.767278,0.252402,0.589557
-0.332481,0.814716,0.337005,-0.394398,0.632503,-0.666626
0.005193,-0.298571,0.434311,-0.566219,0.810481,-0.150055
-0.211929,0.214133,-0.989539,-0.295301,0.026681,0.955032
-0.261794,-0.442210,0.102291,-0.470759,0.558326,0.683124
0.111145,0.116022,0.525367,0.821825,0.556585,0.121724
-0.523916,-0.259354,0.440155,-0.066677,0.870978,0.486777
-0.412947,0.227766,0.683439,0.806325,0.448909,0.385124
-0.486894,-0.285337,0.452949,0.318922,0.767986,0.555415
-0.470037,-0.243603,0.436975,-0.116732,0.666581,0.736236
-0.246042,0.678886,0.221219,-0.458650,-0.133497,0.878532
-0.169287,-0.047998,0.790580,0.611678,0.766112,0.197290
0.025209,0.553159,0.380900,-0.618843,-0.578383,0.531513
0.482329,0.437841,-0.944453,-0.405451,0.206310,0.890531
0.042618,0.227501,0.818415,-0.321833,0.930748,0.173585
0.115259,0.461354,0.555412,0.807258,0.332619,-0.487544
0.293501,-0.195474,0.396407,0.294677,-0.675792,-0.675626
-0.078886,-0.371229,0.633503,-0.443653,0.853726,0.272625
0.038202,0.500044,0.728844,-0.471578,0.859596,0.196744
0.419470,-0.094098,0.411890,-0.258166,-0.269478,0.927756
-0.041713,0.193091,0.779640,-0.545669,0.833594,0.085831
0.067249,0.315907,0.884313,-0.375843,0.627878,-0.681551
-0.020994,0.232662,0.744327,0.009855,-0.971484,0.236899
0.363284,-0.430166,0.539193,-0.269151,0.346114,-0.898756
-0.380539,-0.035380,0.246452,-0.541523,0.781109,-0.310839
0.322900,-0.451386,0.541587,-0.261852,-0.927053,0.268341
-0.082198,0.056113,0.622329,0.843674,-0.313085,0.436109
-0.580605,-0.035248,0.529358,0.651305,0.153228,0.743184
-0.280507,0.368493,0.776104,0.587265,0.806218,0.071639
0.409136,-0.628728,0.330264,-0.216769,0.363998,0.905824
-0.294052,-0.139448,0.547284,0.081006,-0.626456,-0.775236
0.048085,0.105787,0.967892,0.685639,-0.660503,-0.305997
-0.069204,-0.403300,0.409066,0.803112,-0.586192,-0.106726
-0.046831,-0.019323,0.630384,-0.667576,-0.693742,0.270305
0.086463,0.629035,0.429903,-0.517967,-0.274647,0.810111
0.733916,-0.001941,0.523906,0.662388,-0.501722,0.556342
0.299121,-0.354288,0.374540,-0.872553,-0.002254,-0.488514
0.116262,0.140594,-0.527946,0.438527,0.898708,-0.004281
0.356812,0.288512,0.237844,0.446041,0.498094,-0.743606
-0.688714,0.132036,0.189529,0.527535,0.208684,0.823504
-0.252714,0.196400,0.439124,-0.488932,0.542560,-0.683063
0.278552,-0.099656,0.764759,0.353011,0.299708,-0.886317
-0.170140,0.571642,0.597011,-0.189906,0.452992,-0.871053
0.726039,0.026910,0.484455,0.725040,0.338568,-0.599740
0.001882,-0.296850,0.227936,-0.060400,0.807889,0.586231
0.066346,-0.230017,0.453293,-0.003575,-0.906672,0.421822
0.522563,-0.691107,0.183770,0.861514,0.000466,-0.507733
-0.408482,0.329274,0.118437,0.050934,-0.941285,0.333749
0.100560,0.112669,-0.968383,0.476643,0.333627,-0.813329
-0.180725,0.598774,0.334021,0.238056,-0.468260,0.850918
-0.351644,0.024352,0.638574,-0.717144,0.248613,-0.651072
-0.484085,-0.379831,0.300317,-0.065567,-0.504403,0.860975
0.062885,-0.534587,0.545148,0.255428,0.898456,0.357119
-0.119321,-0.178799,0.676023,0.710349,-0.357450,0.606329
-0.189856,0.155946,0.784895,-0.517267,-0.765601,-0.382478
-0.069656,0.682724,0.232147,-0.026854,-0.078793,0.996529
-0.752727,0.121669,0.362163,-0.103640,0.546146,-0.831254
-0.592745,0.384242,0.388623,-0.089072,-0.298553,0.950228
0.054607,0.051746,0.693679,0.204830,0.032152,0.978269
0.237766,0.820539,0.494450,-0.751157,0.649711,0.116783
-0.297363,-0.424431,0.566193,0.979981,0.124129,0.155658
0.208117,0.907182,0.348460,-0.303791,-0.344789,-0.888162
0.303986,-0.156654,0.536958,-0.743787,-0.547429,-0.383540
-0.058520,-0.225252,0.458732,-0.495873,-0.864576,0.081350
-0.428097,0.074113,0.719979,-0.329278,-0.937493,-0.112621
0.158803,0.163578,0.523710,0.620598,-0.729359,0.287911
0.872727,-0.077069,0.468162,-0.375606,-0.879071,-0.293521
-0.703062,0.074731,0.203858,-0.190894,0.288272,-0.938327
0.067199,0.088759,0.905653,-0.496563,0.770478,-0.399737
0.291244,0.338803,0.676281,0.988789,-0.027085,-0.146842
-0.231896,0.405416,0.282832,-0.419379,-0.528657,-0.737999
0.207165,-0.597981,0.515999,-0.726808,0.686244,0.028623
-0.002834,0.297511,0.832204,-0.625610,0.436491,0.646597
-0.330072,0.513454,0.413536,-0.284175,0.639403,-0.714429
0.341862,0.461707,0.209015,-0.183144,0.978053,-0.099350
0.351945,-0.424652,-0.082719,-0.494289,-0.702439,0.512111
-0.220659,0.284144,0.810238,-0.542407,-0.836777,0.074826
0.242181,0.273689,0.781420,-0.543400,0.797043,0.263513
0.187850,0.003484,0.825291,-0.671696,0.076313,0.736886
0.029624,0.212370,0.919319,0.798585,0.169913,0.577401
0.283118,-0.094583,0.806775,0.219861,0.833207,0.507373
0.500139,-0.508470,0.110137,-0.838119,0.529275,0.132003
-0.699550,-0.034014,0.325561,0.766694,0.509792,0.390247
0.089874,-0.320673,0.415377,0.220022,0.223402,-0.949569
-0.495723,0.754676,0.155948,0.942016,0.022078,-0.334840
0.088069,0.088009,0.884424,-0.762099,0.459675,0.455966
0.425942,0.114479,0.243640,-0.310280,-0.850956,0.423793
-0.443098,-0.174431,0.057954,-0.162567,0.394236,0.904516
-0.123134,-0.033660,0.676882,0.971084,-0.061636,-0.230645
0.188403,-0.349127,0.174697,0.928545,-0.359894,-0.091000
-0.337948,0.394344,0.383147,-0.125269,-0.642466,0.756006
0.362230,0.386359,0.473859,-0.010550,0.097388,0.995191
-0.249805,0.798481,0.377646,0.599733,0.613578,-0.513655
0.074223,-0.515220,0.469660,0.943428,0.150804,-0.295299
0.126496,0.057260,0.855852,0.890553,0.266001,0.368997
-0.283167,0.534498,0.406648,0.406744,-0.539518,0.737211
-0.180625,0.001235,0.752136,-0.518281,0.727860,-0.449004
-0.135275,0.377491,-0.274360,0.414571,0.860181,0.297017
0.066346,0.172710,-0.001019,0.841800,-0.484552,-0.237870
-0.420321,0.019543,0.620304,0.286363,-0.233831,0.929150
0.251612,0.607685,0.636044,-0.220817,-0.421878,0.879351
-0.245542,0.486324,0.528916,-0.447569,0.660277,-0.603089
-0.286878,0.252294,0.463656,0.250462,-0.645058,0.721920
0.145609,0.307438,0.391975,-0.263170,-0.407422,0.874499
0.498583,0.331877,-0.942721,-0.387163,0.277192,0.879357
0.004841,-0.226663,0.403689,-0.594221,0.354880,-0.721776
0.252766,-0.189519,0.681634,0.608493,-0.171392,-0.774830
0.118218,0.151755,-0.286368,-0.581238,0.806128,0.110997
0.282565,0.005426,0.865097,0.854247,-0.514645,-0.073509
-0.091580,0.017999,0.430455,0.744004,0.015170,-0.668003
0.276043,-0.319967,0.456436,0.557485,0.653841,0.511569
0.334137,-0.279999,0.689836,-0.426792,0.735578,0.526092
0.423985,0.508823,0.710194,-0.389784,0.779343,-0.490604
0.284872,0.244970,0.695165,0.456390,0.023702,0.889464
-0.325959,0.048570,0.575316,0.224446,-0.780819,0.583048
0.286377,0.301040,0.660343,0.856798,0.149233,0.493585
-0.362830,-0.238002,0.280193,-0.060612,0.801921,0.594347
0.013822,0.123390,0.387751,-0.178497,-0.090762,0.979745
-0.331727,0.376478,0.129463,-0.168190,-0.760745,0.626881
-0.680588,0.001632,0.367713,0.809211,0.584590,0.058584
-0.134422,0.032513,0.790691,0.669887,0.033009,0.741729
0.205409,-0.292307,0.404904,0.016000,0.633495,0.773582
-0.114154,0.438194,0.700530,-0.377699,-0.898407,0.224071
-0.450523,-0.069658,0.657961,0.319263,-0.705426,0.632808
-0.378433,0.258866,0.551459,0.870196,-0.371490,0.323657
0.458851,0.350185,0.361156,0.815877,-0.449538,-0.363675
-0.347228,-0.279160,0.596017,0.340292,0.257107,0.904488
0.646325,0.041467,0.525134,-0.562317,0.052150,0.825275
0.228485,-0.064585,0.748207,-0.484373,0.865436,-0.128071
-0.284319,0.242720,0.650115,0.065262,0.569650,0.819292
-0.390071,0.538512,0.639814,-0.766946,0.229428,-0.599297
0.647228,0.057834,0.488753,-0.202122,-0.952286,-0.228688
-0.372613,-0.024043,0.553632,-0.269489,0.550667,-0.790027
-0.173150,0.322481,0.524041,-0.426433,-0.886349,0.180388
-0.276393,0.101993,0.600572,0.894795,-0.148127,0.421188
-0.298066,-0.025322,0.495936,-0.016625,0.693423,0.720339
0.019791,0.635257,0.687086,-0.459776,-0.832465,0.309206
0.434872,0.520513,0.713938,-0.697751,0.657748,-0.283745
0.249957,-0.044469,-0.216799,0.919465,0.383661,-0.085958
0.106882,0.161284,0.308384,-0.710250,-0.360037,0.604912
0.415207,0.254014,0.631649,-0.367137,-0.320102,0.873353
-0.223618,0.628286,0.399428,0.466181,-0.506605,0.725277
0.096698,0.582054,0.767263,0.940182,0.287266,-0.183127
-0.650186,0.265175,0.073191,0.677640,0.653510,-0.337237
-0.530489,0.389138,0.008030,-0.622476,0.088735,-0.777592
-0.084957,-0.025146,0.780463,0.885437,0.052466,0.461788
-0.378583,-0.408242,0.352119,0.063708,0.388355,0.919305
0.114907,0.156563,0.974743,-0.570068,0.639208,-0.516173
-0.167180,0.541202,0.695951,0.666573,0.744329,0.040669
-0.111745,0.120433,0.777086,0.478034,-0.686463,0.547952
0.796173,-0.606715,0.197620,0.399664,0.768297,-0.499989
0.157499,0.014866,0.848976,0.560714,0.770115,0.304175
0.206361,0.561981,0.449450,-0.278598,-0.586948,0.760182
0.344271,0.109449,0.074689,-0.532136,-0.664061,0.525218
0.693733,0.212236,-0.912296,-0.404581,0.014154,0.914393
0.104372,0.499118,0.777454,0.976527,0.088161,0.196529
-0.086311,0.261910,-0.049850,0.670386,0.632841,0.387421
-0.580906,0.220045,0.053374,-0.350556,-0.820511,0.451523
0.156396,-0.168652,0.707406,0.941314,0.312819,-0.126778
-0.324152,0.616772,0.611967,0.231766,0.603207,0.763168
-0.062683,0.298879,0.863071,0.477217,-0.689181,0.545246
0.170492,0.114698,-0.954165,0.268602,0.511575,-0.816177
-0.111796,-0.520338,0.573940,0.099860,-0.881149,-0.462173
-0.189304,0.699091,0.355201,-0.180443,-0.656782,0.732173
-0.297914,0.432680,0.597147,-0.382453,0.920664,0.078145
0.223620,0.159696,-0.945975,-0.222305,-0.192396,0.955806
0.006899,-0.144433,0.201562,0.994166,-0.089908,0.059591
0.659318,-0.253795,0.295049,0.944375,-0.256856,0.205379
0.246696,0.135697,0.798843,0.807038,-0.565848,-0.168838
0.118018,0.449399,0.748539,0.968225,-0.055957,-0.243739
0.321595,-0.063438,0.549138,0.356967,0.671843,-0.649000
-0.242380,0.596435,0.638218,-0.691698,0.351813,0.630699
-0.466475,-0.145094,0.314609,0.927711,0.182016,0.325919
0.650990,0.014160,0.508448,0.531246,-0.062154,-0.844934
-0.276243,0.878286,0.211765,0.563830,-0.754656,-0.335546
0.261044,0.171960,0.616878,-0.397681,0.618118,-0.678071
0.380992,0.652505,0.653443,0.293007,0.800429,0.522934
0.213034,-0.126346,0.532501,-0.307808,-0.884432,0.350762
-0.468532,-0.527660,0.062595,-0.220499,-0.037157,0.974679
0.338652,0.154755,0.342039,-0.248968,-0.219953,0.943205
0.209522,-0.124494,0.788124,0.824303,-0.426117,-0.372760
-0.506709,-0.200371,0.339043,-0.090415,0.906198,0.413074
0.252416,0.104993,-0.942795,-0.152299,-0.434214,0.887842
-0.068001,-0.173064,0.064584,-0.535488,0.654318,0.533967
0.377480,-0.351421,0.438007,0.462979,0.105441,-0.880076
-0.808914,0.159476,0.383159,0.718141,-0.600888,0.351010
-0.029572,0.257896,0.782157,-0.142638,-0.039295,-0.988995
-0.549803,0.341495,0.048635,0.991237,-0.093980,0.092823
0.376326,-0.152550,0.835114,-0.677901,-0.674395,-0.292648
-0.049539,-0.127581,0.524360,-0.763073,-0.491385,0.419833
0.199237,0.131462,0.873729,-0.306836,-0.878091,-0.367162
0.320291,0.481868,0.697031,0.443472,0.683600,-0.579676
0.418216,-0.758029,0.129733,-0.337875,-0.026810,0.940809
0.007901,0.169402,-0.972460,-0.225195,0.047398,0.973160
0.684100,-0.151448,0.681941,0.792266,0.072756,-0.605822
0.182031,0.262396,0.770271,-0.008864,-0.632398,0.774593
0.061730,0.226927,0.749398,0.557552,0.693621,-0.456098
0.612913,-0.468149,0.453269,0.584429,0.373271,0.720494
-0.117064,0.272675,0.462846,-0.568753,-0.536122,-0.623773
0.167030,-0.102126,0.757870,0.944282,-0.300690,0.133852
0.308853,-0.407095,0.538063,-0.572890,0.680460,0.456916
0.026013,0.678356,0.475357,0.341649,-0.258695,0.903522
-0.414051,0.164240,0.665267,-0.795626,0.356821,-0.489549
0.175509,0.107199,0.655899,0.933655,0.327756,-0.144447
0.188151,0.124448,0.362838,0.797294,-0.589263,0.130733
-0.189555,-0.317673,0.077833,-0.508841,0.475698,0.717491
-0.131662,0.642534,0.227592,-0.204942,-0.382840,0.900795
0.147065,-0.300821,0.664653,0.840565,-0.337145,-0.424009
0.552864,-0.867346,0.245297,0.358559,0.826637,0.433713
-0.248450,-0.084878,0.624994,0.219342,0.971772,0.086881
-0.109740,-0.000707,0.565235,0.952670,-0.302226,0.032841
0.480524,0.183783,0.810790,0.638845,0.329710,-0.695104
0.147215,-0.049674,0.702249,-0.037512,-0.620927,0.782970
0.110593,0.008470,0.254457,0.792137,-0.148494,-0.592004
-0.475205,0.208134,0.413118,-0.071553,-0.945223,0.318488
0.261595,-0.071599,0.860481,0.979169,0.192923,-0.063309
0.572831,-0.076540,0.231582,0.386258,0.329816,-0.861409
0.266260,0.788644,0.506250,-0.719244,0.006532,0.694726
-0.371510,0.221104,0.747409,-0.629832,0.639059,0.441492
-0.501040,-0.155241,0.269363,0.669032,0.699865,0.250170
0.252114,0.557172,0.683267,0.686267,-0.441599,-0.577952
-0.039957,-0.320365,0.271094,-0.639191,0.399184,-0.657334
-0.775503,0.273513,0.194821,-0.029487,0.947333,0.318889
0.025259,0.010367,0.216247,-0.368695,0.801403,-0.470976
0.410390,-0.473752,0.201304,-0.031474,0.223347,0.974231
-0.510021,-0.028676,0.677079,0.722018,-0.691874,0.000266
0.353400,0.123698,0.748527,0.059027,0.638088,0.767697
0.389169,-0.072437,0.693470,0.514750,0.115621,-0.849508
0.082499,0.605875,0.765815,0.753416,0.595663,-0.278478
0.108988,0.049011,0.830276,0.614973,0.506322,-0.604521
0.621191,-0.825260,0.259430,0.659703,0.423843,-0.620604
0.086413,0.494574,0.414408,0.766840,0.243177,-0.593988
-0.070610,0.731074,0.410663,0.324550,-0.104965,-0.940026
-0.616073,0.182370,0.439824,0.943284,0.072116,0.324059
-0.791707,0.072216,0.364201,-0.564310,0.164430,-0.809023
-0.203551,-0.074025,0.808236,-0.690184,-0.573108,-0.441807
-0.098703,0.278233,0.735585,-0.315647,0.029828,0.948408
-0.608548,0.679151,0.309292,0.107742,-0.668661,0.735720
0.066146,0.193973,0.797824,0.288299,0.257312,0.922320
-0.048486,0.626036,0.230514,-0.128470,-0.329956,0.935214
-0.285423,0.594362,0.181671,0.482655,0.643961,-0.593598
0.427848,0.457958,0.646137,0.981980,-0.183530,-0.045080
0.309303,-0.118846,0.809415,-0.212919,0.651860,0.727835
0.090176,0.485618,0.723921,-0.297243,0.401027,-0.866501
0.409236,0.509881,0.691002,0.806216,-0.591474,-0.013240
-0.671508,0.048085,0.374085,0.908955,-0.060444,0.412490
-0.066496,-0.163668,0.187122,0.867744,-0.466583,-0.171230
0.167281,0.136447,0.396186,0.403808,-0.914798,-0.009154
-0.530288,0.448165,0.147070,0.381936,-0.348015,0.856160
-0.210123,-0.310968,0.612396,0.073369,0.515794,0.853565
0.570722,0.174695,-0.933488,-0.096381,-0.190106,0.977021
0.137533,0.059819,0.580067,0.780362,-0.374610,0.500702
-0.578046,0.079583,0.467953,0.455258,0.866359,0.205333
-0.414804,-0.147741,0.427435,0.492978,0.446130,0.746954
0.277398,0.457076,0.601616,0.788529,0.535083,0.303164
0.237365,-0.171653,0.784883,0.434629,-0.365177,0.823252
-0.141044,-0.132566,-0.069090,0.159067,0.312844,0.936390
0.564502,0.129433,0.638377,0.895709,-0.385400,-0.221747
0.860036,0.375463,-0.913548,-0.222856,-0.093303,0.970376
0.085661,0.285425,0.616424,0.796040,0.242440,0.554566
-0.139338,0.646196,0.229225,-0.182883,-0.296815,0.937259
0.142048,0.791335,0.483535,0.392441,0.675828,-0.623896
-0.318985,0.541291,0.419785,0.330746,-0.582131,0.742785
0.096998,0.380580,0.674328,-0.687440,-0.652847,-0.318145
0.280758,0.002558,0.844912,-0.810891,0.518786,-0.270770
-0.361275,0.229353,0.668103,0.788710,0.194384,0.583225
0.116663,0.319701,0.835617,0.099729,0.453766,0.885523
0.294053,0.303731,0.802122,0.075231,-0.896412,0.436790
0.530691,0.413974,0.419687,-0.667819,0.696401,0.262760
-0.259388,0.238088,0.717855,-0.190053,0.869956,-0.455034
-0.651089,0.291689,0.451562,0.855203,0.315981,0.410833
0.106630,-0.023822,0.668165,0.868888,0.092359,0.486316
-0.414101,-0.022852,0.646371,0.389564,-0.050838,0.919595
0.293201,-0.179637,0.686865,0.564226,0.274901,-0.778511
0.571626,-0.200812,0.635467,0.931989,0.196540,-0.304581
0.367799,-0.182858,-0.241700,0.855139,0.505663,-0.114205
0.148920,-0.107201,0.533655,0.388624,0.728976,-0.563529
0.066697,-0.061276,0.539819,0.264839,0.425446,-0.865365
-0.248351,0.318333,0.822970,0.423541,0.904687,-0.046412
0.090676,0.606714,0.410773,-0.520059,-0.732973,0.438508
-0.508164,0.440577,0.234959,0.842778,0.073127,-0.533271
0.052249,0.174916,-0.965142,-0.694924,-0.311939,0.647900
0.527881,0.351067,0.589804,0.782884,0.589340,-0.199429
-0.843729,0.173504,0.242412,-0.578054,0.200764,0.790916
0.113904,0.104729,0.173162,0.990282,-0.040274,-0.133116
0.172499,0.220089,0.933623,0.220449,0.471241,0.854011
-0.546091,-0.252338,0.434556,-0.327647,-0.279016,0.902661
0.138386,0.119375,-0.427644,-0.196217,0.980457,-0.014250
0.309254,-0.664417,0.271929,0.750707,0.654446,0.090217
-0.399955,0.080201,0.702409,-0.624734,-0.722000,-0.297363
-0.122983,0.031674,-0.984787,-0.215292,-0.036606,0.975863
0.333434,0.451209,0.688436,-0.510434,-0.721586,0.467730
-0.193819,0.568863,0.561797,-0.634862,0.424345,0.645664
-0.120023,0.259881,0.581467,0.945724,0.309230,0.099912
0.404772,0.458928,0.691715,-0.667290,-0.618300,0.415247
0.415006,-0.473090,0.042225,0.089622,0.902246,0.421807
0.185442,-0.367038,0.233240,0.797193,-0.144305,0.586225
-0.923646,0.232310,0.214761,0.437046,0.122784,-0.891019
-0.376225,-0.040189,0.429768,-0.694646,0.579070,-0.426785
-0.342162,-0.301924,0.598853,-0.624327,-0.707916,-0.330259
0.039608,0.215898,0.761100,-0.434104,0.801121,0.412018
0.055510,0.423372,0.691383,0.364476,0.875321,-0.317759
-0.190558,-0.349657,0.533974,0.154508,-0.339654,0.927773
-0.013269,0.302232,0.822172,0.908308,-0.128010,0.398234
-0.359118,-0.018000,-0.986076,-0.206921,0.158030,0.965510
0.203602,0.219825,0.878088,-0.708518,0.560449,-0.428834
0.296312,-0.093039,0.552834,-0.609361,0.226829,-0.759755
0.009758,0.668564,0.700960,0.598511,0.774583,-0.204466
-0.026412,0.204164,0.757809,0.427571,-0.445416,-0.786631
0.645020,0.087612,0.510351,-0.670307,0.567008,0.478739
0.031129,0.147961,0.276349,0.293804,0.742504,-0.601969
-0.186746,0.748455,0.233252,0.013620,-0.246163,0.969133
-0.005192,0.485661,0.706940,0.144184,-0.864169,0.482102
-0.089171,0.311540,0.230183,-0.201408,-0.642026,0.739755
0.023905,-0.154491,0.391140,0.932463,-0.226254,0.281643
0.771993,-0.684004,0.154167,0.496781,0.619975,-0.607322
0.411192,0.594626,0.668914,0.195127,0.934672,0.297175
-0.484285,-0.267867,0.065714,0.363167,-0.147080,-0.920042
-0.741891,0.378639,0.033238,-0.633805,0.770139,0.071947
-0.180024,0.471148,0.135713,0.324865,0.734035,-0.596369
0.490105,-0.477943,0.389347,0.397874,0.612535,-0.683006
-0.324954,-0.223046,0.572516,0.165665,0.732501,0.660301
0.496928,0.465369,0.664027,0.780366,-0.315044,-0.540163
-0.065943,0.341406,0.623656,0.359140,0.241053,0.901616
-0.006496,0.224809,0.765606,-0.144980,0.976703,0.158214
0.778213,0.277880,0.423911,0.238275,0.705965,-0.666962
0.481024,-0.519279,0.235683,0.511366,0.854941,0.087070
0.386461,0.177518,0.575672,0.955077,0.064644,0.289223
0.386310,0.073584,0.559255,0.036513,0.562859,0.825746
-0.307647,0.540100,0.669945,0.900287,-0.391358,0.190584
-0.105124,0.281056,0.802637,-0.122880,-0.974328,-0.188640
0.492865,-0.532116,0.328508,0.083482,-0.944273,0.318402
-0.160207,0.697062,0.356011,0.329373,0.114785,0.937197
-0.172949,0.295702,0.842628,-0.276791,-0.940287,0.198111
0.429905,0.185238,-0.941923,0.515637,-0.060815,-0.854646
0.624602,-0.077908,0.473602,0.784325,-0.528060,-0.325556
-0.366594,0.737339,0.442586,-0.728297,0.348988,-0.589738
0.214740,-0.162741,0.744413,0.343564,0.681035,0.646650
-0.196227,0.313746,0.604047,0.611021,-0.568724,-0.550641
