0.313829,0.360521,0.296278,-0.889992,0.444079,0.103476
-0.427834,-0.815963,0.419474,0.662444,0.371096,-0.650735
-0.554639,-0.102476,-0.105254,-0.686792,-0.516775,0.511136
-0.331961,-0.843872,0.340308,0.962460,-0.045013,0.267666
0.199934,0.315612,0.754655,0.805144,0.409891,0.428640
-0.430306,0.216984,0.710940,-0.435268,0.821567,-0.368197
0.786218,0.462927,0.387371,0.604943,-0.398754,-0.689231
0.069611,0.160884,0.869678,-0.051735,-0.691897,0.720140
0.167738,-0.348769,0.843838,0.968090,0.041620,-0.247121
-0.766111,-0.437955,0.303261,0.480094,0.443748,0.756702
0.461294,0.145076,0.572706,0.533632,0.154297,-0.831522
0.023955,-0.865417,0.204820,0.854609,-0.111504,0.507160
0.118178,0.367445,0.471741,0.909501,0.397381,-0.122050
0.478380,-0.276860,0.646407,-0.609440,0.035281,0.792046
0.120928,0.124371,0.960822,0.919884,-0.349899,-0.177154
0.507883,-0.091914,0.591602,-0.207879,-0.750402,0.627441
0.424098,-0.156198,0.585888,-0.277526,-0.600151,0.750199
0.340696,-0.129896,0.381028,-0.357852,0.097034,0.928723
0.729904,-0.409695,0.445196,-0.684966,-0.466998,-0.559227
0.309104,-0.584919,0.486139,0.436240,0.232109,-0.869379
-0.430470,-0.189774,0.681164,-0.558782,-0.499372,-0.662111
-0.347400,0.587367,0.335692,-0.026264,-0.524557,0.850970
-0.170539,-0.237129,0.060506,0.848149,-0.529118,0.026015
0.287951,0.789591,0.616095,0.696423,0.335133,-0.634571
0.488930,-0.013780,0.407535,0.706018,-0.016999,-0.707990
0.611063,0.650042,0.763979,0.034465,0.384130,0.922636
0.214273,-0.295048,0.839614,0.639530,-0.355887,-0.681430
-0.305861,0.244894,0.694843,0.486579,-0.214970,0.846776
-0.229437,-0.709499,0.215621,0.426931,0.320516,0.845577
-0.014341,0.077854,0.879995,-0.719391,0.588934,-0.368284
0.608263,0.481114,0.379564,0.637510,0.689567,-0.343624
0.775782,0.542739,0.833468,0.035966,0.997910,0.053689
-0.253394,0.262241,0.427451,-0.487026,-0.084009,-0.869338
-0.141914,-0.517487,0.539282,0.821844,0.478779,0.308775
-0.210045,-0.692991,0.615428,0.842021,-0.467812,-0.268611
0.842588,0.554560,0.499595,0.932386,0.027880,0.360387
0.285754,0.136402,0.856000,0.655670,0.697561,-0.288973
0.211856,-0.220341,0.851213,0.742006,-0.105757,-0.661999
-0.607935,-0.531757,0.269772,0.738116,-0.212298,0.640402
-0.058622,-0.766718,0.432603,0.088532,0.587079,0.804674
0.240205,-0.286024,0.850076,0.971661,-0.236178,0.009693
-0.256305,0.429561,0.725037,-0.709827,0.563662,-0.422411
0.200098,0.633604,-0.955722,-0.136094,-0.120743,0.983310
-0.869127,0.102546,0.178641,0.817085,-0.433052,0.380576
0.731937,0.623391,0.677974,0.204572,0.198980,0.958414
0.569639,-0.315613,0.556021,-0.016523,-0.711587,0.702403
0.094336,-0.142208,0.095159,0.985691,0.157401,0.060320
0.125432,-0.376399,0.770726,0.644403,-0.749949,-0.149404
0.802757,0.510912,0.632807,0.542710,0.807591,0.230789
-0.182299,0.133464,0.863440,-0.288902,-0.931434,-0.221283
-0.026537,-0.765109,0.259977,-0.486343,0.711944,0.506563
-0.488930,-0.812465,0.416741,0.330504,-0.918867,0.215524
-0.298829,0.605414,0.338294,-0.314283,0.602676,-0.733490
-0.131750,0.080022,0.848062,0.626695,-0.196919,0.753973
-0.022087,-0.401301,0.639934,-0.790799,0.608739,-0.063827
-0.064226,-0.730904,0.712561,0.713786,-0.675195,-0.186068
-0.435141,0.760773,0.626478,-0.053400,0.843084,0.535124
-0.202295,0.368355,0.816181,0.044876,-0.946231,0.320364
0.102686,0.205442,0.706991,0.089227,0.171891,0.981067
0.076040,-0.387101,0.644432,-0.566662,0.691830,0.447511
-0.111479,-0.457960,0.583547,0.762213,0.490985,-0.421859
-0.138343,-0.725588,0.706729,-0.169125,0.976031,0.136970
-0.224273,-0.784206,-0.118854,-0.410863,0.907547,-0.086895
-0.693148,0.940963,0.528272,-0.543848,0.097242,-0.833531
-0.752815,0.783996,0.248104,-0.240861,-0.130158,-0.961793
0.077140,0.068341,0.963163,-0.381777,-0.919412,0.094487
-0.453327,-0.205512,0.692541,0.848711,-0.193211,0.492300
-0.576121,-0.033436,0.582749,0.833965,0.520107,-0.184367
0.159828,0.158366,-0.136194,0.516996,-0.855988,0.000421
-0.208999,0.132135,0.675175,0.153311,-0.629413,0.761797
-0.014998,0.142348,0.784902,-0.208174,-0.213213,-0.954570
0.680291,-0.212717,0.665708,-0.523249,0.603495,0.601668
-0.651116,0.882834,0.526859,0.323197,0.550889,0.769458
-0.409756,0.518327,0.426352,0.083740,0.703077,-0.706166
0.459041,-0.204603,0.697746,-0.288848,0.862458,-0.415613
-0.224548,-0.495873,0.439023,-0.585775,-0.809158,-0.046164
0.042087,-0.482373,0.488937,0.737817,0.285738,0.611538
-0.049944,0.572118,0.501412,0.995878,0.061600,0.066576
0.405910,-0.186836,0.680053,0.674743,0.643375,-0.361649
-0.073951,0.282807,0.347670,0.712928,0.607823,0.349692
0.071865,0.117795,0.966040,-0.095705,-0.973086,-0.209630
0.218338,0.360660,0.739800,0.868932,0.244042,0.430581
0.193616,-0.154169,0.874581,0.666857,0.585103,0.461472
0.093290,0.100098,0.479587,-0.327416,0.944428,0.029220
-0.226802,0.566522,0.663681,0.857357,-0.386270,-0.340198
0.180045,0.114997,0.860943,0.915366,0.227255,0.332356
-0.069501,0.031198,0.829742,0.159422,-0.381574,0.910487
-0.504037,-0.084849,0.111243,-0.714917,-0.069840,-0.695713
0.729190,0.616396,0.662857,0.740929,0.634957,0.218758
0.500137,-0.239787,0.730110,0.825372,0.531635,0.190067
0.833524,0.171237,0.518007,0.274973,0.347312,-0.896529
0.108454,-0.007555,0.889136,0.833926,0.237026,-0.498384
-0.214988,-0.230344,0.533738,0.326160,0.714425,0.619044
0.127685,-0.711388,0.257284,0.624019,-0.771410,0.124606
0.319211,-0.434947,0.497882,0.120512,-0.390378,-0.912733
0.086754,0.111220,0.409431,0.906404,-0.147392,-0.395862
-0.566121,-0.892977,0.388377,-0.513054,-0.726472,-0.457180
0.378496,-0.205652,0.565305,-0.879963,0.423957,0.214302
0.531947,-0.068481,0.545729,0.169997,-0.570095,-0.803799
-0.612660,-0.385143,0.274623,-0.429626,-0.383884,-0.817346
-0.549311,-0.285395,0.512109,0.535852,0.111851,-0.836870
0.229602,-0.185996,0.466092,-0.552649,0.105755,0.826677
0.353221,0.104855,0.830330,-0.709894,0.699378,0.083195
-0.010441,0.112689,0.638521,0.345543,0.472620,-0.810698
-0.179992,-0.726706,0.684669,0.755736,0.654346,-0.026351
-0.003791,-0.738668,0.256146,-0.537123,0.624344,0.567180
0.106754,-0.168439,0.183741,0.990464,0.023245,-0.135796
0.138618,0.274902,-0.717583,0.997747,0.021253,0.063633
0.515079,-0.170117,0.549456,-0.136225,0.345353,0.928533
0.614085,0.644516,0.748143,0.622833,0.617204,0.480769
0.327400,0.156687,0.836385,-0.717007,0.616862,-0.324627
0.174660,0.056029,0.536746,-0.554341,-0.247858,0.794527
0.402999,-0.527210,0.397518,0.162856,0.740638,0.651869
-0.289161,0.235520,0.422691,-0.316596,0.217782,-0.923221
0.579032,-0.551762,0.561643,-0.226881,-0.862009,-0.453284
0.419866,-0.245593,0.749386,0.825916,-0.508929,-0.242600
0.344321,0.276791,0.806779,-0.599838,-0.652483,0.463099
0.750454,0.640389,0.793676,-0.508891,-0.818635,0.266208
-0.086754,-0.570369,0.536222,-0.439099,-0.898381,0.010206
-0.087743,0.490976,0.309800,0.821967,0.490729,-0.289059
-0.775068,-0.108911,0.155953,0.848246,0.485330,0.211975
0.006923,-0.689843,0.527762,-0.591769,-0.661059,-0.461313
0.135871,0.259024,0.472094,0.973894,0.111762,-0.197585
0.418217,-0.760982,0.532116,0.351455,0.795895,0.492982
-0.503708,-0.597720,0.345120,0.736333,0.590130,0.331000
0.526783,0.194949,0.590007,-0.632278,-0.432168,-0.643005
0.345639,-0.093872,0.237041,0.504940,0.264828,0.821524
0.083018,-0.819110,0.483157,0.332831,0.822846,0.460595
-0.383935,0.488039,0.632074,0.704144,-0.273605,0.655226
0.064390,0.079952,0.878544,0.378661,0.886516,0.265903
-0.272237,0.459989,0.732255,0.879741,-0.016256,-0.475175
0.028130,-0.556589,0.709410,-0.512465,-0.428720,-0.744028
-0.115597,-0.152350,0.096937,0.081561,0.401945,0.912024
-0.211416,0.152910,0.832501,-0.596816,0.732927,-0.326541
-0.076975,0.072328,0.839288,-0.664556,0.459529,-0.589235
0.031480,0.035884,0.695065,-0.549463,0.600586,-0.580851
-0.480301,0.116116,0.208024,-0.545447,0.193476,0.815509
0.636284,0.457260,0.571320,0.472545,0.612632,-0.633548
0.184934,0.118285,0.715334,0.651629,-0.740402,-0.164878
-0.447391,0.873111,0.497437,0.883510,0.434969,-0.173818
-0.007141,0.594782,0.456193,0.797515,0.514261,-0.315444
0.402835,0.269376,0.801744,0.298928,0.879155,-0.371117
0.130982,-0.356393,0.220944,0.902876,-0.170458,-0.394664
-0.390967,-0.267627,0.679647,0.809792,0.210734,0.547566
-0.142299,-0.017278,0.583351,0.352885,-0.929936,0.103397
0.107575,0.084289,0.929935,-0.615088,0.263764,-0.743031
0.154331,-0.680120,0.448582,0.984090,-0.139033,-0.110624
-0.072029,-0.404659,0.397923,-0.649681,0.186999,-0.736849
0.347507,0.505945,0.744992,0.976085,-0.006349,0.217297
-0.158124,0.278330,0.736753,-0.615435,0.408371,-0.674146
-0.225373,-0.194740,0.234883,0.152452,0.033440,0.987745
0.343114,-0.449776,0.492272,0.121452,0.545215,0.829452
0.157738,0.131715,0.308544,0.077171,-0.963274,-0.257193
-0.181199,0.595551,0.662582,0.910151,0.387316,-0.147012
0.118400,-0.403259,0.762266,-0.501544,0.791098,0.350168
-0.382835,-0.263501,0.407156,-0.410400,-0.521509,0.748064
0.004559,-0.600937,0.714379,0.340240,0.833930,0.434508
0.236580,0.184107,-0.952767,-0.519496,0.206247,-0.829208
-0.089115,0.429351,0.680955,-0.354234,-0.862262,-0.361970
0.037526,0.684737,0.527239,-0.492333,0.837331,0.237666
0.983075,0.387521,0.632650,0.082028,0.754433,0.651231
-0.130818,0.363458,0.808584,-0.061400,-0.811773,0.580736
-0.175981,-0.422426,0.409928,-0.522225,-0.510990,-0.682767
0.353442,-0.341914,0.480490,-0.604850,0.058537,0.794185
-0.555354,0.814144,0.548907,-0.390284,0.590647,0.706268
0.064558,0.737899,-0.960299,-0.027305,-0.109717,0.993588
0.356242,-0.213626,0.512436,0.806081,0.424927,-0.411912
-0.542168,0.058058,0.636102,0.714402,-0.431569,0.550798
0.063404,0.590305,0.555720,-0.013393,0.507526,0.861532
0.209934,-0.476007,0.679504,-0.026618,0.548903,0.835462
-0.267787,-0.310017,-0.200348,0.445989,-0.656221,-0.608661
0.296797,-0.141508,0.680471,0.544500,0.742332,-0.390464
-0.251909,0.259374,0.750549,0.950688,0.303929,0.061809
-0.125157,0.228386,0.515574,-0.345000,-0.156805,0.925412
-0.023569,-0.590445,0.658084,-0.706279,-0.241195,-0.665578
-0.522390,0.957821,0.668637,-0.810754,-0.525877,0.257159
0.440030,-0.466494,0.522047,0.821732,0.163026,-0.546057
-0.184002,-0.727057,0.677124,0.665408,0.746065,0.024884
0.153399,0.124790,0.247777,0.981139,0.169242,0.093396
0.094336,0.108912,-0.340595,0.571110,0.819272,0.051240
0.141585,-0.169768,0.714118,0.951551,-0.232904,0.200766
-0.464205,-0.728875,0.428902,-0.537396,-0.191549,-0.821288
0.377781,0.491816,0.360616,-0.579503,0.812335,-0.065485
0.203616,-0.018466,0.875340,-0.251258,0.967794,-0.015656
0.663863,0.738528,0.630518,-0.083792,0.996483,0.000836
0.104279,0.828274,0.451708,-0.113323,-0.984537,0.133586
0.567607,0.391228,0.544905,0.032394,-0.878629,0.476405
0.105872,-0.048195,0.812820,0.922334,-0.386105,0.014945
0.254547,0.596740,0.823399,0.602428,0.609894,-0.514888
-0.586067,-0.175504,0.135749,0.549397,0.806840,0.217189
0.124775,-0.945789,0.238375,-0.798354,0.583350,0.149445
-0.485301,-0.301973,0.148394,0.358958,0.465572,0.808945
0.739243,0.496152,0.671200,-0.232130,0.885640,-0.402192
-0.204384,-0.492445,0.442227,0.913030,0.230385,0.336600
-0.009066,-0.588626,0.346820,0.867314,0.042021,0.495984
0.866049,0.511332,0.532548,0.911341,0.207240,0.355682
-0.680348,0.773363,0.249595,0.054790,-0.160635,0.985492
-0.345914,0.824426,0.367559,-0.462179,-0.786603,0.409446
-0.514751,0.527770,0.437598,0.735086,-0.297081,0.609419
0.349707,0.250839,0.794801,-0.156170,-0.772977,0.614913
-0.031262,-0.565963,0.629446,0.958502,0.135480,0.250836
-0.291358,0.225797,0.233641,0.129599,-0.567454,0.813142
-0.327014,-0.839746,0.361335,0.648821,-0.494766,0.578133
-0.008023,0.142627,0.815096,-0.622651,0.602468,-0.499338
-0.683369,0.002029,0.546501,0.954648,-0.046534,0.294078
0.196363,0.124231,0.924025,-0.685650,0.046280,-0.726458
-0.245205,0.625979,0.644563,-0.611677,0.487028,-0.623422
0.251523,0.432778,-0.958194,-0.072563,-0.081598,0.994020
0.122136,-0.072258,0.916649,-0.727270,-0.665202,-0.169072
0.406899,-0.153889,0.705866,-0.066938,-0.740964,0.668201
0.209438,0.651931,0.582069,-0.244620,-0.267626,0.931954
0.151199,0.094362,0.465020,-0.458639,0.876439,0.146647
-0.562607,0.037773,0.508565,0.274126,0.871600,0.406410
0.211638,0.397034,0.671945,-0.710354,-0.430794,-0.556610
-0.143068,0.564144,0.321974,-0.630291,-0.775262,0.041258
0.157299,-0.086808,0.843459,0.943440,-0.281582,0.175019
0.412559,0.258324,0.614186,-0.167116,0.961127,-0.219788
0.088622,0.645915,-0.961280,-0.104189,-0.034026,0.993975
-0.124114,-0.048335,0.732412,-0.630821,-0.590721,-0.503103
0.209770,0.149272,0.795507,0.126672,0.903117,0.410285
-0.120596,0.427252,0.792905,-0.938998,0.057130,0.339146
-0.440031,-0.216074,0.700779,0.664985,0.452090,0.594483
-0.059997,0.674524,0.581141,-0.514046,-0.531764,0.673041
0.010659,0.132485,0.802856,0.519619,0.757643,-0.394935
-0.543047,-0.064213,0.097487,0.277769,0.167782,0.945882
-0.494205,0.845971,0.603790,0.136449,0.120417,-0.983301
-0.325696,0.385422,0.409784,0.905786,0.415891,-0.081159
-0.120764,-0.426483,0.399963,-0.358334,0.408953,0.839258
-0.391571,0.224748,0.220251,0.001335,-0.491690,0.870769
0.095654,0.077224,0.743135,0.939350,0.271134,-0.210020
0.386188,-0.946698,0.459789,-0.119398,0.498063,0.858882
0.662491,-0.264969,0.676705,0.801439,-0.531186,-0.274839
-0.371407,0.226637,0.718472,-0.725200,-0.659448,0.198024
-0.426406,-0.151371,0.694829,0.815523,0.139770,0.561592
0.634359,-0.306029,0.670559,-0.291910,0.842467,0.452811
0.166749,0.370593,0.575622,-0.589818,0.343980,0.730611
0.544146,-0.515669,0.551731,-0.118448,-0.633573,-0.764562
0.084283,-0.568900,0.677660,0.771368,0.196530,-0.605283
0.407945,0.630526,0.729117,0.791233,0.267024,0.550134
0.062797,0.192781,-0.044500,-0.072535,0.996364,-0.044689
-0.060547,-0.528750,0.743906,0.545280,0.759643,0.354418
0.275698,0.283996,0.646106,0.983318,0.001221,0.181891
-0.207627,0.442222,0.787530,0.817159,0.563036,0.123458
0.906816,0.515179,0.596911,0.273527,0.914121,-0.299276
-0.150267,0.700825,0.558453,0.379253,0.787144,-0.486386
0.696937,-0.385702,0.686225,-0.814649,0.362663,0.452572
0.653424,-0.388570,0.542735,-0.188334,0.142030,0.971781
0.027744,0.395635,0.517693,0.965612,0.255233,-0.049505
0.036316,-0.074426,0.570130,0.996840,0.044654,0.065690
0.019669,-0.198867,0.627419,0.950851,-0.029519,-0.308240
-0.532608,-0.082610,0.098729,0.447611,-0.713338,-0.539252
0.200209,-0.703204,0.313278,0.999975,-0.004294,0.005657
0.062854,-0.005596,0.848886,-0.163538,-0.852388,0.496678
0.131585,-0.298195,-0.973938,-0.241756,-0.261124,0.934542
0.789407,0.076035,0.378609,-0.484474,0.213891,0.848255
0.229712,0.028679,0.877341,-0.594329,0.473642,0.649951
-0.139278,0.480204,0.704781,0.702770,0.137810,0.697942
-0.012087,-0.746363,0.541754,-0.743526,-0.665991,0.060206
-0.329596,-0.713906,0.407404,0.459097,0.565726,-0.684970
0.069722,0.533016,0.406502,0.970248,0.191089,0.148676
-0.054887,-0.631295,0.489683,0.984927,-0.007952,0.172786
0.381517,-0.878217,0.392117,0.895911,-0.394391,0.204449
-0.537607,-0.906267,0.395151,-0.128157,0.940874,0.313579
0.248723,0.210269,0.496535,-0.487568,0.860955,-0.145028
-0.081754,0.669068,0.441011,0.721875,-0.107067,-0.683691
0.163231,-0.265529,0.776127,0.935624,0.314278,-0.160740
0.118785,-0.269796,-0.978790,-0.238967,-0.211618,0.947688
0.582935,0.726077,0.669866,0.851631,0.523782,0.019392
0.385035,-0.869754,0.539374,-0.121145,0.926737,0.355644
0.006263,-0.360940,0.760370,0.966324,0.227489,0.120280
0.969011,0.374301,0.639018,0.303106,0.766671,0.565989
0.094115,-0.430260,0.753282,-0.296134,0.821856,0.486679
-0.532443,-0.151511,0.685584,0.298087,0.678475,0.671428
0.006866,0.065193,0.566011,0.219193,0.252313,0.942493
-0.177406,-0.453973,0.730123,0.771300,0.360671,0.524417
0.119664,0.172986,0.446699,0.066597,-0.997779,0.001044
0.060272,0.028539,0.913511,-0.046765,-0.977722,0.204627
0.733147,0.250489,0.409496,0.534104,-0.016302,-0.845261
-0.252348,0.789452,0.663092,-0.717417,0.647893,-0.256024
0.393988,0.836388,0.635474,-0.640232,-0.048831,0.766628
-0.183288,-0.770565,0.637122,-0.432475,0.579593,-0.690679
-0.149496,0.465865,0.655730,-0.362387,-0.895972,0.256728
0.005166,0.019026,0.849147,0.511967,-0.804048,0.302319
0.644470,-0.151861,0.554007,0.887934,0.080639,-0.452848
0.423273,-0.611010,0.500419,0.088630,0.442899,0.892180
0.481073,0.542180,0.395779,-0.258592,-0.929371,0.263437
-0.312454,-0.319040,0.126713,-0.536013,0.223261,-0.814152
0.173835,0.046587,0.842138,0.903376,-0.421444,-0.079354
-0.072743,-0.489508,0.589706,0.725658,-0.657803,-0.201780
0.203449,-0.143327,0.842831,0.871469,0.325346,0.367004
0.373385,-0.609681,0.507349,0.418306,0.573395,0.704442
0.610624,0.505945,0.681413,-0.269460,-0.962570,0.029168
-0.342839,-0.693411,0.378544,-0.613184,0.608548,-0.503662
0.067908,-0.054701,0.261128,0.861197,-0.122631,0.493256
0.201802,-0.187115,0.329977,0.895918,0.415309,0.157638
0.121585,-0.735661,0.458625,0.448636,0.443930,0.775662
-0.051647,-0.284835,-0.148682,0.840408,-0.486045,-0.239738
0.088786,-0.272244,-0.904697,-0.607570,-0.793675,0.030623
0.355585,-0.943691,0.637188,-0.122952,0.992003,0.028518
0.043076,0.257345,0.328996,0.814008,0.527167,0.243897
0.250866,0.069180,0.824014,-0.117915,-0.940359,0.319094
0.080654,-0.553372,0.472291,-0.571934,0.730670,-0.372844
-0.366682,-0.077504,0.566704,-0.176571,0.967281,0.182181
0.046315,-0.404309,0.105882,0.839462,-0.287136,-0.461363
0.559582,-0.429071,0.541872,0.081797,0.228616,0.970074
0.135871,-0.230554,0.754760,0.815903,-0.443160,-0.371364
-0.024834,-0.641018,0.528547,0.644257,0.723744,0.247241
0.163453,-0.088766,0.862656,0.865438,0.379137,0.327525
-0.260369,-0.351987,0.522780,0.522680,-0.755484,0.395031
0.160871,-0.274622,0.385200,-0.021170,0.653006,0.757057
0.338771,0.307289,0.517340,0.018611,-0.666559,0.745220
0.037908,-0.566522,0.432027,-0.376522,0.916723,-0.133602
0.174824,0.457471,0.771681,-0.446608,-0.710593,0.543689
0.086697,0.128637,0.960182,0.117991,0.083790,0.989473
0.004945,0.366746,0.794474,0.925959,-0.336386,0.171596
0.077743,-0.324706,0.469584,-0.372640,-0.283120,-0.883732
0.411681,0.290151,0.606980,-0.638598,0.682260,-0.355970
0.078458,0.121083,0.412687,0.873388,-0.152582,-0.462507
-0.568760,0.561556,0.245502,0.918234,0.222005,0.327962
-0.065654,-0.383813,0.697981,0.544787,0.578985,0.606617
-0.508983,-0.760213,-0.141777,0.048430,0.998724,0.014319
-0.568375,-0.442921,0.104496,-0.467389,0.177761,-0.865995
0.535025,0.206281,0.578421,0.828097,0.246566,-0.503449
0.741883,0.558548,0.621482,-0.466137,-0.873536,-0.140181
-0.238612,0.426833,0.786615,0.962886,0.259886,-0.072865
0.140046,-0.683967,0.463817,0.625245,-0.511168,-0.589725
-0.038076,-0.377518,0.701237,0.598449,0.710486,0.370227
-0.018241,0.011612,0.709842,-0.489611,0.555301,-0.672252
0.113125,0.071279,0.812323,-0.128975,0.956386,-0.262089
0.516290,-0.309037,0.531541,0.145693,-0.783015,-0.604699
-0.399760,-0.117795,0.595277,-0.580096,0.814441,-0.013217
0.045930,-0.573657,0.416584,0.378659,-0.918777,0.111652
0.029833,0.259863,0.824615,0.748996,0.039284,0.661409
-0.043898,-0.601217,0.738519,-0.286023,0.946773,-0.147691
0.135707,0.218523,0.570065,0.811040,0.209101,-0.546343
-0.434152,-0.550923,0.323072,0.143388,0.548168,0.823985
-0.598592,-0.013360,0.658633,0.655583,-0.731408,0.187758
0.041372,-0.622622,0.287229,0.815294,0.083066,-0.573058
0.626120,-0.154449,0.408842,-0.647553,0.420629,0.635410
0.041262,0.424105,0.557420,0.689930,0.645039,-0.328514
0.526179,-0.262871,0.728698,0.917104,-0.206442,-0.341032
-0.274490,-0.830862,0.221911,0.295554,0.749450,0.592430
-0.259655,-0.461738,0.365781,0.487279,-0.850209,-0.199258
-0.248394,-0.238808,0.658869,-0.516559,0.345278,-0.783550
-0.197792,0.363178,0.705657,-0.049379,-0.388064,0.920309
0.480412,0.501749,0.709528,-0.139486,-0.940643,0.309409
-0.451569,0.784695,0.543101,0.792280,0.020348,0.609818
-0.232898,0.393397,0.816142,-0.754615,-0.630569,-0.181488
0.932476,0.187675,0.669696,-0.479054,0.527426,0.701662
-0.588153,0.856184,0.523185,-0.120041,0.879239,0.461009
0.376353,-0.947118,0.642222,-0.564100,0.823035,0.066365
-0.167410,-0.661794,0.428784,0.704160,-0.503162,-0.500986
0.559750,-0.642207,0.579022,0.486651,-0.836681,-0.251268
0.434977,-0.406057,0.517588,0.866361,0.148596,-0.476799
0.023459,0.544488,0.406136,0.916225,0.271319,0.294818
-0.384321,-0.790221,0.385278,-0.594363,0.757920,0.268867
0.056919,0.029519,0.842256,0.274265,-0.900312,-0.337961
0.217734,0.134303,0.843694,-0.597456,-0.505368,0.622615
-0.472501,-0.116746,0.628439,0.734870,0.586890,0.339890
0.599635,-0.303931,0.672390,0.355892,-0.537831,-0.764251
0.174495,0.110171,0.747032,-0.496089,0.803025,0.330221
0.406624,0.168019,0.500837,0.958618,-0.235269,0.160311
0.211913,0.209499,0.502628,-0.241177,0.931861,-0.271051
0.110872,0.135492,0.905207,-0.124472,-0.924489,-0.360315
0.078293,0.205093,-0.906802,0.785706,-0.617277,0.040431
0.166088,0.150602,0.458704,0.187962,-0.981893,-0.023604
0.017801,0.302043,0.787962,0.050824,-0.755501,0.653173
0.322950,0.095551,0.819058,0.805597,-0.062039,-0.589207
0.405692,-0.756295,0.473664,0.872473,0.463701,-0.154182
0.011977,0.389339,0.688487,-0.514316,-0.300168,-0.803354
0.399592,0.373042,0.823321,-0.311884,-0.892545,0.325717
0.108289,-0.263501,0.810532,0.914528,0.272088,-0.299343
0.042801,-0.533576,0.468995,0.960421,-0.220814,0.169803
0.262129,0.143747,0.848075,0.236642,0.938376,-0.251895
0.008791,-0.600658,0.504250,0.878163,0.267613,0.396501
-0.202627,0.402070,0.732320,0.631527,0.769100,-0.098280
-0.052251,-0.552742,0.657025,0.934107,-0.260187,-0.244431
-0.477005,0.058478,0.514777,-0.379484,-0.912697,0.151575
-0.289765,-0.367725,0.549260,0.860078,-0.441566,-0.255510
0.429591,0.566872,0.695941,-0.522462,-0.849201,-0.076756
-0.393496,-0.380666,0.074446,-0.585383,-0.104747,-0.803962
0.292126,-0.517767,0.394380,0.129461,0.807311,0.575751
-0.462555,0.816732,0.603594,-0.016402,-0.670549,0.741684
0.086368,0.119544,-0.483027,0.979350,0.195821,0.050268
0.658534,0.748391,0.650787,-0.232879,0.876329,0.421681
0.114882,-0.028189,0.592570,0.744725,-0.625811,0.231829
-0.193999,-0.231743,0.645883,-0.021055,0.460154,0.887589
0.013680,-0.618914,0.474370,0.855449,-0.383933,0.347566
0.108950,0.140598,0.531933,0.936890,0.347958,-0.034091
-0.129003,0.268047,0.791636,0.772644,0.033110,0.633975
0.640513,-0.446628,0.545258,-0.303415,0.256646,0.917645
-0.408603,0.215655,0.421998,0.143780,-0.506746,0.850021
0.215316,0.190893,0.500065,0.163981,-0.950413,0.264243
-0.166639,0.590445,0.654096,0.713544,0.650755,0.259565
-0.498819,-0.144586,0.262894,0.726278,-0.491313,0.480761
0.078786,0.573027,0.527121,0.959933,-0.243197,-0.139222
-0.261305,-0.864647,0.451198,-0.124050,0.485397,0.865449
0.750783,-0.109751,0.600586,0.816763,0.280697,-0.504091
-0.104554,-0.442991,0.719963,-0.034038,-0.964652,0.261319
-0.937805,0.354645,0.189507,-0.204869,-0.287896,0.935491
-0.085711,-0.108142,0.286249,0.346973,0.135702,0.928006
0.376792,0.449007,0.697484,-0.149024,-0.823550,0.547318
0.258447,0.277350,0.671017,0.537604,-0.608384,0.583825
0.113839,0.138011,0.982647,-0.904469,0.426467,0.007855
-0.448491,0.214535,0.224226,-0.203746,-0.309642,0.928768
0.073568,0.220901,-0.848219,0.783521,-0.612385,-0.105259
-0.664577,0.201734,0.446451,0.356696,-0.613359,0.704669
-0.849567,0.102896,0.166048,0.280611,-0.819509,0.499663
-0.148067,0.316732,0.795206,-0.112801,0.819595,0.561730
0.552332,0.266928,0.496914,0.110649,-0.812364,0.572558
0.763639,0.517837,0.860956,0.848640,0.200261,0.489598
0.100050,-0.143467,0.098755,0.989237,0.124130,0.077476
0.149881,0.126819,0.096637,0.966319,-0.223540,-0.127506
0.405745,-0.851287,0.458887,0.068298,0.408743,0.910091
0.349814,0.483702,0.612773,0.371298,-0.230477,0.899454
0.155871,0.104574,0.808505,0.952695,0.303890,0.004877
-0.507719,0.950686,0.685793,0.537402,0.736612,-0.410611
-0.249548,0.613528,0.643713,-0.627179,0.624440,-0.465533
0.766000,0.296656,0.528625,0.021957,-0.806431,0.590921
-0.131036,0.337507,0.788655,0.174727,-0.983373,0.049473
0.724576,0.373741,0.382179,0.774159,-0.367081,-0.515684
-0.237898,0.126958,0.836934,0.452282,0.144516,0.880089
0.660788,0.392207,0.536589,-0.169890,-0.852053,0.495119
-0.590846,0.947818,0.510919,-0.099260,-0.931715,-0.349364
0.237955,-0.177742,0.337078,0.545812,0.712857,0.440368
-0.149717,0.640389,0.364604,0.404090,0.795845,-0.450934
0.003955,-0.449496,0.693535,0.709442,0.646847,0.279788
-0.531015,-0.304141,0.147518,-0.420391,-0.537794,-0.730786
-0.243669,0.533366,0.739944,0.931524,0.165446,0.323868
0.139771,0.193900,-0.135121,0.516996,-0.855988,0.000421
0.095875,0.108842,0.419474,-0.577042,0.736723,0.352507
0.125653,0.128707,0.925437,0.938701,-0.261290,-0.224875
-0.144496,-0.585548,0.125105,0.032684,0.342194,0.939061
-0.195263,-0.489508,0.437441,0.913600,0.231207,0.334481
0.158231,0.090725,-0.469113,0.965802,0.257760,-0.028048
0.082083,-0.240697,-0.982020,-0.311858,-0.177424,0.933416
-0.826657,0.062395,0.162818,0.183210,0.786709,-0.589510
-0.460469,-0.952364,0.374948,0.322513,-0.183644,0.928580
0.301300,0.037213,0.821059,-0.925980,0.238814,0.292454
-0.727540,0.492656,0.212509,0.483303,0.648865,-0.587701
-0.093293,-0.383044,0.221231,-0.040708,-0.620665,0.783018
-0.595407,0.158506,0.433610,0.550195,-0.749622,0.367903
0.146474,0.145425,0.249542,0.994054,0.056120,0.093313
0.094775,0.104365,-0.260435,-0.624416,0.776502,0.084555
0.673370,-0.301413,0.663576,0.890738,-0.272570,-0.363720
0.091861,-0.208240,0.579532,0.911179,0.395557,0.115272
0.667930,-0.237269,0.646681,0.917145,0.184167,-0.353450
-0.046976,0.411094,0.864696,0.944150,0.313389,0.101824
0.394485,0.716634,0.614866,-0.443761,-0.525972,0.725555
-0.095050,0.347860,0.852142,0.849560,0.502245,-0.161241
-0.202241,0.752518,0.540956,0.938134,-0.319478,-0.133563
0.707487,-0.173755,0.596493,-0.775836,-0.094774,0.623776
0.176967,0.198727,0.900552,0.822657,-0.554497,-0.125573
0.468876,-0.905778,0.271733,-0.339243,0.604061,-0.721128
-0.541782,0.835898,0.543755,-0.151618,0.613324,0.775143
0.765175,0.546586,0.802490,0.327544,0.931755,0.156677
-0.725233,-0.386332,0.285072,-0.272981,-0.580608,-0.767057
0.057633,0.073587,0.933074,0.092567,-0.964262,0.248255
-0.030877,0.031757,0.857451,0.734738,-0.678276,-0.010109
0.235812,0.177532,0.622986,0.835190,-0.229236,-0.499909
0.002691,0.602756,0.466197,0.802417,0.492856,-0.336481
0.166913,0.156827,0.875523,0.853586,-0.275016,-0.442444
0.180156,0.663192,-0.955134,-0.204972,-0.130502,0.970029
-0.403220,0.213137,0.430000,0.241623,-0.473730,0.846875
0.093347,0.116116,-0.292146,-0.443216,0.890585,0.102070
-0.166914,-0.343313,0.714209,-0.757735,-0.453741,-0.468995
-0.095983,0.817921,0.586842,0.306546,0.624832,-0.718063
0.521454,-0.276441,0.738519,0.107413,0.907489,0.406112
-0.594528,0.041760,0.133160,0.099602,-0.708615,0.698530
0.372782,0.227056,0.464196,-0.704857,0.684823,0.184915
0.031151,-0.164311,0.547821,0.888427,-0.458857,0.012204
-0.774518,0.160744,0.159862,-0.192468,-0.512728,0.836699
0.081754,-0.180820,0.653507,0.643182,-0.300684,0.704206
0.123510,-0.367795,0.209907,0.887543,-0.150515,-0.435446
-0.237184,-0.760702,0.458050,0.047638,0.440877,0.896302
-0.331575,0.721741,0.655665,0.067507,-0.974198,0.215364
-0.019834,0.571349,0.561460,0.679729,0.214112,-0.701516
0.190538,-0.037423,0.899362,0.299788,0.874546,-0.381178
0.145103,0.161164,-0.001412,-0.814387,0.574337,-0.083128
0.846874,0.170957,0.514894,0.259350,0.130834,-0.956880
-0.521565,-0.047076,0.530534,-0.433716,0.342468,0.833430
0.122960,-0.221600,0.634441,-0.605119,0.793324,-0.066844
0.156146,0.278679,-0.793022,0.923373,-0.383849,-0.006529
0.117907,0.022104,0.856000,-0.651717,-0.756846,-0.049497
-0.425416,-0.609051,0.397923,-0.424290,0.711504,0.560126
-0.134664,0.243564,0.530390,-0.202457,-0.037170,0.978585
-0.447338,-0.114928,0.688200,0.953421,0.000836,0.301640
-0.201638,-0.349189,0.727913,0.390928,0.730775,0.559592
0.294051,0.436626,0.734073,-0.743664,0.629449,0.225294
0.348660,0.138220,0.842360,-0.316503,0.923350,-0.217373
0.323664,0.580792,0.740193,0.770194,-0.516973,-0.373550
0.366792,0.356673,0.813500,0.467165,0.681074,-0.563821
0.341575,-0.259583,0.538380,0.944159,-0.071107,0.321725
-0.733255,0.787703,0.247097,0.117678,0.142997,0.982702
0.294597,-0.097720,0.678144,0.743501,0.334598,-0.579008
-0.581067,-0.465935,-0.021563,-0.399033,0.758481,0.515247
-0.803032,-0.371363,0.145988,0.266414,-0.399746,0.877056
0.343496,0.586667,0.697576,0.889774,-0.451690,-0.065409
0.004284,0.575616,0.581664,-0.308682,0.844893,0.436888
0.644688,0.227476,0.500249,0.152199,0.939931,-0.305557
0.283886,-0.147384,0.690227,0.570840,0.666072,-0.480094
-0.575021,0.606254,0.239630,0.149386,-0.022647,0.988520
-0.546232,-0.758883,0.441194,-0.667343,-0.542428,-0.510319
-0.180813,0.145425,0.869992,-0.066773,-0.985905,-0.153401
-0.337343,0.199566,0.144170,0.114378,-0.488255,0.865173
-0.140157,0.653539,0.627589,0.719283,0.223137,0.657907
0.117575,-0.360520,0.217099,0.902876,-0.170458,-0.394664
-0.216527,0.479085,0.012266,0.168799,0.318565,-0.932750
0.037415,-0.389830,0.373012,-0.088083,-0.205640,0.974656
-0.063844,0.444809,0.811199,-0.090757,0.142831,-0.985577
-0.891105,0.165641,0.190226,-0.399731,0.158546,-0.902817
0.966101,0.346321,0.636037,0.033688,0.780441,0.624321
-0.700237,-0.577295,0.127628,0.540797,0.191704,0.819017
0.453655,-0.195299,0.696412,0.158770,-0.786180,0.597255
0.108839,-0.393747,0.796566,0.430995,-0.846735,0.311902
0.368057,-0.091914,0.685101,-0.735442,-0.511077,0.444888
0.426955,-0.182219,0.721951,-0.255761,-0.823833,0.505851
0.199495,0.520565,0.794382,0.538876,0.691140,-0.481599
0.634909,-0.483492,0.188984,-0.746387,0.576940,-0.331734
0.048240,-0.472790,0.684172,0.640335,0.311462,0.702113
0.462666,0.495873,0.680811,0.997899,-0.027402,-0.058712
0.908519,0.270845,0.604038,0.915274,0.328940,-0.232532
-0.636227,-0.547006,0.267693,0.761485,-0.212610,0.612322
0.121807,-0.507694,0.479875,-0.005867,-0.377383,0.926039
-0.254548,0.206072,-0.016921,0.469031,0.277622,-0.838413
0.426020,-0.924454,0.641372,-0.621179,0.775694,0.111516
0.032855,0.242935,0.281305,0.758431,0.575841,-0.305269
-0.274819,-0.284345,0.054608,-0.551148,0.822111,-0.142723
0.024230,-0.466214,0.490062,0.789526,0.335888,0.513642
0.329378,-0.004826,0.633617,0.279300,0.584625,0.761712
-0.609417,0.013081,0.541244,0.611226,-0.002857,0.791451
-0.458052,0.756645,0.622515,-0.326267,0.885242,0.331507
-0.053294,-0.502378,0.663092,-0.121112,0.470658,0.873964
-0.671941,0.628498,0.250000,0.145888,0.307274,-0.940372
0.194659,-0.011472,0.503099,-0.537077,-0.594165,-0.598763
-0.221527,0.369474,0.535412,-0.561115,-0.431567,0.706328
-0.051151,0.485661,0.680184,-0.174089,-0.738420,-0.651483
-0.607824,0.868425,0.593001,0.226096,0.855658,0.465543
0.798857,0.256225,0.514894,-0.197626,-0.306783,0.931036
0.247073,-0.199007,0.859072,0.991163,0.076376,-0.108454
-0.451020,-0.737129,0.257754,-0.411909,-0.533629,-0.738628
0.077304,0.029449,0.894707,0.001630,-0.775581,0.631246
-0.152849,0.124790,0.527814,-0.134882,-0.215135,0.967225
0.120489,-0.175923,0.671448,-0.647602,0.720074,0.249210
-0.142410,-0.541830,0.735838,0.894611,0.405305,0.188147
0.009119,-0.682848,0.515417,-0.647642,-0.620417,-0.442314
-0.000495,0.249370,0.884742,0.804901,0.199220,0.558968
-0.027198,0.078204,0.514397,-0.149664,-0.550398,-0.821379
-0.502226,-0.281827,0.259180,0.310827,-0.228367,0.922624
-0.578703,0.048405,0.650408,-0.832500,0.405238,-0.377792
-0.003573,-0.157456,0.684931,0.488910,0.058631,0.870362
0.062469,-0.008534,0.284941,0.770691,-0.563882,0.296772
0.576010,0.710199,0.647113,0.037280,0.379847,0.924298
-0.444041,0.743635,0.264136,0.601736,-0.277666,-0.748876
-0.069337,-0.278120,0.298096,0.319087,0.387679,0.864806
0.794957,0.554490,0.566194,0.824300,0.553622,-0.118454
0.087029,-0.036724,0.536628,0.870459,-0.439186,-0.222299
0.527829,-0.626189,0.174404,-0.588460,0.536681,-0.604722
0.164553,-0.191382,0.769667,0.923386,-0.256848,-0.285284
0.334268,0.290221,0.633513,0.904909,0.351414,0.240102
0.117907,0.023853,0.979195,-0.665296,0.331904,-0.668746
-0.010441,-0.586388,0.337718,0.729121,0.407401,0.549915
-0.338554,0.723139,0.663040,-0.050909,-0.950975,0.305050
-0.041208,0.314284,0.640378,-0.634417,-0.592921,-0.495943
0.198231,0.504057,-0.959318,-0.135705,-0.041557,0.989877
0.128618,0.212997,0.119822,0.894056,0.447636,-0.016920
-0.071865,0.457681,0.805184,0.306545,-0.286994,-0.907560
-0.317236,-0.012451,0.529880,0.088079,0.024844,0.995804
0.213009,0.056169,0.878086,0.629269,0.480209,-0.611081
0.604031,-0.342403,0.672246,0.496067,-0.246144,-0.832665
-0.033184,0.381295,0.805681,-0.598253,0.513061,-0.615518
-0.473709,-0.630246,0.425136,-0.389389,-0.771108,-0.503754
-0.813307,0.047916,0.152906,0.383745,0.657622,-0.648284
0.169824,-0.396334,0.396472,0.945700,0.324866,0.010616
-0.526729,-0.085129,0.566312,0.660755,0.718129,0.218390
-0.118786,0.344082,0.697275,0.159449,-0.040549,0.986373
0.326793,0.727546,-0.949459,-0.121318,-0.121241,0.985181
-0.178177,-0.702294,0.442554,0.143792,0.707989,0.691430
-0.706830,0.422776,0.464850,-0.201710,-0.734387,0.648065
0.216087,0.122062,0.895530,0.500678,0.858648,0.109751
-0.201527,-0.740417,0.445091,0.229553,0.747982,0.622758
0.188342,0.022104,0.870279,-0.737246,0.264787,0.621575
0.029998,-0.266438,0.711489,0.196986,-0.977797,-0.071477
0.160649,0.172146,-0.391529,-0.128474,0.990746,0.043792
-0.223945,0.262801,0.764044,0.741856,0.639717,-0.201027
-0.453105,-0.292040,0.088385,0.768742,0.166819,0.617420
-0.610624,0.004897,0.585443,0.472956,0.058731,-0.879126
-0.269105,0.832681,0.683087,-0.593210,0.725774,-0.348360
-0.514476,0.888011,0.608288,-0.181118,0.524611,0.831853
0.088236,-0.334429,0.784300,0.419239,0.152135,-0.895038
-0.149442,-0.933618,0.473729,-0.510217,-0.542658,-0.667233
-0.919948,0.340095,0.181635,-0.141980,-0.476717,0.867515
-0.580846,0.739298,0.546108,-0.496061,0.561684,0.662143
-0.481183,0.053022,0.621979,-0.655844,-0.201356,-0.727546
0.450248,0.380176,0.637070,0.432686,-0.816976,0.381225
-0.042140,0.193131,0.142588,0.362860,-0.841167,0.400961
-0.011977,-0.358632,0.589209,0.758491,-0.347590,-0.551246
0.209163,0.226287,0.590961,-0.612655,0.691018,0.383599
0.099993,-0.302672,0.727194,0.779536,-0.533821,-0.327656
0.104993,-0.244893,0.387384,0.130958,0.738919,0.660945
0.093236,-0.310436,-0.909889,-0.413550,-0.910473,-0.003798
-0.167792,0.039452,0.822275,-0.370688,-0.888881,0.269224
-0.020109,-0.629966,0.125144,-0.482601,-0.016392,-0.875687
-0.031098,-0.064843,0.883853,-0.820481,0.544494,0.174178
-0.344761,-0.296236,0.411641,-0.363274,-0.554683,0.748571
-0.517829,0.911654,0.511429,-0.455904,-0.862342,-0.220268
0.453216,-0.514619,0.530639,0.927892,0.201990,-0.313394
0.089940,0.148433,-0.337888,0.571110,0.819272,0.051240
0.270151,0.231813,0.727077,0.966131,-0.190964,0.173565
-0.052633,0.478246,0.027788,-0.296770,0.030454,0.954463
0.334268,-0.165431,0.375745,-0.420049,-0.083149,0.903684
0.183617,-0.537633,0.408999,0.481929,-0.839066,-0.252416
-0.665513,0.098699,0.550057,0.930735,0.082366,0.356297
-0.162903,-0.761962,0.627262,0.319978,-0.363215,0.875036
0.040162,0.091424,0.778416,-0.050815,-0.996460,-0.066978
-0.149553,-0.914172,0.478044,-0.510217,-0.542658,-0.667233
0.589089,0.803372,0.716406,-0.687224,-0.724692,-0.050440
-0.621503,0.469782,0.468263,-0.289106,0.096587,-0.952412
-0.764243,-0.297496,0.291767,-0.811313,0.476098,-0.339267
0.294158,-0.738458,0.523865,-0.424262,0.508243,0.749461
0.153671,0.643956,-0.959070,0.154275,0.035108,-0.987404
-0.059119,-0.701175,0.722696,-0.746934,0.254235,0.614373
0.097468,0.087017,0.046762,-0.420049,0.858655,0.293719
0.281576,0.133534,0.465033,0.042236,-0.986093,0.160739
-0.003241,0.269446,0.843289,-0.503137,-0.252257,0.826571
-0.137300,0.281827,0.233144,0.278162,0.678585,0.679814
0.664798,0.671027,0.816443,0.832383,0.549999,0.068118
-0.170374,-0.649412,0.550175,-0.176218,0.869103,0.462176
-0.418713,-0.220691,0.584907,0.489829,0.790478,-0.367713
-0.555132,0.807499,0.482621,-0.306457,-0.623296,0.719434
-0.722708,-0.452644,0.132362,-0.593401,0.041516,-0.803836
0.201306,-0.255666,0.417251,0.999995,-0.003216,0.000686
0.139992,0.217753,0.589183,-0.553979,0.811025,-0.188003
0.205316,0.488808,0.182799,0.924794,-0.345570,-0.159176
-0.466073,0.128777,0.607582,-0.669515,0.706405,-0.229655
0.598317,-0.181309,0.626948,-0.060794,0.763100,0.643415
0.141696,0.171097,0.783097,0.762619,-0.481513,-0.431924
-0.518983,0.893047,0.530338,-0.615265,0.740599,0.270116
-0.194713,0.072818,0.526284,-0.109689,-0.747397,0.655260
0.795450,0.621502,0.858537,-0.544338,-0.691425,-0.475003
0.439977,0.427393,0.670794,0.767182,-0.544352,0.339282
-0.265808,0.095971,0.530691,0.109429,0.286029,0.951952
0.086258,0.177882,-0.286026,-0.508953,0.855268,0.097381
0.124443,-0.027630,0.823831,0.475965,0.712363,0.515749
0.667984,-0.117096,0.566966,-0.603106,0.664501,0.441251
0.219052,0.247762,0.302464,-0.637795,0.754217,0.156122
-0.298004,0.126609,0.660189,-0.636643,-0.745763,0.196275
-0.291358,-0.171586,0.649819,-0.679614,0.435209,-0.590523
-0.068622,-0.662213,0.697052,0.165650,0.825492,0.539559
0.371628,-0.722370,0.529370,-0.025789,0.645051,0.763704
-0.683312,0.976637,0.578512,0.053372,0.992971,0.105639
-0.132246,0.637661,0.435610,0.820816,0.259287,-0.508951
0.436238,-0.286374,0.736034,-0.252704,-0.906741,0.337582
-0.453437,0.790011,0.438304,0.689604,0.331295,0.643965
-0.056426,-0.531198,0.741016,0.392053,0.895498,0.210659
0.536290,0.432289,0.550437,0.088268,0.569748,-0.817066
-0.541672,0.844991,0.534313,-0.290924,0.792013,0.536729
0.000109,-0.284275,0.578512,0.362455,-0.602661,-0.710933
0.062744,-0.349608,0.477587,-0.349691,0.145731,-0.925461
-0.016044,0.084639,0.051169,-0.248615,0.936009,0.249155
-0.192188,-0.774483,0.575832,0.984747,-0.165310,0.054285
0.419702,0.279449,0.807067,0.478799,0.798005,-0.365978
0.784243,0.031757,0.390287,-0.321303,0.517394,0.793138
0.584089,0.209849,0.447079,0.123576,-0.990478,0.060675
0.097357,0.190893,0.936251,-0.507711,0.856528,-0.092677
-0.112521,0.207961,0.535765,-0.211574,-0.057488,0.975670
0.269269,-0.029938,0.908489,0.360301,0.456511,-0.813499
-0.022416,-0.660325,0.688919,0.371950,0.694421,0.615981
0.062797,0.135492,0.190710,-0.035450,-0.972044,0.232108
-0.605956,-0.480484,0.281070,0.741367,-0.134530,0.657478
0.069665,0.101706,0.920180,0.547381,-0.827344,-0.126000
0.045658,-0.377728,0.478371,0.395432,0.021648,0.918240
-0.215591,-0.030498,0.547102,0.376158,-0.816661,-0.437687
-0.029833,-0.822608,0.119769,0.969944,0.168855,0.175204
0.044008,0.166340,-0.965020,-0.280057,-0.325303,0.903187
0.539750,0.830932,0.593812,-0.116850,-0.979319,-0.165166
-0.052965,-0.460548,0.560872,-0.477397,0.275533,-0.834370
-0.073511,-0.682778,0.666545,-0.515226,0.839868,0.170778
0.275422,-0.085759,0.667865,-0.103557,-0.545182,0.831897
-0.267676,0.099328,0.848807,0.889735,0.339634,0.304993
-0.104446,0.159625,0.411876,0.052141,0.516711,0.854570
0.061919,0.109401,0.407600,0.305484,0.949242,0.074968
-0.008298,0.645705,0.575269,-0.403698,-0.526443,0.748255
0.023184,0.730064,0.507807,0.866712,-0.067451,-0.494227
0.305422,-0.032037,0.906345,0.734138,0.029377,-0.678364
0.047087,-0.198167,-0.097369,0.928832,-0.365926,0.058043
0.103565,-0.728176,0.287308,0.676508,0.502286,-0.538558
-0.475083,0.761682,0.589876,0.927960,-0.162723,0.335277
-0.342289,0.713556,0.659287,-0.095672,-0.843129,0.529131
-0.226195,-0.621572,0.558819,0.980146,0.059497,0.189140
-0.673973,0.445929,0.226030,-0.529005,-0.638907,0.558526
0.086643,0.111919,0.232360,-0.677305,0.124465,0.725098
0.062690,-0.017138,0.876896,0.406927,-0.655547,0.636136
0.337618,-0.763850,0.527827,-0.047915,0.753163,0.656087
-0.365692,0.257065,0.425228,-0.225812,0.455961,-0.860877
-0.172574,-0.707121,0.715648,-0.158255,-0.678997,0.716881
-0.543375,0.557988,0.438723,-0.067739,0.468181,-0.881033
0.813910,0.334499,0.532169,0.169357,-0.816493,0.551957
0.389813,0.787843,0.648486,-0.686149,0.725369,0.055122
0.014505,0.283856,0.837051,0.931843,0.293145,-0.213859
0.913959,0.402630,0.590530,-0.703876,-0.149200,0.694476
0.015162,-0.124440,0.338150,0.814640,-0.575314,-0.073312
-0.343607,-0.612199,0.355006,0.965460,-0.259821,-0.019510
-0.294654,-0.418439,0.065083,-0.624647,0.704574,-0.336737
0.436788,-0.772524,0.530063,0.577761,0.619570,0.531342
0.224548,0.142068,0.841655,0.238172,0.858865,-0.453459
0.710840,0.695999,0.653311,0.824614,0.551520,0.125846
0.050326,-0.762451,0.474906,-0.423949,-0.564129,-0.708537
-0.094061,0.567851,0.440867,0.712369,0.306755,-0.631215
-0.109993,0.247342,0.760357,0.618042,0.765118,-0.180606
0.061919,0.463417,0.560924,-0.371262,-0.441285,0.816965
0.109829,0.745943,-0.960613,0.126357,0.126202,-0.983924
0.466402,-0.484261,0.493775,-0.031457,-0.136500,0.990140
-0.419263,-0.021404,0.678392,-0.262714,0.590278,-0.763252
0.010055,0.451245,0.436081,-0.189217,-0.675975,0.712218
0.159828,-0.286374,0.770413,0.874293,0.394641,-0.282612
0.139553,-0.048475,0.793297,-0.027638,-0.203362,0.978714
-0.072304,-0.691033,0.155783,0.910674,-0.391143,0.132965
-0.052140,-0.314004,0.399859,-0.372754,0.272328,0.887069
-0.598317,0.020075,0.662857,0.563412,-0.816170,0.128189
-0.162628,-0.490347,0.557354,0.783436,0.609141,0.123190
0.405802,-0.000839,0.717400,0.578965,-0.028214,-0.814864
0.104225,0.246083,-0.600455,0.682754,-0.730419,-0.018305
0.144389,0.030778,0.902056,0.706230,0.679194,-0.199838
0.654470,0.324497,0.517235,0.386350,0.684291,-0.618450
-0.164278,-0.132065,0.092622,0.399127,-0.840328,-0.366806
-0.237019,0.387731,0.822262,-0.319199,-0.945960,0.057193
0.257676,0.271754,0.868932,-0.043306,0.969588,-0.240881
-0.575571,0.582331,0.457357,-0.533697,0.268740,-0.801840
-0.057908,-0.283926,0.314389,-0.204786,-0.973674,0.100109
0.126860,-0.106463,0.877798,0.873962,0.453573,0.174534
0.698476,0.630736,0.827061,0.419186,0.887468,0.191532
0.298279,-0.454253,0.486780,0.911003,-0.285919,-0.297193
-0.138178,-0.680050,0.627393,0.893750,0.137478,0.426979
0.374321,0.032736,0.355673,0.086485,0.958162,0.272847
0.040219,-0.252938,0.479587,-0.503456,-0.413236,-0.758794
-0.462337,-0.459219,0.101527,-0.466690,0.768748,-0.437294
-0.326025,-0.539102,0.382336,-0.637016,-0.600395,-0.483462
-0.868852,0.275812,0.177581,0.210832,-0.497951,0.841186
0.204823,0.010073,0.889450,0.543191,-0.839247,0.024652
-0.530247,0.040291,0.217531,0.293808,-0.574766,-0.763755
-0.326850,-0.645565,0.226907,0.281716,0.413534,0.865809
0.480248,0.611849,0.625588,-0.442538,-0.397184,0.803993
0.521400,-0.173335,0.384023,-0.511584,-0.431030,0.743300
-0.040383,-0.573517,0.729666,0.769932,0.509641,0.384019
-0.003627,-0.101427,0.685519,0.675914,-0.183602,0.713744
0.088125,0.113878,0.866212,0.032816,0.219898,0.974971
0.576396,-0.240557,0.645975,-0.349715,0.287499,0.891652
0.635513,-0.425993,0.540342,-0.300620,0.275861,0.912978
-0.112136,0.331981,0.602037,-0.164531,-0.764910,0.622770
0.727815,0.447468,0.568574,0.482985,0.545149,-0.685229
0.158838,0.331561,0.574733,0.834696,-0.067683,-0.546537
0.175431,0.520915,0.787608,-0.311556,-0.701818,0.640613
-0.364485,-0.412703,0.316155,0.078089,0.377820,0.922580
0.065104,0.143536,0.730843,0.395296,0.911400,-0.114419
0.073951,-0.591284,0.284536,-0.536962,0.819054,0.202044
0.425470,-0.273294,0.724409,-0.240908,-0.100096,-0.965373
0.052744,-0.326805,0.405966,0.138666,0.931064,0.337477
0.275040,0.341424,0.725298,-0.273574,0.696160,0.663716
0.345475,-0.893886,0.559538,0.348007,0.883110,0.314655
-0.254216,-0.016158,0.588215,0.116110,0.797732,0.591728
0.075654,0.420817,0.782326,-0.591123,0.101412,-0.800181
-0.786496,0.237060,0.175973,-0.301187,-0.229869,-0.925444
-0.527115,-0.606603,0.424273,-0.427297,-0.705799,-0.565036
0.162517,0.071558,0.160386,0.955043,-0.282070,-0.091264
0.370749,0.528540,0.717727,-0.241654,-0.331716,0.911903
-0.160542,0.264619,0.691050,-0.296962,-0.180052,0.937761
0.189824,-0.311276,0.822105,0.963540,0.023309,-0.266547
0.057854,0.554560,0.000065,0.367910,0.531274,-0.763144
0.095325,0.009093,0.876504,-0.649367,0.571148,-0.502108
0.722376,0.714536,0.790198,-0.261728,-0.819083,0.510491
0.377231,-0.821558,0.546474,0.554613,0.662142,0.503957
-0.097029,-0.058618,0.867402,-0.052922,0.992656,-0.108785
-0.117907,-0.139270,0.108170,0.108214,-0.103724,0.988702
-0.005384,-0.465165,0.800659,-0.706212,0.707829,0.015591
-0.052690,0.386402,0.828774,0.989777,0.125913,0.066987
0.081150,0.177602,0.182603,-0.173354,-0.984440,-0.028726
0.377835,-0.308058,0.502615,0.837809,0.286823,-0.464551
0.212680,0.060576,0.365794,0.279420,0.944866,-0.170739
0.139882,-0.431799,0.239159,0.853748,-0.296756,-0.427844
-0.156749,0.623531,0.659287,0.901783,-0.364416,0.232352
-0.319157,-0.706981,0.407862,0.446013,0.485508,-0.751900
-0.446623,-0.834219,0.389280,-0.339367,0.931655,-0.129805
0.189109,0.026231,0.863963,0.769357,-0.624304,-0.135403
0.413492,0.245034,0.442057,0.202415,0.922718,-0.328054
0.327125,0.337647,0.803994,0.584125,0.701487,-0.408306
-0.500740,-0.026231,0.091105,-0.616318,0.353930,-0.703481
0.064612,0.211668,0.534091,0.824472,0.452191,0.340249
-0.074558,-0.285954,0.706899,-0.455821,-0.204342,-0.866297
0.123400,0.082191,0.997986,0.808074,-0.588318,-0.029968
0.098290,-0.588206,0.780939,0.950433,0.039367,-0.308428
0.063019,0.223909,-0.858667,0.749188,-0.660985,-0.042612
0.986429,0.322188,0.367572,0.845980,0.435737,0.307328
0.594253,0.504896,0.721467,-0.181393,0.851970,-0.491166
0.297840,0.316592,0.723311,0.791555,-0.177142,-0.584859
0.453602,-0.192921,0.624725,-0.278425,0.363225,0.889127
0.159606,0.137451,0.874725,0.918270,-0.196054,-0.344011
0.177406,-0.318620,0.806452,0.956175,-0.033608,-0.290861
-0.065547,-0.585688,0.126569,0.096753,0.323315,0.941332
0.216141,-0.090305,0.681321,0.014158,-0.845800,0.533312
0.054283,0.053721,0.578617,0.849588,-0.171360,-0.498836
0.214548,-0.337507,0.778834,0.979472,0.181783,0.087120
-0.209438,0.407457,0.623575,0.370773,0.057307,-0.926954
-0.035712,-0.626259,0.166048,-0.133819,0.842433,0.521919
0.102522,0.089955,-0.288890,-0.413577,0.906688,0.082890
-0.743254,0.408086,0.456494,0.816492,-0.152903,0.556741
0.183452,0.072118,0.858066,0.748532,0.556991,0.359806
0.381903,0.621642,0.776075,-0.562506,0.733415,-0.381692
-0.532222,-0.676623,0.368658,0.445382,0.874957,-0.189962
0.962308,0.427602,0.629511,0.042664,0.711178,0.701717
0.167574,-0.506785,0.285843,-0.401151,0.435284,0.805981
-0.705455,0.445090,0.451525,-0.289470,-0.554735,0.780049
-0.132632,0.484611,0.024754,-0.320351,-0.197127,0.926562
-0.031426,0.391298,0.878858,0.930775,0.360421,-0.061281
0.596560,-0.497622,0.544892,0.110822,0.202559,0.972979
0.063951,0.055260,0.989055,-0.611483,-0.604753,0.510257
-0.308168,-0.530988,0.215621,-0.187403,-0.359374,-0.914183
-0.316136,-0.090515,0.480163,0.129323,-0.885493,-0.446293
0.030108,-0.381156,0.758578,-0.387332,-0.748528,-0.538218
0.221195,0.536863,0.797416,0.811105,-0.172370,0.558926
-0.021923,-0.118845,0.916401,0.851001,0.472208,0.229818
0.018130,0.246223,0.754028,-0.064659,-0.897273,0.436715
-0.157299,-0.113808,0.742416,0.914308,0.011149,0.404866
0.300368,-0.735940,0.487342,-0.387705,0.746497,-0.540765
0.521508,0.373671,0.607700,-0.268515,-0.705885,0.655459
-0.340750,-0.733212,0.386351,0.849294,-0.478877,-0.222211
-0.407395,0.116256,0.157169,0.236887,-0.020845,0.971314
0.328389,0.328833,0.691508,-0.329288,0.790103,-0.517017
-0.055930,-0.467893,0.495632,0.451084,0.442148,0.775261
0.041315,-0.197678,0.579101,-0.280599,0.381403,0.880793
-0.344596,-0.183198,0.634402,-0.337747,0.816092,0.468957
0.188452,0.437954,0.778180,0.228696,0.731555,-0.642282
-0.553157,0.047426,0.499647,-0.501808,-0.821694,-0.270200
-0.416624,0.098349,0.594178,0.634044,-0.237515,0.735918
0.412120,0.474328,0.599579,-0.078203,-0.288495,0.954282
-0.446348,-0.119474,0.552032,0.503568,0.860830,0.073426
-0.352178,0.299034,0.697798,-0.787391,0.264315,-0.556913
0.269269,0.175364,0.430694,-0.336183,0.908862,0.246883
0.034944,0.061975,0.648342,-0.455307,0.189005,0.870042
-0.470412,-0.728875,0.344924,0.278885,0.739567,0.612588
-0.294543,-0.220831,0.662399,0.919811,0.058583,0.387963
0.517554,0.010213,0.538432,-0.142373,0.503861,0.851971
0.128675,-0.181100,0.692319,-0.687522,0.724664,-0.046634
-0.153617,-0.613179,0.661445,-0.636487,0.693544,-0.337463
-0.074061,-0.710898,0.710705,-0.031853,0.908266,0.417180
-0.006427,0.621713,0.570418,0.763296,0.640732,-0.082712
-0.299215,-0.124231,-0.094597,0.127606,0.832271,0.539482
-0.297897,0.613179,0.771864,0.938269,0.292069,-0.185328
0.418549,0.431169,0.634154,0.149770,0.988556,0.018056
-0.183013,-0.158366,0.672835,-0.438964,0.696009,0.568227
-0.049504,0.674175,0.576839,-0.470802,-0.588118,0.657619
0.075601,-0.439703,0.765666,-0.206250,0.931138,0.300737
0.291908,0.019376,0.373758,0.180725,0.064506,-0.981416
