0.080058,-0.231228,0.320235,0.409965,0.910732,-0.049961
0.012984,0.260000,0.699211,-0.073331,-0.161670,0.984117
-0.567705,-0.303810,0.897092,0.459098,-0.679909,0.571798
-0.057428,-0.134500,0.567666,0.776773,-0.432614,-0.457678
-0.402811,0.400055,0.717061,0.290365,-0.606941,0.739805
-0.057879,-0.214039,0.805544,-0.258688,0.334988,-0.906015
0.087451,-0.267119,-0.103100,0.866394,0.304923,-0.395455
0.404074,-0.578323,0.500691,0.900634,0.197421,-0.387149
0.515596,-0.352654,0.594068,0.122275,0.050515,0.991210
-0.721058,0.081815,0.765526,0.889124,0.096129,-0.447457
-0.244228,-0.645713,0.721614,0.470307,-0.805399,-0.360754
-0.296880,0.099961,0.383763,0.480455,0.446503,-0.754850
-0.065902,-0.817502,-0.938132,0.273917,-0.306011,-0.911771
-0.954832,-0.484312,0.642619,0.951836,-0.305989,0.019461
-0.190316,0.571922,0.372040,0.137840,0.138571,-0.980713
0.001442,-0.193254,0.829032,0.117510,0.992875,0.019742
-0.009107,0.145288,0.396443,0.816965,0.545207,-0.187930
-0.543453,-0.295579,0.707295,0.345481,0.793208,0.501462
0.266137,-0.191415,-0.946216,-0.040561,0.103254,0.993828
0.546609,-0.456575,0.601132,-0.139258,-0.076632,0.987287
-0.205553,-0.456814,0.809948,0.645824,0.444584,-0.620691
0.608637,-0.626446,0.526626,-0.307966,-0.319140,0.896274
-0.054363,0.307967,0.416505,-0.652582,-0.163729,0.739817
0.067707,0.886487,0.396890,-0.521946,0.503643,0.688415
-0.315812,0.127703,0.904453,0.326415,-0.290427,-0.899503
0.067526,-0.239459,-0.255090,0.782847,-0.619661,0.056302
-0.251533,0.303727,0.405783,0.314564,-0.621797,-0.717230
-0.249459,0.703662,0.383784,0.498245,0.401157,-0.768651
-0.882978,-0.387350,0.620045,0.308318,-0.256297,0.916107
-0.387217,-0.091491,0.387337,0.511606,-0.714739,-0.476872
0.093311,-0.561534,0.677872,0.523813,0.541528,-0.657546
0.328075,-0.410448,0.652363,-0.413935,-0.887104,-0.204217
0.203930,0.172786,0.933387,0.082989,0.810167,-0.580296
-0.031282,0.187736,0.700317,0.999548,-0.002876,0.029939
0.093853,-0.239781,0.319682,0.443993,0.888167,-0.118448
0.274072,0.787998,0.321554,-0.690456,0.321827,0.647841
-0.852326,-0.432116,0.644533,0.881836,0.082269,0.464325
-0.415074,0.277346,0.639236,-0.468564,0.764056,-0.443470
0.226651,0.821493,0.381401,-0.564011,0.622628,-0.542427
-0.526595,-0.287982,0.636151,0.833118,0.214850,0.509660
-0.376396,-0.441147,0.566028,0.417707,0.303981,0.856222
0.061938,0.217874,0.404421,0.940176,-0.302379,-0.156961
0.538495,-0.591833,-0.925707,0.207658,-0.025047,-0.977881
-0.592949,-0.223153,0.911367,0.968481,0.117523,0.219618
-0.202579,-0.659780,0.734187,0.984558,-0.132033,0.114944
-0.418681,-0.442664,0.619386,0.777984,0.475606,-0.410537
0.229806,-0.243616,0.908240,0.067621,0.871457,0.485789
-0.140551,-0.121951,-0.976448,-0.122522,0.244419,0.961898
-0.050396,0.953712,0.404804,0.299965,-0.850911,0.431243
0.234673,-0.362808,-0.946642,-0.110687,0.242638,0.963782
-0.432113,0.600064,0.394230,-0.686245,-0.505230,0.523269
-0.447619,0.112754,0.986086,0.451099,-0.637864,0.624210
0.636225,-0.667054,0.623960,0.782397,-0.065174,-0.619361
-0.467995,-0.457853,0.796375,0.490734,0.347834,-0.798869
0.577443,-0.000364,0.480310,0.130902,0.130105,0.982821
0.080779,-0.239298,-0.046869,-0.722345,0.677810,-0.137080
-0.869816,-0.155524,0.634513,0.941141,0.114163,-0.318152
-0.389470,0.224666,0.307704,0.981212,0.128132,0.144242
0.260459,0.219231,0.664085,0.905924,-0.386939,-0.171990
0.332221,-0.571526,0.459269,0.962079,-0.241531,-0.126752
0.760366,-0.599025,0.548263,-0.082524,0.317712,0.944589
-0.148395,-0.311807,0.597430,0.865534,-0.043979,0.498915
0.034529,-0.275033,0.203285,0.825366,0.559927,0.072481
0.263793,-0.348976,0.652299,0.359860,-0.460001,0.811726
0.185540,-0.063753,0.679233,0.053646,-0.092575,0.994259
-0.380996,0.599582,0.369615,0.409740,-0.134171,-0.902281
-0.525063,-0.094291,0.786524,0.752696,0.258818,0.605361
-0.418048,0.149523,0.917665,0.830891,-0.504505,-0.234725
0.717363,-0.237703,0.595239,-0.551287,-0.239242,0.799279
-0.592137,-0.229067,0.886837,0.216645,0.861305,0.459585
0.109178,-0.278551,0.894858,0.902129,-0.270610,-0.336056
0.192933,0.483512,0.332532,0.829429,-0.163931,0.534016
-0.470518,-0.075824,0.791269,0.452754,0.340218,-0.824176
0.086279,-0.289822,0.164819,0.883533,-0.289796,-0.367950
-0.462044,0.219152,0.686573,0.632944,0.153948,-0.758737
0.110259,0.667294,0.377848,-0.188260,0.495199,-0.848137
0.340156,0.222831,0.916282,-0.347702,0.058233,0.935795
-0.065632,-0.676886,-0.943770,-0.010578,0.080283,0.996716
0.180852,0.127781,0.908070,0.032016,0.760880,0.648102
0.315001,-0.426997,-0.942982,-0.100420,0.196057,0.975437
0.524342,0.118989,-0.956641,-0.328350,0.256938,0.908938
0.054633,0.199407,0.936940,-0.562853,0.751187,-0.344840
-0.484041,0.129538,0.857435,0.310588,0.948318,-0.065022
0.118012,-0.781689,-0.935111,-0.089401,0.214234,0.972682
0.600975,-0.254570,0.844542,0.915802,-0.193449,-0.351970
-0.534979,0.018104,0.898262,0.710601,-0.696795,-0.097587
0.312478,0.810622,0.332447,-0.764433,0.268567,0.586101
0.004507,-0.388784,-0.784184,0.913751,-0.404797,0.034622
-0.187702,0.023622,0.377976,0.893049,0.390897,0.222853
-0.465830,-0.186219,0.894900,0.061488,0.439730,-0.896023
0.076272,-0.260483,-0.377359,0.831858,-0.530357,-0.163506
-0.135953,-0.109797,0.749995,-0.286040,0.464403,0.838159
0.094301,0.257844,0.866711,0.694756,-0.285455,-0.660174
0.182745,-0.651227,0.599919,-0.222607,0.148460,0.963538
0.336188,-0.710864,0.607791,-0.255820,-0.188944,-0.948080
-0.112242,0.742115,0.384103,-0.346967,-0.340791,0.873770
0.367653,-0.504858,-0.940174,-0.124054,0.177692,0.976236
-0.412821,0.202046,0.676680,0.100565,-0.205797,0.973414
0.011900,-0.386150,-0.866030,0.994304,-0.050216,-0.094011
-0.350792,-0.103323,0.755930,0.816609,0.333566,0.471045
0.245764,0.405168,0.754143,-0.128487,-0.753245,0.645069
0.269384,-0.086216,-0.946408,0.273764,-0.139070,-0.951689
-0.628650,0.492143,0.391209,-0.448439,0.561613,-0.695337
0.201407,0.072223,-0.965087,0.439884,-0.259130,-0.859857
-0.174810,0.008350,0.514180,-0.486258,-0.415919,0.768482
-0.445726,0.212917,0.929175,-0.091301,0.924594,-0.369852
-0.601874,-0.122907,0.901602,0.826567,-0.555473,-0.090755
0.243508,0.200207,0.315129,-0.135694,-0.100346,0.985656
-0.182112,0.320755,0.886199,0.476844,-0.861947,-0.172244
0.096827,-0.338744,-0.497755,0.937810,-0.122136,0.324953
0.007753,-0.037215,0.909325,0.219630,0.744052,-0.630991
-0.353587,-0.322994,0.897156,-0.895764,0.400924,0.192008
0.110350,-0.658740,0.678531,0.613069,0.463449,-0.639814
-0.160745,-0.202046,0.860583,0.293372,0.091959,0.951565
0.294176,-0.182061,0.844138,-0.491001,0.766973,-0.413122
0.300757,-0.244094,0.889603,0.801640,0.555802,0.220129
-0.079337,-0.169351,0.858009,0.123343,-0.733398,0.668516
0.272900,-0.887766,0.635959,0.676007,-0.695061,-0.244752
0.215199,0.290700,0.319256,-0.474859,-0.074871,-0.876871
-0.137395,-0.153607,0.864009,0.184126,-0.122081,0.975292
0.274251,-0.737162,0.612386,0.202087,-0.286429,-0.936546
-0.158492,0.258800,0.635279,0.734065,0.135215,0.665481
-0.575368,0.378153,0.337106,0.419745,0.779140,0.465569
0.336549,-0.320760,-0.947727,0.178116,-0.103118,-0.978592
-0.223404,-0.003398,0.731421,-0.467848,0.603933,-0.645278
0.189145,-0.307806,0.920005,-0.334434,0.150041,0.930399
-0.196988,0.414605,0.404612,0.964530,-0.010563,0.263763
0.332672,-0.085099,-0.950918,-0.172953,0.147626,0.973804
0.029841,-0.062396,-0.967811,-0.207592,0.270135,0.940177
0.112694,0.439625,0.376593,0.840087,-0.541599,0.030407
-0.358636,0.252487,0.958152,0.823984,-0.326615,0.463004
-0.608095,-0.054160,0.536306,0.837512,-0.539842,-0.084521
-0.136223,0.161115,-0.984661,0.178064,-0.230713,-0.956590
0.366120,0.236581,0.671446,0.919241,0.294401,-0.261387
-0.155518,0.596947,0.373933,-0.175149,-0.103883,0.979046
-0.139291,-0.383749,0.751973,0.310352,-0.873747,-0.374498
-0.217634,-0.463371,0.897602,0.755058,0.150674,0.638110
-0.411197,0.177343,0.898900,-0.154290,0.973813,0.166982
-0.661107,0.135295,0.656128,-0.405590,0.775584,-0.483701
0.280111,0.755147,0.320873,-0.821836,0.195808,0.535019
-0.564731,-0.006599,0.642746,0.357644,-0.329199,0.873910
-0.509105,-0.151445,0.785992,0.947540,0.004855,-0.319601
-0.649838,0.007633,0.760122,0.353590,0.792172,-0.497431
-0.811213,-0.429954,0.590069,-0.191835,0.905504,0.378500
-0.596374,-0.004276,0.923962,0.561474,-0.345078,0.752109
0.117561,0.337944,0.909942,-0.781776,0.610013,0.129268
0.025334,-0.218913,0.163458,0.918362,-0.265147,-0.293783
-0.092950,-0.324673,-0.962534,-0.215779,0.197585,0.956243
-0.779749,-0.067192,0.622641,-0.216702,0.904398,-0.367566
-0.155969,0.100522,0.936196,0.229128,-0.082371,0.969905
-0.310494,0.109397,0.581601,-0.586733,0.044446,-0.808560
0.558329,-0.207965,0.842180,0.746343,-0.316484,-0.585500
0.444285,0.267836,-0.968768,-0.243769,-0.370397,0.896316
-0.473223,-0.190136,0.914856,-0.361333,-0.619449,-0.696937
-0.514693,0.259122,0.971555,-0.432662,0.827967,-0.356755
0.364678,-0.359768,0.604642,-0.359505,-0.267597,-0.893951
0.115399,0.223627,0.767419,-0.484807,0.048148,0.873295
0.040841,-0.216835,0.135715,0.613285,-0.785227,0.085439
-0.197079,0.245934,0.569006,-0.335049,-0.597390,0.728606
0.319059,-0.642913,0.606621,-0.192313,-0.027600,-0.980945
-0.485034,-0.294378,0.701806,-0.405259,0.717150,0.566975
-0.398305,0.251686,0.423866,0.202875,0.879570,-0.430348
0.402633,0.205242,0.324660,0.536646,-0.077401,-0.840250
0.134603,0.648504,0.351318,0.849985,-0.524918,0.044575
0.162008,0.180861,0.918090,-0.670505,-0.126999,-0.730955
0.223225,-0.571927,0.598877,-0.187234,-0.005260,0.982301
0.670844,-0.198929,0.600111,-0.322463,-0.218643,0.920985
0.005770,0.600621,0.356679,0.321353,-0.577241,0.750684
0.479265,0.150806,0.433930,0.384976,-0.839119,-0.384282
-0.186891,-0.030419,0.746378,-0.238830,0.038924,0.970281
-0.130453,0.082855,0.888071,0.854400,0.224523,0.468604
-0.719886,-0.176470,0.673851,0.922178,0.315172,-0.224174
0.345114,-0.581041,0.607302,-0.452931,-0.161600,-0.876777
0.026146,0.122907,0.910048,-0.070322,-0.812884,0.578164
0.035792,0.785202,0.400443,0.399420,-0.243265,0.883904
-0.106924,0.050482,0.781014,-0.681234,-0.458225,-0.570920
0.192122,-0.206842,0.776823,0.097168,0.989239,-0.109381
-0.185089,-0.765861,0.760483,-0.271709,0.815138,0.511590
0.017760,-0.156563,0.716593,0.865789,-0.385988,0.318469
0.106655,-0.234824,-0.049635,-0.588789,0.799591,-0.118244
-0.094392,-0.018026,0.529243,-0.565651,-0.621224,-0.542328
0.101243,-0.277111,-0.075931,0.757210,-0.581975,0.296543
0.353318,0.183257,0.922218,0.031797,-0.095030,-0.994966
-0.634780,-0.341540,0.688169,0.454349,0.209099,0.865936
-0.583303,0.209960,0.975002,-0.898967,0.178042,0.400199
0.405879,-0.381114,0.595132,-0.110601,-0.282141,-0.952976
0.336367,-0.018587,0.691892,-0.550889,0.828843,0.097675
0.124324,-0.637799,0.762249,-0.474644,0.604573,0.639692
0.483771,-0.152645,0.817203,0.401409,0.633298,-0.661668
-0.615127,-0.266880,0.685616,0.087382,-0.914143,0.395863
-0.189686,0.638756,0.357828,-0.071552,-0.121276,0.990037
0.097999,-0.571766,0.748782,0.113034,0.622209,0.774648
0.010909,-0.445304,0.912367,-0.576869,0.457927,0.676406
0.109538,-0.116755,-0.960109,-0.056368,0.324795,0.944103
-0.436080,-0.401894,0.800757,0.029303,-0.295990,0.954741
-0.620357,-0.231706,0.593537,0.221728,-0.465182,-0.856996
0.282186,-0.151289,-0.952429,-0.162805,0.070234,0.984155
-0.448791,0.244334,0.675383,0.912465,-0.353327,-0.206321
-0.649747,0.385906,0.358573,-0.628280,0.271304,-0.729149
-0.337721,0.768574,0.368721,0.145831,-0.092982,0.984930
0.466642,0.158876,-0.961024,-0.005455,0.381734,0.924256
-0.224034,-0.244577,0.894475,0.589800,0.255699,0.765999
0.169041,0.140253,0.921771,0.462926,-0.400689,0.790663
0.091057,0.934849,0.417314,0.962936,0.086381,-0.255525
0.074827,-0.395420,-0.620599,0.974573,0.220914,-0.037464
0.266498,0.025540,-0.960066,-0.120444,0.279781,0.952479
-0.080869,0.171830,0.881050,-0.882617,0.429597,-0.190877
-0.514784,0.222748,0.985831,-0.224996,0.548983,-0.804981
-0.257303,-0.252091,0.895773,-0.480505,0.345552,-0.806045
0.129193,0.108197,-0.978023,-0.156845,0.181626,0.970779
-0.551027,0.005233,0.925111,-0.034158,-0.392815,0.918983
0.252524,0.638356,0.318086,0.610642,-0.128965,0.781335
0.462765,0.099483,-0.955386,-0.211358,-0.343540,-0.915046
0.037415,-0.871621,-0.930983,-0.112514,0.044163,0.992668
-0.081408,-0.021466,0.764121,0.825013,-0.286903,0.486868
-0.027948,-0.051921,0.430462,-0.773886,0.031616,0.632535
-0.164083,-0.929575,-0.939855,0.088909,-0.022406,0.995788
-0.284439,0.154641,0.674489,0.691576,-0.266580,0.671311
0.280020,-0.324195,0.802076,0.123083,-0.809916,0.573487
-0.353409,0.013147,0.917090,-0.005009,-0.493318,0.869834
-0.455012,-0.348898,0.713167,0.445457,0.891927,0.077685
-0.557969,-0.386228,0.677914,0.453732,0.522099,0.722177
-0.576001,0.000037,0.774227,0.644295,0.690146,0.329520
0.044175,-0.312363,0.674212,-0.534127,0.173251,-0.827462
0.170934,0.324512,0.326681,-0.387204,0.210418,-0.897662
-0.097096,0.135373,0.347659,-0.410839,0.208116,-0.887637
-0.506580,-0.260962,0.735442,-0.681122,-0.731284,0.036000
-0.377480,-0.258566,0.887326,0.167349,-0.882091,0.440352
0.445996,0.128343,0.340340,-0.552245,0.320523,0.769604
-0.664711,0.166312,0.819586,0.517074,0.664301,-0.539758
0.018393,-0.293417,-0.219986,0.983855,-0.166771,-0.064933
-0.032636,-0.302610,0.585899,0.631570,0.725446,0.273583
0.360529,0.095726,0.439717,-0.534993,0.445835,0.717645
0.267851,-0.337305,-0.944599,-0.055434,0.228219,0.972030
-0.673097,0.648104,0.367402,-0.007787,0.105672,0.994371
-0.338711,-0.684961,0.743761,-0.085823,0.788809,0.608618
0.004598,-0.222275,0.439504,0.927329,0.050144,-0.370873
0.156421,-0.332670,0.687339,-0.290431,-0.558124,-0.777269
0.423818,-0.137457,-0.942727,-0.111154,0.143325,0.983414
-0.550125,-0.283508,0.675787,-0.007716,-0.971401,0.237321
-0.542371,-0.600304,0.794588,-0.568364,-0.681134,-0.461539
0.042282,-0.316759,-0.794864,0.922691,-0.369631,0.109609
-0.683374,0.056717,0.796822,-0.686927,0.469511,-0.554699
0.501352,-0.197889,-0.953216,-0.018841,0.089724,0.995788
-0.372159,-0.041690,0.934642,-0.620612,0.643497,-0.448054
0.408584,-0.663937,0.484012,-0.463208,0.886159,0.012692
-0.436619,0.276150,0.971300,0.608449,-0.744349,0.275199
0.350974,0.160076,-0.965875,-0.141967,0.251104,0.957493
0.214479,0.203886,0.666915,0.889805,-0.450554,-0.072445
-0.244228,0.276628,0.858307,0.804071,-0.236325,0.545546
-0.703659,0.063509,0.525179,0.818574,0.235670,0.523829
0.086188,-0.238181,0.460524,0.993464,-0.004233,0.114063
0.334656,-0.280307,0.605685,0.125510,-0.107860,0.986212
-0.488190,0.351210,0.388422,-0.335624,0.374497,0.864355
0.256131,-0.731005,0.716784,0.945189,-0.289881,-0.150290
0.023350,-0.247695,0.103440,0.829331,-0.523120,0.196358
0.002253,0.604460,0.365445,-0.381370,0.166893,-0.909232
-0.716282,0.036649,0.786503,-0.185637,0.707887,0.681495
-0.201225,-0.231306,0.640576,0.716608,-0.520129,0.464692
0.489181,-0.031458,0.943961,-0.585488,0.484910,0.649667
-0.553641,-0.006438,0.633513,-0.223400,-0.027537,0.974338
0.094574,-0.184701,0.865370,-0.337057,0.616197,0.711824
-0.113324,0.153523,0.904091,0.112111,0.985702,-0.125792
0.205375,0.220992,0.893964,0.048526,0.984619,-0.167843
-0.800486,-0.394542,0.622258,-0.427571,-0.332126,-0.840759
-0.254689,0.439786,0.417207,-0.636212,0.118579,-0.762347
-0.477641,0.189175,0.639597,0.486730,-0.530185,0.694261
-0.009827,0.414766,0.432972,0.906417,-0.418248,-0.058960
-0.362873,0.544584,0.385720,-0.676366,-0.402080,-0.617139
0.342139,-0.078863,0.936919,0.878386,0.239349,-0.413703
-0.052470,-0.069827,0.548518,-0.503199,-0.488583,-0.712796
-0.082944,-0.186301,0.956790,-0.781664,0.589695,0.203129
0.154255,0.162794,0.863626,-0.408567,-0.054555,0.911097
0.081500,-0.069588,-0.968385,0.243948,-0.267841,-0.932068
-0.093129,0.201485,0.875072,0.739949,0.428615,0.518425
0.139379,-0.627646,0.744442,-0.520610,0.663433,0.537422
-0.141904,-0.133939,0.747569,0.028352,-0.017445,0.999446
-0.395870,-0.132739,0.406314,-0.030345,0.865443,0.500087
-0.649477,-0.196455,0.928558,-0.576383,-0.533071,-0.619369
0.425892,0.177421,0.333319,-0.494004,0.388880,0.777645
-0.705373,0.153841,0.356935,0.532043,-0.691260,0.488967
0.611611,-0.202929,0.846627,-0.716770,0.502058,0.483919
-0.562115,-0.667933,0.828926,0.682760,0.632700,0.365417
0.001263,0.324273,0.855733,0.101803,0.898070,0.427908
-0.593851,-0.091652,0.642767,-0.223838,-0.189472,0.956032
-0.360438,0.158559,0.895837,-0.004827,0.830984,0.556275
-0.196810,-0.217396,0.869264,-0.319993,-0.340432,-0.884144
0.578163,-0.204686,-0.929451,-0.054685,0.038921,0.997745
0.166787,-0.145610,0.914750,0.046057,0.042271,0.998044
0.109087,-0.364003,-0.938663,0.106190,0.417540,0.902432
0.441580,0.021622,0.462864,0.830458,-0.186190,-0.525045
0.483953,-0.173991,-0.942982,0.173295,-0.209763,0.962272
0.502794,0.143531,0.478459,0.879601,0.457869,-0.129068
-0.285251,-0.518207,0.752846,0.954840,-0.061012,0.290788
0.044896,-0.271993,0.218816,0.987459,0.128060,0.092334
-0.600972,0.327552,0.386316,-0.474260,-0.243021,-0.846179
-0.007662,-0.273516,0.414037,0.995610,0.092938,-0.011105
0.087811,-0.257126,-0.450184,0.985412,-0.147742,-0.084467
-0.591147,-0.327396,0.796609,0.209992,-0.493462,0.844037
-0.003516,-0.011790,0.373593,0.730435,0.631745,0.259544
-0.119096,0.219152,0.634981,-0.699565,-0.310663,-0.643503
-0.337990,0.411248,0.716593,0.068473,-0.881382,0.467416
-0.593400,-0.311963,0.771015,0.952260,0.284418,0.110941
0.310133,0.268475,0.667723,0.847406,0.051917,-0.528401
-0.675172,0.118267,0.767930,-0.527621,0.525621,0.667337
0.181573,-0.792082,0.614578,-0.016569,0.678929,0.734017
0.364766,-0.242177,0.777674,0.032123,-0.989050,0.144040
0.052831,-0.313963,-0.075782,0.899097,-0.326509,0.291576
0.008205,-0.333787,-0.556901,0.992015,0.081956,0.095861
-0.612874,0.074302,0.757781,-0.286952,-0.262765,0.921202
-0.526505,-0.000842,0.488522,0.750849,0.093777,-0.653783
0.023441,-0.277990,0.036998,0.902915,0.388062,-0.184804
0.335468,-0.873299,0.645129,-0.044712,0.821248,0.568816
0.760999,-0.203169,0.616131,-0.545536,-0.148470,0.824832
-0.009827,-0.523726,0.913665,0.005434,0.661561,0.749872
-0.180401,-0.515251,-0.952514,0.210630,-0.220048,-0.952478
0.062928,-0.291739,-0.642746,0.937736,-0.347010,-0.015365
-0.153894,-0.454818,0.614025,-0.272689,-0.067688,0.959718
0.023169,-0.520764,0.921537,0.284481,0.462228,0.839890
-0.319689,-0.576884,0.694913,0.949849,0.302931,-0.077580
-0.457716,-0.366882,0.713912,0.524971,0.794148,0.306160
0.602777,-0.553781,0.534583,0.379187,0.017508,-0.925154
-0.581228,0.140569,0.503564,0.717003,-0.318845,0.619874
0.502703,0.138013,0.473629,-0.453495,0.619259,0.640984
-0.362243,-0.350015,0.808161,-0.619216,0.262899,-0.739902
-0.619364,0.113554,0.512393,-0.718658,0.097418,-0.688506
-0.224485,0.086934,0.418165,0.027080,-0.599140,0.800186
0.093490,-0.185901,-0.035466,-0.539436,0.841136,-0.038723
-0.582131,-0.151289,0.642746,-0.476653,-0.538297,0.695010
-0.250722,0.184857,0.409676,0.808725,0.141263,-0.570972
-0.614948,-0.001403,0.513712,0.442548,0.221371,0.868991
-0.066084,0.608778,0.376338,0.292003,-0.197428,0.935819
-0.803551,-0.111959,0.622194,-0.538583,0.546773,-0.641067
-0.544264,-0.657145,0.849988,0.495660,0.634332,0.593248
-0.400107,0.242094,0.957896,-0.425634,0.790951,-0.439582
-0.216193,0.176943,0.866136,0.111518,0.882796,0.456327
0.455194,-0.265040,0.830032,-0.624524,-0.072229,0.777658
-0.545076,0.551542,0.357403,0.916210,-0.049632,-0.397613
-0.407321,0.516524,0.455545,0.902266,0.427082,0.059303
-0.520735,-0.133700,0.936408,0.343762,0.350114,0.871348
-0.477641,0.213878,0.978023,-0.330190,0.868052,-0.370756
-0.410565,0.064470,0.920005,0.910479,-0.289568,0.295259
0.410928,-0.546667,0.592834,0.094417,0.151007,0.984013
0.418681,-0.712942,-0.926920,-0.140851,0.125408,0.982056
0.463126,-0.060957,0.943280,0.593190,-0.405505,-0.695479
-0.541560,-0.280390,0.644895,0.582864,0.790545,-0.187906
-0.316805,0.398055,0.425632,-0.570794,-0.719927,0.394841
-0.446538,0.251208,0.412335,0.509489,0.652974,-0.560398
-0.430399,-0.214917,0.694892,-0.489604,0.712603,0.502479
-0.097278,0.055117,0.930855,0.071819,0.090699,0.993285
0.073837,0.309162,0.873348,-0.682620,0.682906,0.260131
-0.633159,0.411648,0.330277,0.917469,0.176665,0.356426
-0.036964,0.488787,0.318618,0.767977,0.327263,0.550554
0.342860,0.104601,0.440631,-0.534993,0.445835,0.717645
0.008205,-0.147210,0.868987,0.355917,-0.890369,0.283841
-0.123694,0.345536,0.370934,0.367430,-0.481636,-0.795627
-0.158853,0.161677,0.921707,0.125395,0.969716,-0.209588
0.366299,0.131699,-0.963300,0.305086,-0.186688,-0.933847
-0.449152,0.375591,0.720826,-0.062750,-0.324512,0.943798
-0.387665,-0.433311,0.828011,-0.147317,-0.985178,-0.087873
0.312296,-0.329630,0.790311,-0.567402,0.449171,-0.690145
-0.244410,0.350654,0.397081,0.943609,0.251763,-0.214982
-0.519654,-0.223709,0.728485,-0.297215,0.307560,-0.903919
-0.178687,0.564408,0.373402,-0.161810,-0.214759,0.963170
0.426074,-0.542588,-0.931302,-0.219540,0.167432,0.961129
0.092139,-0.325956,0.578474,0.641057,0.759940,-0.107413
-0.402993,0.202525,0.970704,-0.317908,0.697726,-0.641960
-0.238280,0.765778,0.411782,-0.476996,0.166231,0.863042
0.187794,0.337222,0.740166,0.268671,-0.204962,-0.941173
0.257933,-0.074067,-0.955279,0.233057,-0.166842,-0.958044
-0.397584,-0.043529,0.370445,0.429251,-0.144708,-0.891517
0.116301,0.521564,0.325426,0.392883,0.067023,0.917143
-0.087720,0.425314,0.371849,-0.080763,0.424851,0.901654
-0.187612,0.074702,-0.989533,-0.233205,0.127454,0.964039
-0.597728,0.212439,0.759866,0.902930,-0.297595,-0.310088
-0.262530,-0.553064,0.748505,0.574304,0.723280,0.383459
-0.608186,-0.216996,0.730528,0.580596,0.765515,-0.277301
0.339614,0.158637,0.314086,0.447214,0.178232,-0.876489
-0.467184,0.252247,0.376295,0.199692,0.127508,0.971527
0.323838,-0.006355,0.629364,0.644788,0.352468,-0.678244
0.125226,-0.298696,-0.115354,0.952194,0.271246,0.140541
0.549855,-0.623328,-0.922409,-0.224187,0.106668,0.968691
-0.605660,0.118111,0.653299,-0.262418,0.205462,-0.942827
-0.737827,0.059035,0.566623,0.884151,0.338001,0.322540
-0.667146,0.244973,0.397358,0.950583,-0.217149,0.221898
-0.056165,-0.242338,0.859562,0.352724,0.309203,0.883164
0.156960,0.273989,0.320639,0.092978,-0.120910,0.988299
-0.468174,-0.374718,0.896134,0.929929,-0.366891,0.024964
0.349260,0.059991,0.926388,-0.644620,-0.334623,0.687381
0.138298,-0.367843,0.596494,-0.610291,0.375698,0.697421
0.081139,0.157998,0.729336,0.814953,-0.072655,-0.574955
-0.050035,-0.408052,0.884263,-0.371131,-0.555585,-0.744035
0.308059,0.216752,0.915197,-0.563719,0.287585,0.774284
0.359539,-0.134339,-0.933621,-0.087706,0.063388,0.994128
-0.312747,0.279907,0.426441,0.287520,-0.236302,0.928167
-0.224306,0.377030,0.406293,0.963168,0.258589,0.073757
0.606202,-0.613414,0.603366,0.963575,-0.092617,-0.250887
-0.160385,0.103239,0.665021,0.018261,-0.045687,0.998789
-0.286423,0.191254,0.616641,0.363152,-0.639923,0.677215
0.046971,0.175026,0.432355,-0.434973,-0.359831,0.825421
-0.573024,-0.192054,0.872263,0.716792,0.092584,0.691113
-0.005139,-0.239142,0.828564,-0.906838,0.131639,0.400394
0.188424,0.102761,0.914984,0.736157,0.061957,-0.673969
0.207628,0.553059,0.323064,0.403526,0.201979,0.892397
-0.882978,-0.365443,0.628598,0.986568,0.057024,0.153077
-0.541472,-0.013313,0.837542,0.870313,-0.394498,-0.294835
-0.209972,-0.286704,-0.966492,0.191168,-0.241754,-0.951320
0.376217,0.087573,0.441504,-0.681483,0.028542,0.731278
0.308510,0.253848,-0.972470,-0.040964,0.020505,0.998950
-0.372250,0.232824,0.695849,0.232216,-0.569801,0.788291
-0.615127,0.596146,0.374274,-0.720912,0.654883,0.226747
-0.500810,0.132900,0.359211,0.633338,0.771051,-0.066056
0.415704,0.096365,0.959343,-0.535703,0.522504,-0.663334
-0.074019,-0.739002,0.680850,0.114953,-0.729238,0.674535
0.088713,0.197889,-0.972768,0.235308,-0.336220,-0.911913
0.460963,-0.437707,0.595962,-0.130751,-0.181888,0.974588
-0.373331,0.706463,0.381720,-0.048232,0.361338,0.931187
-0.449152,0.499979,0.375146,-0.640509,0.249496,-0.726292
-0.060765,-0.049603,0.809268,0.913944,0.196543,0.355073
0.196628,0.789998,0.395804,-0.468941,0.714254,-0.519553
0.073116,0.207399,0.749548,0.976106,-0.140559,-0.165714
-0.465830,-0.395342,0.818650,0.500560,0.165027,-0.849827
-0.212586,-0.489670,0.797141,0.436606,0.088869,-0.895253
-0.575819,0.068788,0.937706,-0.728804,0.206582,-0.652816
-0.173638,0.736201,0.381337,0.546004,-0.557895,0.625006
-0.682744,0.354167,0.364445,0.920662,-0.028202,0.389340
0.030653,-0.301570,-0.420697,0.993987,-0.029084,0.105562
-0.565722,-0.023861,0.592175,0.290447,-0.953421,0.081417
-0.416876,0.341140,0.693147,-0.396505,0.665837,-0.632017
0.132798,0.529635,0.327809,0.037654,-0.074491,0.996511
-0.533988,0.227945,0.986150,0.738154,-0.557499,0.379899
-0.526595,0.508932,0.338489,0.683307,0.360479,-0.634937
-0.890462,-0.461054,0.653363,-0.842680,-0.097956,-0.529429
-0.338623,-0.289021,0.907921,0.927505,0.355353,-0.116009
-0.742697,0.041290,0.558092,0.909538,0.363960,0.200682
-0.195274,0.169507,-0.990001,-0.234318,0.278128,0.931526
-0.165794,-0.877373,-0.940876,-0.151462,0.146524,0.977543
-0.137576,0.290700,0.620535,0.421968,0.586182,0.691617
-0.817615,-0.294140,0.596345,0.610120,-0.169411,-0.773986
-0.247384,0.562890,0.389720,0.931238,-0.335298,0.142724
0.270647,0.173825,0.689935,0.203629,0.847612,0.489990
0.804814,-0.821337,0.536796,0.725932,0.374489,0.576872
0.503154,-0.326434,-0.938195,-0.133357,0.128814,0.982661
0.284890,0.427315,0.322213,0.452191,-0.305233,-0.838067
-0.631354,-0.329074,0.677957,0.716736,0.369616,0.591332
-0.390370,0.036888,0.341106,-0.368007,0.395511,0.841512
0.386045,-0.622050,-0.930877,-0.114514,0.145815,0.982662
0.569329,-0.553381,-0.924473,-0.144475,0.190194,0.971058
0.066084,-0.206925,0.369976,0.975534,-0.112057,0.189147
-0.411649,-0.137296,0.703019,0.288260,0.252134,0.923761
0.484674,-0.241538,0.698338,-0.268365,-0.571139,0.775745
-0.293906,-0.679047,0.722145,0.053125,-0.699521,-0.712634
-0.385233,-0.028418,0.667723,0.194691,0.349271,0.916572
-0.039217,0.233063,0.423016,0.244933,0.164118,-0.955549
0.184008,0.262557,0.751441,0.195489,0.798116,0.569908
0.229894,0.659380,0.346020,0.618638,-0.727204,0.297425
0.311848,0.450417,0.318427,-0.517978,0.295209,0.802839
-0.267491,-0.517647,0.689530,0.745985,-0.660872,-0.082183
0.193563,0.337622,0.738081,0.126822,0.200821,0.971384
-0.251712,-0.422601,0.801183,-0.184873,-0.593748,0.783125
0.338081,-0.581358,-0.931877,-0.160779,0.170931,0.972077
-0.556258,-0.228349,0.740442,-0.735943,-0.647297,-0.198479
-0.342948,0.324190,0.651788,-0.516625,0.844704,0.139907
-0.318698,0.246251,0.867945,0.821983,-0.352854,0.447033
-0.408311,-0.177587,0.886518,-0.617267,0.746993,0.246949
0.347188,-0.391185,0.657575,-0.169348,-0.985540,0.005646
-0.697078,0.024100,0.792183,0.058442,0.461771,0.885072
0.490804,-0.211799,0.809693,0.986939,-0.101792,-0.124862
0.056077,-0.419884,-0.798332,0.941357,-0.310113,0.132956
-0.230076,0.321155,0.415208,0.319276,-0.239938,-0.916784
-0.379552,-0.549385,0.651107,0.920031,0.389917,-0.038831
-0.644156,0.046642,0.515499,0.332151,-0.037515,0.942480
-0.350613,-0.166873,0.758462,0.799165,0.541901,0.260149
0.359629,-0.225393,0.562964,0.463668,0.544315,-0.699095
0.214388,0.168468,0.771227,-0.497294,0.068179,0.864899
0.036964,0.880969,0.410484,0.739668,0.568612,-0.359960
-0.530923,-0.055039,0.760207,0.708914,0.704858,-0.024817
0.644968,-0.504619,0.530583,0.065149,-0.160994,-0.984803
-0.619364,-0.081981,0.873817,0.513757,-0.856782,-0.044479
-0.316984,-0.547624,0.694424,0.988069,-0.133053,-0.077565
0.104941,-0.026340,0.884476,-0.134784,-0.379825,0.915186
-0.349802,-0.411092,0.881646,0.123097,-0.502245,-0.855919
0.029932,-0.274711,-0.071166,0.786050,-0.609978,0.100258
-0.157771,-0.541549,0.594813,-0.398289,0.277220,0.874365
-0.116570,-0.333626,0.720656,-0.558846,0.536001,-0.632767
0.148937,-0.835486,-0.934217,-0.093653,0.186265,0.978026
0.553553,0.188936,-0.956407,-0.384347,0.126258,0.914514
-0.902092,-0.433794,0.624130,0.993585,-0.028748,-0.109375
-0.361250,-0.564652,0.657724,0.157531,0.950927,0.266313
0.197891,-0.369600,0.612216,-0.023090,0.796969,0.603578
-0.326361,-0.362247,0.929366,0.460503,0.589924,0.663270
-0.347188,0.053756,0.903411,-0.142887,0.212391,-0.966682
0.320591,-0.624528,0.439100,0.937522,-0.040501,-0.345560
-0.515144,0.001476,0.659915,-0.473145,0.450517,0.757079
-0.271095,-0.706385,0.617131,0.406060,0.821879,0.399538
-0.731879,-0.195255,0.613025,-0.197424,-0.467862,0.861469
-0.686169,-0.200129,0.664894,-0.594250,-0.561121,-0.576203
-0.086457,0.726926,0.377061,0.041931,-0.230144,0.972253
-0.162190,-0.725409,0.743016,0.241510,-0.845752,-0.475791
-0.567436,-0.237064,0.690445,0.129533,-0.849925,0.510733
0.048594,-0.261205,-0.165351,-0.641240,0.763082,0.080731
-0.389110,0.334582,0.701381,0.157848,-0.854989,0.494043
0.302199,-0.017230,0.665468,-0.663059,0.005026,-0.748550
-0.588170,0.578240,0.429015,-0.430809,0.804445,-0.408988
0.046610,0.838360,0.388358,0.763538,-0.181640,-0.619691
-0.538767,0.152001,0.919644,-0.564316,0.386972,-0.729247
-0.389830,-0.424758,0.890113,0.126056,0.622086,0.772735
-0.046701,0.256805,0.416995,-0.205100,0.168215,0.964177
-0.355662,-0.120912,0.387401,0.497961,-0.745879,-0.442379
0.110531,-0.681765,0.603983,0.420132,0.227305,0.878534
-0.266858,0.059591,0.414293,0.083515,-0.676841,0.731376
0.293725,-0.542110,0.620471,-0.189033,-0.362158,-0.912748
-0.191579,-0.682721,0.688807,-0.369307,-0.903591,-0.217109
0.225657,0.266875,0.917558,0.967042,0.192019,0.167207
0.101064,-0.406134,0.625492,0.205833,0.271233,-0.940247
-0.614767,-0.076224,0.874689,0.513757,-0.856782,-0.044479
-0.326903,0.395659,0.415527,0.603189,0.760478,-0.240492
-0.725207,0.064548,0.673659,0.002137,-0.465323,0.885138
0.595202,-0.467845,0.600557,0.042490,0.035969,0.998449
0.093041,-0.346180,-0.407846,0.885810,0.419784,0.197795
-0.001172,-0.578723,0.593983,-0.379025,0.150588,-0.913052
-0.836187,-0.307167,0.582112,0.374403,0.246303,-0.893956
-0.107194,-0.221553,0.726996,0.677703,0.313730,0.665051
0.048863,-0.215156,0.053231,-0.784713,-0.406709,0.467775
-0.150648,-0.318760,0.890773,0.501627,0.076699,0.861677
0.303913,-0.213561,-0.951322,-0.081869,0.104968,0.991100
-0.347909,-0.408691,0.882071,0.245530,-0.619633,-0.745500
0.189235,-0.210999,0.787567,0.507834,0.160808,-0.846313
-0.684546,0.300292,0.365381,0.996151,-0.075322,-0.044824
-0.464119,0.579440,0.388209,-0.648348,0.295512,0.701654
-0.401911,-0.389667,0.869817,0.921179,-0.353018,-0.163729
0.284260,0.030814,0.903751,0.982413,0.105672,0.153943
-0.610709,-0.206603,0.668085,-0.388684,0.165507,-0.906384
0.367022,-0.778733,-0.923643,-0.239093,0.161503,0.957471
0.050308,0.875612,0.399272,0.872033,0.383579,0.304014
0.757934,-0.598386,0.602919,0.861307,-0.370913,-0.347239
0.369185,-0.595829,0.448652,0.962982,-0.225755,-0.147310
0.420934,-0.817180,0.629322,0.950201,0.149715,0.273321
0.284981,-0.373596,0.667042,0.497428,-0.594600,0.631678
0.116931,-0.291422,-0.952577,0.069499,0.107797,0.991741
0.103587,0.846435,0.408336,-0.553119,0.091919,0.828016
0.280923,-0.113398,0.905113,-0.272499,0.625665,0.730950
0.270825,0.202847,0.932047,-0.234589,0.713022,0.660733
-0.013253,0.033693,0.888347,0.138605,-0.951820,-0.273546
-0.566173,0.220831,0.960109,-0.752113,-0.536887,-0.382202
-0.853316,-0.428115,0.579048,-0.550922,-0.743632,-0.378809
0.011000,-0.048725,0.917367,-0.132063,-0.692496,0.709231
-0.440408,0.775927,0.398081,0.898614,0.036819,0.437191
0.938332,-0.491909,0.560794,0.520577,0.006581,-0.853790
0.108187,-0.303571,-0.281386,0.963869,-0.252079,-0.086094
0.377659,-0.330191,-0.944195,-0.254160,0.124908,0.959062
0.368734,0.208282,0.925303,-0.623216,0.049575,0.780477
-0.216011,-0.222831,0.803778,-0.101276,0.069397,0.992435
0.301929,-0.276711,0.751910,-0.428018,0.560191,0.709216
-0.296250,0.393580,0.432930,-0.590072,0.325199,-0.738959
-0.055356,0.070227,0.922026,0.581348,0.199553,0.788805
-0.252793,0.211161,0.666213,-0.325246,-0.348896,-0.878912
-0.318156,-0.650588,0.713125,-0.444622,-0.562506,-0.697064
-0.465921,-0.240181,0.884029,-0.075613,-0.954796,0.287484
0.668591,-0.579679,0.636342,0.799980,-0.031343,-0.599208
-0.628650,0.153841,0.828777,-0.013650,-0.653331,0.756949
0.295709,-0.641634,0.437121,0.877954,-0.334927,0.342082
-0.020915,-0.211883,0.478587,0.849921,0.510506,0.130450
-0.272900,-0.048964,0.891411,0.468355,-0.626843,0.622664
-0.741704,-0.012112,0.792098,0.015249,0.243196,0.969857
-0.016588,-0.312124,0.619705,-0.059796,-0.473396,0.878818
-0.401009,0.890000,0.375529,-0.560490,-0.046432,-0.826858
0.404526,-0.226271,0.581133,-0.611843,-0.021577,0.790685
-0.155787,0.719173,0.382444,0.042160,-0.727787,0.684506
-0.104759,0.190932,0.862073,0.538939,-0.333092,-0.773689
-0.122973,-0.448661,0.880880,0.975745,-0.195414,-0.098666
0.491976,0.209638,-0.966109,-0.332752,0.129644,0.934060
0.476109,0.023378,0.748995,0.923256,-0.361337,-0.130517
0.363955,-0.159120,0.763058,0.948598,0.216014,-0.231302
0.195638,0.444743,0.754526,0.927132,0.251171,-0.278100
-0.622338,-0.300614,0.680148,0.812638,0.199296,0.547631
-0.022178,-0.142575,0.844414,0.749601,0.652615,-0.110412
0.300578,0.211878,0.318490,-0.250119,-0.561171,0.789004
-0.548592,-0.059435,0.914750,-0.511008,0.347344,-0.786271
0.175080,0.141692,0.910069,-0.490786,0.859397,-0.143411
0.318068,-0.871299,0.630683,-0.090060,0.665001,0.741393
-0.502615,-0.211721,0.765015,0.489889,0.716766,-0.496241
0.444824,-0.082620,0.943238,-0.689577,0.339646,0.639628
0.444373,-0.402778,0.602259,-0.076649,-0.093805,0.992636
0.519563,-0.460253,0.604791,0.149520,-0.073516,-0.986022
-0.352506,0.695748,0.381316,0.172080,0.576990,0.798418
-0.649656,-0.190775,0.908516,0.941157,0.299615,0.156379
-0.654795,-0.182383,0.630194,0.645513,0.286492,-0.707980
0.025786,-0.226032,-0.955641,-0.136951,-0.020782,0.990360
-0.416606,-0.255765,0.809353,-0.374840,0.464589,0.802279
-0.753155,-0.391663,0.607046,-0.862822,0.307439,0.401273
-0.157320,-0.798234,0.642044,-0.130734,0.654821,0.744391
0.444373,-0.311885,0.679446,0.170132,-0.906753,0.385817
0.070502,-0.635721,-0.942536,-0.051460,-0.081219,0.995367
-0.267400,-0.168873,0.742144,-0.329705,0.634340,0.699219
-0.534528,-0.207403,0.771015,0.120229,-0.901038,0.416744
0.043906,-0.519886,-0.940238,-0.163673,-0.146345,0.975599
-0.501622,0.525477,0.386401,0.365766,-0.315540,0.875585
-0.454921,-0.553381,0.809076,0.453164,0.406369,0.793415
-0.597637,-0.008277,0.937408,0.916877,0.346288,0.198549
0.046880,-0.355372,-0.946110,-0.290530,0.489340,0.822276
-0.039938,-0.452579,0.667149,-0.592498,0.100906,0.799227
-0.094661,0.004916,0.718741,0.292532,-0.152109,-0.944080
-0.596286,-0.250969,0.893836,0.870764,0.121937,0.476341
0.608637,-0.211799,0.845755,-0.716770,0.502058,0.483919
-0.617922,-0.284147,0.599387,-0.091316,0.269729,0.958597
0.359990,0.176382,0.322256,-0.529584,-0.351415,0.772042
-0.373240,0.731800,0.374657,0.715942,0.523349,0.462096
-0.656870,0.113871,0.355126,0.240135,0.762670,0.600557
0.218897,-0.870581,0.621620,-0.250444,0.413647,0.875314
-0.579877,0.511650,0.390443,-0.352778,0.710849,-0.608475
0.060675,0.138491,0.871072,0.089645,0.622564,0.777417
0.066714,-0.423719,0.594473,0.743536,-0.004471,-0.668681
-0.200686,-0.691596,0.574219,-0.190930,0.314128,0.929984
-0.335918,-0.260483,0.816756,-0.374332,0.332872,0.865490
0.570592,-0.207487,-0.940280,-0.207287,0.135949,0.968788
0.063470,0.899915,0.360785,0.550870,0.697074,-0.458945
0.106382,-0.234985,0.023445,0.826398,-0.519802,0.216500
0.088353,-0.234663,0.087633,0.881420,-0.197719,0.428958
0.301208,-0.642112,0.603600,0.090404,0.046876,0.994801
-0.003695,0.740514,0.381848,0.200515,0.371758,-0.906416
0.391363,-0.480317,0.493032,-0.325789,0.534817,0.779636
-0.201316,-0.581358,0.708168,0.460858,0.152919,-0.874200
0.178417,-0.036015,0.888645,-0.338028,-0.094747,0.936355
0.434006,-0.511733,0.580154,0.072028,-0.174532,0.982014
0.121889,-0.187580,0.626449,-0.317136,0.465937,-0.826031
-0.774431,-0.014513,0.629598,-0.624028,0.038502,0.780453
0.351695,0.196528,-0.968619,-0.071396,0.204972,0.976160
-0.417597,0.295413,0.384890,0.962847,0.259133,0.075995
-0.078074,-0.036732,-0.974065,-0.207526,0.183779,0.960811
0.091597,-0.379753,-0.486884,-0.618880,-0.770868,0.150832
0.044808,-0.006438,0.899730,0.595607,-0.592713,-0.542167
-0.389561,-0.196455,0.710146,0.779773,-0.605726,-0.158270
0.534167,-0.359529,-0.935153,-0.250240,0.153472,0.955943
-0.152992,-0.004916,0.373019,-0.156540,0.344831,0.925520
-0.057249,-0.005799,-0.977384,-0.174204,0.208521,0.962378
-0.103947,-0.236981,0.570261,0.855790,0.112121,-0.505027
-0.094573,-0.399899,0.862817,0.881277,-0.470444,0.045096
-0.354218,-0.265680,0.727507,-0.513077,-0.253895,0.819932
-0.005048,-0.362169,0.589367,-0.347014,0.616136,-0.707077
-0.157141,-0.448500,0.708359,-0.010642,-0.611124,0.791463
0.240082,0.957552,0.444269,-0.515831,-0.332041,0.789726
-0.479353,0.453774,0.379784,0.162753,-0.003014,0.986662
0.280562,0.298453,0.737634,0.320651,-0.400179,0.858510
0.319961,-0.275672,-0.950705,-0.158775,0.079043,0.984146
-0.246754,0.189414,0.675425,0.390167,0.261385,0.882863
-0.035071,-0.325073,0.575665,0.161387,0.702497,0.693147
-0.889650,-0.415888,0.631555,0.970483,0.230805,-0.069936
0.208528,0.913586,0.436440,0.730263,0.384416,-0.564748
-0.029029,0.289978,0.702104,0.881117,0.137998,0.452316
0.453570,-0.039294,-0.955343,0.181216,-0.136774,-0.973886
-0.233410,0.262318,0.420484,-0.573937,0.774511,-0.265949
0.020195,-0.252008,0.407931,0.964304,0.130736,-0.230273
-0.584565,-0.022427,0.555156,0.670655,0.487498,-0.559077
0.282186,0.718295,0.374168,-0.697117,0.424792,-0.577563
-0.015328,-0.642034,0.625556,0.870104,-0.187904,0.455643
0.182654,0.349054,0.889220,0.013237,0.996096,0.087280
-0.044175,-0.398938,0.809076,0.661178,-0.181752,-0.727880
-0.411016,0.165673,0.377104,-0.286936,0.407577,0.866919
-0.520193,-0.574166,0.817033,0.359787,-0.716650,-0.597466
0.389198,-0.037532,0.913367,-0.302231,0.133600,0.943826
-0.331318,-0.315803,0.927409,0.142190,0.721601,0.677550
0.170573,0.302849,0.330660,0.178872,-0.117976,0.976774
0.063379,-0.264801,-0.422824,0.988432,-0.151537,0.006183
0.619004,-0.501663,0.604068,0.073030,0.241975,0.967530
-0.174271,-0.756347,0.751782,0.488166,-0.867325,-0.097169
0.246485,-0.096926,-0.950620,0.193309,-0.137015,-0.971524
0.497294,-0.157603,-0.933962,0.127400,-0.017513,-0.991697
0.085376,-0.386867,-0.585643,0.938188,0.321800,-0.127467
-0.075188,0.341701,0.374402,0.274834,-0.544789,-0.792257
0.362152,-0.384071,-0.940663,-0.098119,0.140383,0.985223
-0.153083,-0.208125,-0.966853,-0.201548,0.204054,0.957988
0.186712,0.611413,0.315895,-0.084655,-0.007459,0.996382
-0.496213,-0.207086,0.801077,-0.242910,-0.265706,0.932950
0.073025,-0.585515,-0.937238,-0.124515,-0.064693,0.990107
0.043996,-0.162960,-0.957471,-0.133480,0.073039,0.988356
0.240803,-0.281429,0.803757,-0.155936,0.305674,0.939280
0.567615,-0.214839,-0.941536,-0.170189,0.133295,0.976354
-0.571852,-0.125547,0.887071,0.974376,-0.209346,0.082250
-0.491434,-0.504536,0.793183,0.263372,0.244549,0.933183
-0.496934,-0.524204,0.808884,-0.051988,0.613385,0.788071
-0.857735,-0.195493,0.600706,0.306174,-0.803982,0.509775
-0.650017,-0.034815,0.645874,0.732660,0.050850,-0.678692
-0.619546,-0.212678,0.923877,0.786358,0.210120,0.580940
-0.660656,-0.217796,0.689786,-0.427470,-0.866685,0.257152
-0.886222,-0.437951,0.595451,0.622472,0.756000,0.202465
-0.072035,0.291100,0.417633,-0.285659,0.242519,0.927137
0.218264,0.255926,0.322362,-0.085001,-0.089991,0.992309
0.009107,0.100600,0.410633,0.551138,0.740666,-0.384266
0.002795,-0.205964,0.396890,0.981893,0.168419,-0.086723
-0.069240,-0.052004,0.887922,-0.635910,0.489333,0.596802
-0.184005,-0.532040,0.899241,0.766918,0.641741,0.002293
0.022357,-0.269758,-0.028551,-0.735115,0.662795,0.142509
-0.269653,0.351932,0.833947,0.990495,-0.133384,0.033600
0.269744,-0.278072,0.678361,-0.073718,0.149656,-0.985986
0.165524,-0.167995,0.686616,-0.303623,-0.105615,-0.946921
-0.033357,-0.013552,0.905921,0.773483,0.421082,-0.473724
-0.162278,-0.085577,-0.976938,-0.142708,0.145667,0.978987
-0.010548,-0.093730,0.895794,0.375020,-0.660607,0.650352
0.351065,0.092447,0.934260,0.818197,0.467231,-0.335035
-0.389921,-0.126264,0.702104,0.078950,-0.233506,-0.969145
0.208528,1.000000,0.439504,0.455734,0.847103,-0.273355
-0.413632,-0.516290,0.584303,0.247406,0.774651,0.581984
-0.075188,-0.134578,0.864775,0.098929,0.103609,0.989686
0.137035,-0.216518,0.871391,-0.571319,0.483000,0.663555
0.337630,0.253687,0.920814,0.593582,0.182577,-0.783790
-0.417058,0.067266,0.669702,0.112517,-0.121222,0.986228
0.460330,0.119389,-0.951769,-0.237538,-0.398965,-0.885665
0.688785,0.210917,0.423803,-0.047778,-0.274770,-0.960322
0.318968,-0.495666,-0.935940,-0.099913,0.116654,0.988134
-0.352415,-0.557299,0.569857,0.073857,0.712889,0.697376
0.271637,0.148405,-0.961641,0.017394,0.311246,0.950170
-0.177154,0.253848,0.418505,0.396132,0.159847,-0.904173
0.072035,-0.170313,0.190371,0.690262,-0.717200,0.095714
0.070502,0.794717,0.398549,-0.113504,-0.236931,0.964873
-0.041201,-0.235941,0.621109,-0.098916,-0.779118,0.619024
-0.410837,-0.444826,0.642491,0.974066,0.104329,-0.200775
0.006130,-0.335704,0.679978,-0.666253,0.134303,-0.733532
-0.253517,-0.127864,-0.979406,0.229745,-0.167916,-0.958656
-0.447259,-0.068949,0.912963,-0.282819,-0.150936,-0.947223
-0.092590,-0.427320,0.603685,-0.661941,0.242517,-0.709239
0.457447,0.100283,0.963130,-0.629152,0.588089,-0.508251
-0.045168,-0.521164,-0.944599,-0.337749,-0.125933,0.932773
0.191670,-0.214600,0.740612,0.361826,0.252918,0.897282
-0.380814,0.460249,0.419058,0.992986,-0.118222,-0.001617
0.364857,-0.667138,0.600728,0.145832,0.232112,0.961695
-0.308059,0.557533,0.371678,0.106047,0.241430,0.964606
-0.320140,-0.031219,0.898240,-0.363780,0.491827,-0.791057
-0.229264,0.065748,0.919303,0.503527,0.023087,-0.863671
0.902271,-0.416044,0.551178,-0.432973,-0.283647,0.855616
0.095022,-0.190937,0.867328,-0.337057,0.616197,0.711824
-0.320231,0.178143,0.891220,-0.169387,-0.832147,-0.528052
-0.611793,-0.330908,0.798779,-0.315569,0.210657,-0.925224
0.024613,-0.273672,-0.066804,0.817007,-0.574342,0.051293
-0.386584,0.304927,0.959896,0.315064,0.948722,0.025699
-0.374685,-0.242099,0.898134,-0.254430,0.493899,0.831462
-0.029301,0.189492,0.417378,0.547639,0.638348,-0.540928
-0.607283,-0.051521,0.914771,0.679445,-0.036454,0.732821
-0.471872,-0.290222,0.705508,0.419730,0.139188,0.896913
-0.261900,0.513007,0.339680,0.245719,0.699095,-0.671482
-0.242156,-0.507737,0.706891,-0.540095,0.755913,0.369989
-0.623062,0.120029,0.783439,-0.578933,0.815366,0.003764
-0.064191,0.241216,0.881369,-0.392272,0.741290,0.544621
0.073295,-0.327073,-0.240027,0.981705,0.049589,-0.183839
-0.032006,-0.397098,0.714997,0.375053,-0.092886,0.922338
0.104759,0.158476,0.767462,0.578707,0.320432,-0.749948
-0.328526,-0.458653,0.564772,-0.217184,-0.270222,-0.937982
-0.038947,0.032732,0.733315,-0.594513,0.038899,0.803145
-0.563920,-0.359368,0.675127,0.339241,0.334570,0.879192
-0.200595,-0.092613,-0.975512,0.150577,-0.164575,-0.974803
-0.210241,-0.751790,0.629002,0.040632,0.683786,0.728551
-0.236926,-0.742837,0.740612,-0.111580,0.689686,0.715460
0.570771,-0.176470,0.833734,-0.640740,0.312497,0.701283
-0.314010,0.874334,0.372891,-0.085194,-0.517751,0.851279
-0.717993,0.152801,0.748016,-0.381401,-0.400737,0.833033
-0.286965,-0.253770,0.899623,-0.484544,-0.611487,0.625540
-0.601335,0.148005,0.814735,0.299021,0.141284,0.943729
0.083304,-0.117950,0.783758,-0.318761,-0.535933,0.781772
0.255501,-0.110280,0.616492,0.041380,-0.503194,0.863182
-0.362782,0.368077,0.730187,0.339702,0.212750,-0.916155
-0.622880,-0.229306,0.923941,0.780826,0.074693,0.620268
-0.280744,0.004194,0.639683,0.939572,0.325420,-0.106328
0.392626,-0.114193,0.945876,0.701441,0.122308,-0.702155
-0.012532,-0.244577,-0.958811,0.195770,-0.004620,-0.980639
-0.203930,0.211317,0.670787,0.074986,0.209399,0.974951
0.588352,-0.300214,-0.934217,-0.234688,0.158574,0.959050
-0.460963,0.893679,0.383316,-0.583835,-0.470400,-0.661711
0.217543,0.308845,0.739634,0.261816,-0.139004,0.955055
-0.676974,-0.121312,0.890177,0.714322,-0.513508,-0.475451
-0.081771,-0.038172,0.339106,0.962375,0.035643,0.269377
-0.005318,-0.113554,0.882539,-0.267347,0.511012,-0.816941
-0.203660,-0.595507,0.732506,0.954228,-0.211795,0.211169
-0.239180,0.225466,0.669000,0.207539,0.494853,0.843830
0.112875,0.479272,0.420399,0.923583,0.121228,-0.363729
-0.372519,-0.190219,0.897943,0.543702,0.201861,-0.814641
0.347188,0.151523,0.952407,0.808633,-0.431725,-0.399658
-0.185449,-0.741880,-0.947727,-0.227453,0.208926,0.951113
0.300939,0.178461,0.926579,0.117020,-0.632452,0.765709
0.374776,-0.012112,0.893177,0.781545,0.320448,-0.535258
0.311396,0.248251,0.325618,0.167648,0.316353,0.933710
-0.535070,0.272232,0.998553,-0.641614,0.509415,-0.573435
0.442210,-0.014352,0.943259,0.802397,-0.063182,-0.593436
0.266046,0.209477,-0.965853,0.001283,0.296736,0.954959
-0.021185,-0.075585,0.869902,0.755645,-0.012347,-0.654865
-0.226199,-0.056561,-0.986001,-0.159063,0.133198,0.978242
-0.026957,-0.168312,-0.958875,0.187073,-0.083094,-0.978825
-0.198251,0.616209,0.379061,0.042454,-0.271088,0.961618
-0.105301,-0.312763,0.875923,0.715610,0.626371,0.309129
0.046431,-0.375279,-0.672106,0.985155,0.028850,0.169228
0.165434,0.984333,0.443376,0.157113,-0.987453,-0.015878
0.228274,0.305488,0.322277,-0.289203,-0.022988,-0.956992
0.468895,0.142092,0.975300,0.800054,-0.574767,0.171920
-0.246845,0.834686,0.385869,-0.369884,-0.040428,0.928198
0.022448,0.170469,0.717273,0.831882,0.403409,0.381097
-0.178057,0.110675,-0.988852,-0.231074,0.072834,0.970206
-0.234313,-0.549946,0.592367,-0.001958,0.455928,0.890015
0.346465,0.819815,0.329681,-0.764433,0.268567,0.586101
-0.416337,-0.237859,0.584792,0.559246,0.406589,0.722447
0.363955,0.145766,0.322703,-0.550490,-0.160714,0.819227
-0.379552,0.424597,0.356658,-0.592327,0.238834,0.769485
0.247657,0.530035,0.305427,0.373619,0.081680,0.923979
-0.607465,0.130977,0.796417,-0.444804,-0.895554,0.011502
0.119005,-0.711903,-0.938727,-0.122271,0.109051,0.986488
-0.280202,-0.255926,0.898666,0.597199,0.526466,-0.605135
-0.559050,-0.287821,0.892815,-0.253373,0.608306,-0.752174
0.195277,0.141053,0.914622,-0.392036,0.771267,-0.501453
-0.571131,-0.590555,0.795098,-0.376672,-0.355083,-0.855590
-0.000182,-0.245617,0.702423,0.739277,-0.131613,0.660414
-0.591868,0.426676,0.370019,0.081001,-0.405999,0.910277
0.240803,0.017943,-0.962088,-0.244428,0.103402,0.964138
0.000270,0.038411,0.934791,0.200331,-0.670244,0.714591
-0.775694,-0.253292,0.595154,-0.081400,0.160346,0.983699
0.080328,0.855710,0.400464,-0.583565,0.326880,0.743371
0.877479,-0.589916,0.548795,0.578381,-0.293906,-0.760983
-0.058691,-0.314124,0.575602,0.363784,0.005611,-0.931467
-0.534618,-0.320438,0.634619,-0.208395,0.770390,-0.602554
0.107463,-0.686083,0.600962,0.140286,0.236954,0.961339
-0.333302,0.195250,0.382422,0.319890,0.823305,0.468871
0.588712,-0.297096,-0.931664,-0.246720,0.110825,0.962729
-0.105031,0.169669,0.423186,0.121305,-0.141606,0.982463
0.326182,-0.523565,-0.936047,0.105249,-0.196857,-0.974767
0.082584,-0.313002,-0.153607,0.913224,-0.305147,-0.270012
-0.534891,0.421957,0.383401,0.110244,-0.252349,0.961336
-0.860440,-0.121790,0.629704,0.912531,0.029683,-0.407930
-0.460060,0.085733,0.820161,0.777874,0.365437,0.511242
0.119457,-0.253209,-0.191052,0.972858,-0.206039,0.105337
-0.094934,-0.024505,0.903900,0.328829,0.488968,-0.807950
-0.456275,0.240098,0.657767,0.323176,0.931603,0.166354
-0.433015,-0.247212,0.810501,-0.429726,0.534214,0.727978
0.024341,-0.311807,-0.172734,0.995897,-0.073438,-0.052875
-0.332763,0.512928,0.378699,-0.356085,-0.373166,-0.856709
-0.475206,-0.243855,0.765164,0.694997,0.631631,-0.343541
-0.297062,0.376313,0.841265,-0.139772,0.940989,-0.308225
0.443743,-0.059835,0.953769,-0.649807,0.567737,-0.505396
0.269293,0.156480,-0.966385,0.004500,0.353181,0.935544
-0.615309,0.585276,0.410357,-0.295023,0.801858,-0.519602
-0.373603,-0.445226,0.650809,0.872620,-0.182742,-0.452923
-0.108005,0.155441,0.414208,0.234686,-0.253641,0.938397
0.283988,0.028736,0.692892,0.228399,-0.954309,0.192687
-0.542011,0.117711,0.838095,-0.678829,-0.692488,0.244239
0.053191,0.869298,0.394847,0.993007,0.116512,0.019051
0.431032,-0.446504,-0.935706,-0.173389,0.233017,0.956891
0.106113,-0.280946,0.101993,-0.026820,0.999555,0.013054
-0.330958,0.261518,0.901283,0.643315,-0.679463,-0.352812
-0.059502,-0.704145,-0.942940,-0.083735,0.082895,0.993034
0.025964,-0.282469,-0.189052,0.912171,-0.364850,0.186625
-0.845563,-0.408213,0.580452,0.240864,0.913129,0.328908
0.706094,0.278785,0.424845,0.201089,0.274665,0.940278
