0.463895,0.545143,0.352589,0.330958,-0.169630,-0.928274
0.597664,-0.445885,0.695632,-0.500513,0.501476,0.705697
0.155294,0.131091,0.506180,0.822364,0.038204,0.567678
-0.367465,0.107518,0.740448,0.901809,0.411034,0.133384
0.342996,-0.008116,0.819074,0.507958,-0.189605,-0.840255
0.134086,0.080746,0.511931,0.879284,-0.018898,0.475922
0.334100,-0.261110,0.432032,0.193724,0.392046,-0.899317
-0.766700,-0.185985,0.380594,0.519968,-0.176836,0.835681
0.230121,0.119982,0.854640,-0.681014,-0.080589,-0.727823
-0.879896,-0.377670,0.556546,0.511509,0.291177,0.808439
-0.555167,0.789949,0.541371,0.909865,0.205120,0.360654
-0.697910,0.671034,0.532161,-0.759283,0.569553,-0.314800
0.164429,-0.885431,0.676904,-0.692246,0.307627,0.652810
-0.648106,-0.072915,0.527710,-0.087674,0.505056,0.858622
0.943840,0.038521,0.512280,0.734489,0.181882,-0.653792
-0.418620,-0.254130,0.615934,0.677287,0.731966,-0.074219
-0.009056,-0.910212,0.483310,0.107063,0.495178,0.862170
0.077368,-0.256408,0.692991,0.627089,-0.776590,0.060557
0.276589,-0.251284,0.736869,-0.777589,0.320472,-0.540974
0.204226,0.133294,0.706357,0.951337,-0.307995,-0.009885
0.425688,-0.755842,0.624434,0.891758,-0.258597,-0.371343
-0.060292,0.236755,0.871102,0.775596,0.627133,-0.071799
0.046310,-0.146541,0.923144,-0.395120,0.842604,-0.365921
0.555802,0.583096,0.526785,0.855560,0.004889,0.517680
-0.380333,0.529480,0.533193,0.754444,0.541688,-0.370658
-0.570260,0.368273,0.192402,-0.273349,-0.567147,0.776933
-0.172055,0.021719,0.821246,-0.422997,0.484730,0.765579
-0.701168,0.914201,0.571802,0.621231,0.720303,-0.308602
0.512589,0.101468,0.842427,-0.330431,-0.883153,0.332950
0.807290,-0.496581,0.591402,-0.412680,0.481553,0.773176
-0.262134,0.593349,0.639167,0.456076,0.359970,-0.813890
0.271983,-0.174095,0.956364,0.377196,-0.786326,0.489300
-0.324728,-0.425306,0.673942,-0.709818,0.036407,-0.703444
0.506791,0.130165,0.854868,0.365968,-0.923659,0.113675
-0.214315,-0.081247,0.816715,0.146120,0.840616,0.521550
0.325283,0.704502,0.409792,-0.676673,0.297353,0.673569
-0.006435,-0.891272,0.653377,-0.461084,0.166797,0.871539
0.053141,-0.829963,0.752232,0.990730,0.062930,-0.120391
0.288188,0.803548,0.406829,0.607122,0.164436,-0.777408
0.103740,-0.106666,-0.215259,0.417503,0.903155,0.100011
0.191833,-0.964754,0.557082,0.758836,0.634815,-0.145529
-0.429582,0.291654,0.768467,0.828129,0.539725,0.151322
0.534116,0.264669,0.386157,-0.518464,0.140483,0.843480
0.032012,-0.151382,0.789849,0.348774,-0.846034,-0.403215
-0.269205,-0.733695,0.432434,0.956027,-0.073419,-0.283940
0.432917,0.119196,0.384347,0.303497,-0.162250,-0.938917
0.289061,-0.813656,-0.755664,0.939673,0.046528,-0.338896
0.797681,0.304687,0.407459,0.381134,0.045719,-0.923389
-0.530145,-0.115067,0.325093,0.391609,0.701586,0.595331
0.777980,-0.220093,0.692120,0.601435,0.792404,0.101843
0.394708,0.470166,-0.962812,-0.140464,-0.099960,0.985027
0.128127,0.944106,-0.971083,-0.502251,-0.106235,0.858171
0.213837,-0.840076,0.654999,-0.506803,0.706775,0.493578
-0.156962,-0.221375,0.677186,0.023273,0.233714,0.972027
-0.905871,0.031402,0.145333,-0.391041,0.221950,0.893211
-0.149258,0.736402,0.435772,-0.482613,-0.709092,-0.514075
0.432520,0.065366,0.826662,0.603435,0.209381,-0.769432
0.294304,-0.584022,0.593117,-0.414973,0.340125,0.843868
0.311383,-0.099400,0.924458,0.045742,0.915569,0.399551
-0.325285,-0.301054,0.315615,0.185555,0.679304,0.710011
-0.014379,-0.449375,0.748358,0.742334,0.157589,0.651234
0.546745,-0.093707,0.709132,-0.278050,0.451536,0.847823
0.073159,0.476363,0.569107,0.993734,-0.108672,-0.026141
-0.008420,-0.016874,0.128603,0.732528,0.670516,0.117521
0.203908,-0.166832,0.941443,-0.293864,0.936356,0.192045
0.345776,0.275778,0.729509,0.984570,-0.031346,0.172160
0.589641,-0.347052,0.685551,0.942899,-0.035155,-0.331219
-0.687506,-0.096766,0.156045,-0.604089,-0.413744,0.681096
-0.255700,-0.128170,0.292222,-0.213301,-0.584797,-0.782633
-0.516165,-0.640203,0.708314,0.730502,0.498226,0.467053
0.255222,-0.437341,0.387015,0.653588,-0.073206,-0.753302
0.139567,-0.230988,0.639770,0.947705,-0.113067,-0.298447
-0.227580,0.025491,0.728705,-0.304295,-0.797664,0.520708
-0.522996,-0.546569,0.687227,-0.341251,0.483762,0.805929
-0.032012,0.356735,0.541558,-0.775676,0.390434,0.495870
0.657716,-0.245443,0.564871,-0.581069,0.300578,0.756315
-0.006912,-0.073341,0.929740,-0.215950,-0.933735,0.285490
0.098817,-0.091499,0.947596,-0.275409,-0.953277,0.124152
0.371593,0.924953,0.411427,0.165741,0.152206,-0.974353
-0.067916,0.025491,0.689131,-0.612627,-0.758661,-0.221634
-0.087059,-0.329464,0.708837,-0.059006,0.147014,0.987373
-0.408055,0.760396,0.520980,-0.062670,-0.037859,0.997316
-0.666137,-0.572058,0.583921,0.089846,0.631237,0.770368
0.471682,0.450656,0.504143,-0.038902,-0.380325,0.924034
-0.448488,-0.663489,0.693769,0.017460,0.774463,0.632378
0.780283,0.311024,0.670979,-0.676088,-0.451696,0.582130
0.368335,0.049486,0.818913,-0.085038,-0.525389,0.846602
-0.845262,0.353675,0.617328,0.775135,0.127833,0.618728
-0.462945,0.531475,0.465426,-0.100223,0.812912,-0.573698
0.009770,-0.053402,0.930946,0.210439,0.972808,-0.096746
-0.022163,0.228497,0.899496,0.854646,0.446119,-0.265627
0.759869,0.565795,0.547511,0.393813,0.644486,-0.655400
-0.682262,0.803904,0.501917,-0.069793,-0.357378,0.931348
0.122646,0.953076,0.487895,0.107702,-0.758935,0.642197
0.140282,0.539093,0.307947,0.681701,-0.061849,-0.729012
0.067598,-0.399817,0.201772,0.124605,0.048899,-0.991001
-0.751450,-0.097266,0.666247,0.351313,0.413799,-0.839851
-0.104855,0.787454,0.198582,0.124340,-0.641494,0.756984
0.148223,-0.077683,-0.054495,0.857361,0.505447,0.097243
-0.603861,-0.427871,0.585074,0.963433,0.059325,0.261298
-0.225037,0.486189,0.629903,0.678169,-0.014294,0.734767
-0.567639,-0.287951,0.700284,0.587707,-0.549535,0.593811
0.033045,-0.287382,0.853594,0.975449,0.041826,0.216217
-0.380095,-0.263031,0.671381,0.760417,-0.337046,0.555127
0.314401,-0.067574,0.707363,0.466385,0.143673,-0.872836
-0.299946,-0.459914,0.676985,0.744702,0.293848,0.599226
0.278497,0.207137,-0.978162,-0.300615,-0.034335,0.953127
-0.518708,0.162847,0.645789,-0.582692,0.743717,-0.327650
0.101277,-0.190118,0.665978,-0.589563,0.380653,-0.712403
-0.040036,0.839437,0.467290,0.095093,0.225824,-0.969516
0.326950,-0.642767,0.402365,-0.544983,0.093608,0.833206
0.082451,-0.564157,0.707590,-0.651790,0.507784,-0.563317
-0.504568,0.789093,0.299582,-0.342951,-0.381980,0.858182
-0.295020,0.710908,0.664987,0.029389,-0.946048,0.322692
-0.412901,0.512248,0.456980,-0.405828,0.550519,-0.729542
0.511794,0.073410,0.754779,-0.795885,0.485642,-0.361549
-0.355548,-0.758619,0.608762,-0.394209,-0.346771,0.851087
-0.525777,0.473086,0.718248,-0.660039,-0.749694,0.048034
-0.550641,0.552622,0.228973,0.497812,0.329079,-0.802428
0.694017,0.627674,0.381465,-0.156914,0.208960,-0.965253
0.511159,-0.303831,0.453643,0.529771,-0.326587,-0.782741
-0.758599,-0.393620,0.546317,-0.687488,0.635100,0.352149
-0.950196,-0.266091,0.131592,0.014682,-0.435952,0.899850
-0.589643,0.417761,0.462195,-0.197347,0.390584,0.899165
0.260544,0.059955,0.464139,-0.112454,-0.309989,0.944066
0.361187,-0.469597,0.542162,-0.362852,0.274067,0.890632
0.029071,0.371903,0.360150,0.964276,-0.051642,0.259818
-0.059417,0.072559,0.902539,0.880120,0.264112,0.394505
0.488362,-0.256338,0.708690,0.846037,0.472417,-0.247070
-0.525061,-0.522644,0.690686,0.768603,-0.553125,-0.321408
0.477480,0.326761,0.694238,0.091762,-0.005927,0.995763
-0.429582,-0.721660,0.603775,0.520879,-0.102956,-0.847399
-0.192946,-0.376744,0.714092,-0.428843,0.825588,0.366739
-0.416952,-0.670395,0.602636,-0.594879,-0.022032,0.803514
0.092460,-0.820993,0.626739,0.844987,0.461323,0.270515
-0.728256,-0.477072,0.571386,0.255745,0.482657,0.837638
-0.580109,0.734763,0.500067,-0.057474,-0.941022,0.333427
0.043529,-0.447236,0.204668,0.231330,0.075614,-0.969932
-0.344586,0.600685,0.292182,-0.621316,-0.314831,0.717529
-0.032570,-0.591710,0.717886,0.307013,0.946596,0.098481
0.746842,-0.040798,0.482143,0.275055,-0.263500,-0.924615
0.623719,-0.699305,0.589511,0.222883,0.651315,0.725336
-0.756376,0.272075,0.455130,0.515673,0.253485,0.818429
0.081498,-0.192965,0.684036,0.106550,0.972594,0.206660
0.500595,-0.490101,0.424029,0.894739,-0.249118,-0.370651
0.073714,-0.021146,-0.575368,-0.661708,-0.749303,0.026225
0.419652,0.544861,0.770129,0.849804,-0.527011,0.009615
-0.810866,-0.320920,0.378931,0.696386,0.260101,-0.668875
-0.027326,0.862219,-0.982478,0.038027,-0.029198,0.998850
0.567082,0.151669,0.649690,-0.084752,-0.088751,0.992442
-0.349195,0.776989,0.522522,0.062633,0.001946,0.998035
0.198427,-0.015379,0.806298,0.160414,-0.986958,-0.013446
0.331797,-0.293223,0.736118,0.536352,0.744397,0.397745
-0.505045,0.209414,0.739577,-0.003803,-0.946495,0.322695
0.300103,0.288168,0.503419,0.145196,-0.509044,0.848406
-0.450950,-0.689835,0.597354,0.344452,0.066854,-0.936420
0.332672,-0.171248,0.672695,0.300479,0.934569,-0.190506
-0.546193,0.022145,0.623241,0.632018,-0.407750,-0.659009
0.734927,0.546781,0.538502,-0.343879,-0.832634,0.434128
-0.539359,-0.596908,0.694640,-0.433053,-0.563531,-0.703490
-0.840654,0.352393,0.409028,0.642347,0.071596,0.763063
-0.563429,0.485690,0.564710,-0.193516,-0.979110,0.062406
-0.500199,-0.063015,0.444205,0.251814,-0.523532,0.813943
-0.258163,0.025778,0.773494,-0.166550,-0.898540,0.406063
0.220034,0.812305,0.454675,-0.585781,0.799677,0.131823
-0.150689,-0.041372,0.839518,-0.771169,0.633339,-0.064654
-0.320914,0.224651,0.490013,0.100044,-0.489513,0.866238
0.755023,-0.538950,0.588251,-0.281240,0.572324,0.770292
-0.215665,0.312806,0.481151,0.308630,-0.345347,0.886275
0.867581,-0.602536,0.024238,0.445388,0.769131,0.458330
0.041701,0.173955,0.805279,-0.297047,0.382559,-0.874878
0.074587,-0.725933,0.742701,-0.683373,0.558466,-0.470231
-0.005322,-0.235191,0.815227,0.157000,0.935570,0.316321
-0.610217,-0.328326,0.548771,0.093380,-0.818900,-0.566289
0.157280,-0.057535,0.920986,-0.297770,-0.927335,-0.226679
0.081739,-0.109369,-0.004491,0.982756,-0.125119,-0.136148
-0.189530,-0.853961,0.461458,0.855423,-0.109892,-0.506138
0.055444,-0.255339,0.700834,0.510948,-0.624402,0.590807
-0.590278,0.198019,0.742124,-0.647464,0.545026,-0.532669
-0.478831,-0.500927,0.683554,-0.408659,-0.181100,-0.894539
0.020097,-0.130235,0.798737,0.342917,-0.727790,0.593911
-0.046787,0.415910,0.612945,-0.345044,0.440643,-0.828721
-0.359919,0.644762,0.491662,-0.696895,0.717163,-0.003833
0.658273,-0.466750,0.706263,-0.174119,0.877305,0.447235
0.417825,0.510253,0.499544,-0.421300,0.817750,-0.392162
-0.616411,0.135363,0.340296,-0.161071,0.843787,-0.511938
0.319722,-0.675875,0.405113,0.565029,0.003297,-0.825064
-0.611725,-0.408288,0.507025,0.442372,-0.195297,0.875309
0.222812,-0.789806,0.549079,0.767414,0.260040,-0.586050
0.205894,0.106949,0.703998,0.930587,-0.353494,0.095126
-0.061960,0.921746,0.465708,0.144325,-0.669139,0.728988
-0.167607,-0.165980,0.812170,0.348482,0.795192,0.496216
0.370243,-0.430930,0.471767,-0.022214,0.195007,0.980550
0.057669,-0.042011,0.114848,0.349808,0.869742,-0.348113
-0.116292,-0.721873,0.638295,0.597154,-0.254546,-0.760666
0.103423,-0.363002,0.442475,0.483793,0.756406,0.440220
-0.668122,-0.295144,0.369145,0.831606,0.078796,0.549747
0.839383,-0.231275,0.482773,-0.508790,0.830285,-0.227506
-0.664787,0.389347,0.457061,-0.103124,-0.452331,0.885868
0.133845,-0.004700,0.946779,0.926626,0.076457,-0.368128
0.005162,-0.559598,0.670443,0.665381,0.742154,0.080471
-0.493526,0.461478,0.561319,-0.135101,0.988685,-0.065190
-0.030027,-0.732056,0.530405,0.459321,0.462674,0.758259
-0.385496,0.035461,0.677360,0.481835,-0.479331,-0.733537
0.349830,0.139204,0.822171,-0.104368,-0.499437,0.860040
0.138851,-0.144333,0.823458,0.366126,0.818480,0.442767
0.122726,0.393693,0.511784,0.058557,-0.242745,0.968321
-0.464850,-0.297708,0.759069,0.952208,-0.185627,-0.242574
0.301453,0.170039,0.746870,-0.560220,-0.495814,-0.663568
0.125744,-0.104815,0.279888,-0.638906,-0.684556,0.350973
-0.048852,-0.431856,0.760919,-0.713860,-0.392729,-0.579800
-0.105648,-0.064154,0.818980,-0.120585,0.992021,0.036798
-0.489953,-0.390986,0.731279,0.317314,0.936556,-0.148909
0.061482,-0.686132,0.753345,-0.505180,-0.549118,-0.665779
0.120501,-0.155724,0.838352,-0.044593,-0.161853,0.985807
-0.017874,-0.037669,0.637343,-0.558402,-0.240318,0.793999
0.782826,0.510896,0.525109,-0.029600,-0.800567,0.598512
0.247516,-0.104954,-0.954031,-0.565624,0.754782,-0.332226
-0.852013,0.396540,0.166019,0.224404,-0.941019,0.253232
-0.449678,0.441043,0.509934,0.413611,-0.090017,0.905993
0.374454,0.218954,0.484878,0.848564,-0.410210,0.334166
0.516720,-0.742313,0.488189,0.740367,0.547120,0.390534
-0.061483,-0.166763,0.847106,0.818055,-0.569403,0.081035
0.598457,-0.434920,0.667989,0.785575,0.546228,-0.290700
-0.693462,0.889563,0.519626,0.642162,0.643093,-0.417204
-0.229645,0.891272,-0.990964,-0.428753,0.664481,0.612075
-0.096751,0.168827,0.522133,0.612339,0.642440,0.460773
-0.824133,-0.137140,0.532121,0.004970,0.090485,0.995885
-0.850980,-0.156793,0.622986,0.866664,0.418338,0.271821
0.155850,0.408431,0.401172,0.982220,-0.153263,0.108419
0.330446,0.017660,0.876424,0.379423,0.923435,0.057502
0.760664,0.012175,0.484302,0.434647,0.504681,-0.745908
-0.138136,0.078039,0.604177,0.899993,0.275565,0.337751
0.355706,0.219740,0.477009,-0.236146,-0.308427,0.921471
-0.447295,-0.309885,0.665094,0.864492,0.363733,0.346918
-0.538724,0.496441,0.495402,0.195987,0.971564,0.132864
0.600445,0.605883,0.543730,-0.183503,0.690428,-0.699740
-0.307014,0.743664,0.694439,0.317188,0.890425,-0.326397
0.142665,-0.697592,0.677213,-0.477308,0.818861,-0.318815
0.652632,-0.675949,0.433815,-0.169948,0.348509,0.921770
0.723885,-0.218528,0.678620,-0.167668,0.399395,0.901316
0.551194,0.409856,0.695431,-0.124603,0.277440,0.952629
-0.632854,-0.340503,0.354693,0.888694,0.203294,0.410967
-0.566607,-0.616778,0.423855,0.194547,0.419588,0.886621
-0.759949,-0.130235,0.616471,0.423081,0.450801,0.785990
-0.252762,-0.683781,0.482814,0.067057,-0.932701,0.354361
-0.573915,0.743095,0.487921,0.304185,-0.815005,0.493191
-0.685995,0.651311,0.482706,0.522848,0.824511,0.216358
-0.050045,0.924740,0.481299,-0.172158,0.946351,-0.273460
0.464928,-0.677157,0.423412,0.464187,-0.019009,-0.885533
0.712446,-0.423742,0.587970,-0.735869,-0.218241,0.640990
0.075065,-0.115423,0.135507,0.566576,0.767234,0.300573
-0.132735,-0.575409,0.499075,0.320576,-0.897428,0.303074
0.369131,0.345057,0.509585,0.114989,-0.577983,0.807906
0.082929,-0.617630,0.500013,0.258963,0.174763,-0.949945
0.067916,-0.150526,0.504102,0.824384,-0.524134,-0.213715
-0.006275,-0.160352,0.867536,0.208883,0.462920,0.861437
0.088172,-0.012601,-0.489691,-0.650066,-0.759867,-0.004017
0.092223,-0.123468,0.055581,0.152319,0.988306,0.007119
0.690284,0.582740,0.543811,-0.339323,-0.696434,0.632329
0.416157,0.584879,0.529305,0.106346,-0.924954,0.364897
-0.573915,0.702082,0.490026,0.646292,-0.547889,0.531153
0.235999,0.607021,0.531035,0.450468,0.371882,-0.811654
-0.001986,-0.041298,0.945103,-0.781404,-0.275310,0.560011
-0.242990,-0.019724,0.678459,0.250651,0.225895,0.941353
0.588133,-0.012958,0.709548,0.479182,-0.582228,-0.656807
0.021923,0.519367,0.515899,-0.625343,-0.677021,-0.388058
0.775437,0.549202,0.536920,0.186674,0.884560,-0.427443
0.283898,-0.301337,0.733973,0.631016,0.632635,0.448989
-0.572168,0.066222,0.739711,-0.756449,-0.029422,-0.653391
-0.606959,-0.412703,0.785599,0.997486,0.036937,0.060476
0.335132,-0.137779,0.564804,-0.068586,0.461170,-0.884657
0.985622,-0.203078,0.511395,0.865315,0.388503,-0.316695
-0.701326,0.600185,0.211505,0.645877,0.706802,-0.288570
-0.373977,-0.449944,0.752125,-0.628103,-0.428120,-0.649769
-0.775122,0.664271,0.539454,-0.678935,0.678420,-0.280703
-0.473032,0.311306,0.777851,0.781291,0.623680,-0.024646
0.347764,0.527342,0.753988,0.741536,-0.416105,-0.526289
0.013901,-0.170392,0.688581,0.828684,0.525314,0.193206
-0.814284,-0.029551,0.482827,0.436206,0.446316,0.781362
0.414329,0.055540,0.827587,-0.307761,-0.255038,0.916645
0.102867,-0.682142,0.672641,0.974401,0.056745,-0.217538
-0.590516,0.667617,0.523098,0.367878,0.661324,-0.653694
0.000634,-0.961621,0.486326,0.112804,0.657035,0.745373
-0.641830,0.430009,0.602797,0.503350,-0.823159,0.262772
0.286758,-0.737041,0.595772,0.921644,0.220570,-0.319252
0.687266,0.523000,0.381103,-0.163479,-0.354112,0.920804
0.139249,-0.168970,0.202590,-0.487525,-0.014614,-0.872986
-0.101042,0.060099,0.748050,-0.328349,-0.708106,0.625118
0.549448,-0.423099,0.420409,0.096567,-0.773407,0.626512
-0.777425,-0.369339,0.617396,0.785591,0.405881,0.467019
0.518628,-0.590502,0.595665,-0.165850,-0.083414,0.982617
0.838271,-0.555969,0.606510,-0.259634,0.868882,0.421468
-0.873860,0.828467,0.521624,0.808555,-0.293463,0.510018
0.227420,0.378595,0.513902,-0.128170,-0.678699,0.723146
0.464453,-0.711121,0.482974,0.070179,0.509000,0.857901
-0.290254,-0.095202,0.292235,-0.199786,-0.655133,-0.728620
0.234093,0.760826,0.394026,-0.330815,0.009771,0.943645
-0.368258,0.160921,0.779178,0.821939,-0.310047,0.477794
-0.045517,-0.405084,0.438949,0.852918,-0.517326,-0.070034
0.033362,-0.132582,0.946229,-0.230810,0.875022,-0.425516
0.352848,0.210053,0.682159,0.674845,-0.028254,0.737418
0.067439,-0.082098,0.875406,0.722583,0.608573,-0.327890
0.319882,-0.172243,0.734148,0.449530,0.175118,0.875932
0.498609,-0.145115,0.803161,0.362983,-0.761449,0.537065
0.756533,-0.233339,0.702309,-0.027841,0.712179,0.701445
-0.292797,0.039803,0.832359,0.075512,0.766886,0.637325
-0.602670,0.386075,0.161756,-0.279879,-0.019857,0.959830
-0.475415,0.619125,0.527187,-0.043052,-0.096404,0.994411
0.022798,0.489605,-0.977599,-0.282784,-0.010699,0.959124
-0.046390,-0.490888,0.508231,0.128317,-0.027935,0.991340
0.184842,0.846486,0.472759,0.331073,0.933848,0.135346
0.333227,-0.557251,0.549508,-0.038601,0.514576,0.856576
-0.120978,0.242952,0.789045,-0.106610,-0.400946,0.909877
0.059814,0.499858,0.573304,0.993734,-0.108672,-0.026141
-0.185082,-0.179292,0.768561,0.964465,0.259258,-0.050921
0.167209,-0.280619,0.774486,0.898203,0.119626,-0.422990
0.272458,-0.655866,0.595035,0.856394,-0.275972,-0.436383
-0.569387,0.231631,0.181114,-0.080655,0.397154,-0.914201
-0.285645,-0.323553,0.735287,-0.036981,-0.996699,-0.072273
-0.372231,-0.721378,0.440263,-0.277519,0.564730,0.777215
-0.106205,-0.335518,0.420409,0.700185,-0.137391,-0.700617
0.081181,0.058247,0.880057,0.905349,0.133750,-0.403057
0.829532,-0.537737,0.607958,-0.316447,0.806022,0.500190
-0.078958,-0.207276,0.651058,0.358784,-0.914899,-0.185026
0.099849,0.333666,-0.967960,-0.051582,-0.388929,0.919823
0.752403,0.651737,0.563839,0.290718,0.765611,-0.573867
0.450393,0.482130,0.754431,-0.535608,0.478578,-0.695764
-0.382556,-0.338578,0.727914,0.241205,0.729239,0.640337
-0.665582,0.323484,0.447060,-0.072766,-0.364876,0.928208
-0.739375,-0.391129,0.525981,0.921259,0.188769,0.340071
0.541582,0.145828,0.384883,-0.400574,-0.274690,0.874120
0.095718,0.101612,0.877403,0.493091,0.793832,0.355939
-0.333069,0.054688,0.739403,0.870976,0.364387,0.329581
-0.766543,0.400243,0.616283,0.216367,-0.880062,0.422700
0.440544,0.353032,0.721519,-0.429106,0.702983,-0.567170
-0.122648,-0.051980,0.768909,0.734471,0.670455,-0.105082
0.192469,0.476076,0.710727,0.858000,0.160071,-0.488071
-0.940107,-0.091499,0.497949,-0.494900,-0.727310,-0.475493
0.563666,0.156154,0.388436,0.259393,0.513000,-0.818258
0.653982,0.469383,0.522106,0.003828,-0.061960,0.998071
0.418222,-0.380304,0.739269,-0.518382,0.096831,0.849649
0.077765,-0.787954,0.741641,0.942625,0.149828,0.298344
0.410676,0.941116,0.419310,0.145890,-0.171330,0.974352
0.076970,-0.049773,-0.191812,-0.451304,-0.891331,-0.043041
0.198187,0.452008,0.387900,0.973182,-0.094992,-0.209508
-0.725953,-0.309529,0.624916,0.811276,-0.178337,0.556800
-0.024863,0.503278,0.621967,0.254878,-0.022890,0.966702
0.599650,0.168471,0.641875,0.199806,0.135972,0.970355
-0.595519,0.693107,0.231158,0.877667,0.092647,0.470232
0.439193,0.022358,0.380232,0.360781,-0.288261,-0.886985
0.263324,0.738822,0.399496,0.571259,0.153328,-0.806321
0.016044,-0.021432,0.891841,0.697267,0.569686,0.435060
0.576456,0.140487,0.848768,0.365968,-0.923659,0.113675
-0.084757,-0.141838,0.897418,0.275837,0.960221,-0.043482
-0.075385,-0.212048,0.836917,-0.405201,0.518332,0.753090
-0.100644,0.739392,0.441711,-0.060994,-0.115932,0.991383
0.979426,-0.274066,0.491166,0.777813,0.032023,-0.627680
0.246563,0.016591,0.638684,-0.280320,0.791279,-0.543414
0.398839,-0.042937,0.852012,0.877341,0.369013,-0.306760
-0.419255,0.439974,0.662721,0.954193,0.298832,-0.014681
-0.465328,0.403733,0.306070,0.539554,-0.149146,0.828636
0.570179,-0.011319,0.708368,0.472400,-0.630857,-0.615514
-0.605449,-0.527129,0.369802,0.939996,-0.081072,-0.331412
-0.246566,0.311167,0.239899,-0.517480,-0.468128,0.716290
0.216936,-0.527842,0.818819,0.841487,-0.469945,-0.266556
-0.640005,0.487754,0.617047,0.440182,-0.742852,0.504391
0.104933,-0.127101,0.770062,0.131370,0.979614,-0.151984
-0.091113,0.931572,0.484127,-0.147330,0.974815,-0.167418
-0.344586,-0.585730,0.414283,0.131343,-0.508574,-0.850941
0.306617,-0.164768,0.711693,0.992094,-0.124414,-0.016426
-0.502900,-0.340503,0.151782,0.104641,-0.237100,0.965833
-0.021130,-0.963902,0.482639,0.105935,0.676201,0.729061
-0.398364,-0.028269,0.676502,0.059146,0.865927,0.496661
0.465406,0.247863,0.374977,-0.707836,0.376540,0.597650
-0.278894,0.537811,0.635279,-0.694925,-0.361632,0.621532
-0.194456,-0.761465,0.469046,-0.700427,0.378611,0.605026
0.260783,0.778984,0.400287,0.447797,-0.005105,-0.894121
0.196044,0.362645,0.510872,0.084420,-0.551324,0.830009
0.133448,0.076618,0.891573,-0.421478,0.210441,0.882083
-0.799906,0.348334,0.609070,0.957753,0.267400,-0.105860
-0.409088,0.235690,0.758948,0.926657,0.252707,0.278290
-0.187625,-0.288025,0.736748,0.119870,-0.892792,-0.434228
0.218841,-0.134220,0.549508,0.987142,0.017074,0.158931
-0.601875,-0.344701,0.706464,-0.477310,0.867118,0.142413
-0.080626,-0.690330,0.481299,0.963157,0.250201,-0.098628
-0.589403,-0.653876,0.720782,0.905388,0.362386,0.221247
0.043291,-0.866491,0.479757,0.220859,0.321864,0.920665
-0.793868,-0.411351,0.560943,0.088944,0.881135,0.464424
0.711810,-0.505555,0.583532,-0.498215,0.077510,0.863582
-0.429582,0.220236,0.798938,0.999999,-0.001335,0.000618
0.444117,0.023783,0.755007,0.174774,-0.363840,0.914918
-0.662086,-0.308103,0.725340,-0.764958,0.511180,-0.391834
0.372706,0.452721,0.763372,0.973307,-0.229337,-0.008849
0.118675,-0.275065,0.837896,-0.654852,-0.368538,-0.659809
0.024148,0.924240,0.479274,0.033202,-0.882220,0.469665
-0.246643,0.865352,0.203193,-0.136456,-0.307385,0.941751
-0.801414,-0.451582,0.279030,0.766393,-0.155763,0.623201
-0.113512,0.502422,0.624353,0.273807,0.091177,0.957453
0.235839,-0.336231,0.814516,0.827376,-0.082405,-0.555571
0.008578,-0.687983,0.500134,0.128226,-0.514022,0.848139
-0.353165,-0.621833,0.589833,0.127317,0.578426,0.805738
0.028199,0.188336,0.262421,0.911148,-0.258354,0.321034
-0.514260,0.441825,0.463415,0.083931,0.043909,0.995504
0.656365,0.559954,0.537469,0.250410,0.746634,-0.616306
0.758599,-0.514382,0.590879,-0.319090,0.444406,0.837069
-0.608627,-0.254061,0.704480,0.665176,0.447325,0.597864
0.411548,0.556395,0.771832,0.950156,-0.097682,0.296079
-0.557948,0.133724,0.727793,0.934374,0.157216,0.319732
-0.664469,0.644119,0.474904,0.480340,0.854642,-0.197130
-0.605926,-0.618412,0.596120,-0.026351,0.799453,0.600151
-0.194377,-0.696810,0.467799,-0.356597,0.808237,-0.468607
0.209229,-0.447310,0.815347,0.879820,-0.396373,-0.262307
-0.070697,-0.580389,0.520591,-0.225024,-0.504426,-0.833618
0.149256,-0.048421,0.192200,0.959239,0.238114,-0.152194
0.413931,0.528341,0.753600,0.312756,-0.026059,0.949476
-0.418937,0.576973,0.519251,0.682235,-0.386900,0.620373
0.162126,-0.197024,0.868019,0.126200,0.836791,0.532780
0.045912,-0.323341,0.850430,0.863675,0.410351,0.292709
-0.384938,0.595774,0.461177,-0.698955,0.423096,-0.576586
0.024386,-0.511961,0.729831,0.960012,-0.172339,-0.220625
-0.590358,-0.245373,0.684626,0.776222,0.325142,0.540149
0.025418,-0.366705,0.877229,0.959854,0.155637,0.233360
-0.225357,-0.384649,0.716211,0.172553,0.981428,-0.083811
0.629278,0.591284,0.540580,0.118722,-0.579754,0.806096
0.021050,-0.328825,0.890836,0.703200,0.596681,0.386629
0.292159,0.456280,0.515336,-0.338605,-0.239116,0.910038
-0.539122,0.590715,0.473590,0.104532,-0.335623,0.936179
-0.318772,0.727214,0.680350,0.390087,-0.793861,0.466494
0.613392,-0.247507,0.444727,-0.392095,-0.100932,0.914371
-0.849313,0.552622,0.191704,-0.175055,-0.479473,0.859920
0.393120,0.384793,0.726774,-0.249173,0.552600,-0.795328
-0.210659,0.727001,0.642143,0.754065,-0.070792,0.652974
-0.706649,0.126032,0.469435,-0.384426,0.190710,0.903242
-0.578681,0.661920,0.192402,-0.657581,0.544307,-0.520880
0.034870,-0.035461,-0.470011,-0.650066,-0.759867,-0.004017
-0.600763,-0.594136,0.506676,0.606539,0.109294,0.787506
0.029787,-0.346553,0.699239,-0.688834,-0.087296,-0.719644
0.467708,0.487254,0.713114,-0.681194,0.595141,-0.426358
-0.729049,-0.284605,0.737003,0.329248,-0.935215,-0.130262
-0.352373,0.109726,0.781336,0.924422,0.376796,0.058901
0.118913,0.017660,0.966593,0.897608,-0.421246,-0.129817
-0.388752,-0.309242,0.730809,-0.532068,0.622543,-0.573885
0.445069,0.558246,0.553825,-0.172025,0.863057,-0.474910
0.736912,0.508045,0.525230,0.149586,-0.809998,0.567034
0.062913,-0.083167,0.130976,-0.673048,-0.710355,-0.205919
-0.491383,-0.507333,0.681288,-0.474216,-0.200408,-0.857296
0.047897,-0.069495,0.173620,0.948841,0.253720,-0.187952
-0.908571,0.460339,0.650950,-0.577082,-0.509986,0.637880
0.909364,-0.385932,0.306486,0.018866,-0.431986,0.901683
0.038526,-0.129096,0.519117,0.701225,0.090070,-0.707227
-0.160300,0.591428,0.013835,0.799738,-0.103854,-0.591298
-0.831837,0.662776,0.465118,-0.169017,0.980796,-0.097327
-0.780760,0.189974,0.647907,0.829294,0.446375,0.336186
0.130272,0.247650,0.256294,0.899164,-0.111224,0.423242
0.516482,-0.199658,0.695619,-0.340062,0.940090,-0.024267
-0.824213,0.421390,-0.022951,0.346321,0.307460,-0.886301
-0.033045,0.106453,0.787262,0.864490,0.109637,-0.490547
-0.886409,-0.097479,0.393557,0.690958,0.002491,0.722891
0.109619,-0.721448,0.713462,0.809487,0.232211,0.539267
-0.325920,-0.232201,0.685109,0.014507,-0.987734,0.155472
-0.749862,0.375679,0.458576,0.092151,-0.672348,0.734477
0.467789,-0.090499,0.713516,-0.567953,0.020057,-0.822817
-0.541107,-0.704359,0.596509,-0.211298,-0.219828,-0.952381
-0.425293,-0.009042,0.693903,0.245848,-0.511246,0.823521
-0.051236,0.082311,0.907794,0.891793,0.427407,-0.148421
-0.315513,-0.421817,0.661930,-0.668107,-0.002195,-0.744062
0.400111,-0.298208,0.735689,-0.306997,0.856121,0.415703
-0.223927,0.832314,0.336528,-0.271068,-0.296496,0.915758
0.178966,0.514030,-0.962477,0.295255,0.198440,-0.934583
0.494558,0.495872,0.505121,0.172109,0.828402,-0.533037
0.137024,-0.223370,0.551760,0.932550,0.312201,-0.181333
0.077685,0.940260,-0.971727,-0.428297,0.151707,0.890812
-0.911749,-0.083311,0.139582,-0.210352,-0.262098,0.941837
0.154262,-0.150100,0.818350,0.431478,0.200878,-0.879474
0.185082,-0.536316,0.810320,0.959106,0.282189,0.022003
-0.081501,0.686914,0.458817,-0.606845,-0.486057,0.628878
0.133290,-0.365849,0.206129,-0.111297,0.075042,0.990950
0.135991,0.880733,0.473001,-0.035685,0.031511,0.998866
0.348159,-0.351681,0.467692,-0.004223,0.484700,0.874671
-0.604814,0.860228,0.510604,0.128802,-0.694290,0.708076
-0.391295,0.293222,-0.010068,0.385782,0.352382,-0.852642
-0.299706,0.615639,0.642987,0.560408,0.597567,-0.573460
0.067598,-0.188054,0.215058,-0.003212,-0.374041,0.927407
0.099054,-0.759757,0.216921,0.222745,0.343496,0.912357
-0.182780,-0.461978,0.785304,0.768216,0.600746,0.221243
-0.240527,0.554900,0.309636,-0.087919,-0.166722,0.982076
-0.300263,0.770722,-0.978926,0.908093,0.300133,-0.292040
-0.161410,-0.828185,0.488297,-0.552559,-0.148460,-0.820145
0.621016,-0.469097,0.723383,-0.483277,-0.859288,-0.167535
-0.284138,0.186915,0.794300,-0.224479,0.382617,0.896222
0.821350,-0.019651,0.492587,-0.739340,0.021651,0.672984
0.532765,-0.256621,0.711063,0.876558,-0.275973,0.394317
-0.629835,-0.501922,0.368006,-0.480630,-0.468916,-0.741021
0.498847,0.341498,0.504169,-0.235887,0.832054,-0.502039
0.299706,0.049486,0.829799,-0.754885,0.347879,-0.555993
-0.162683,-0.295643,0.577097,-0.050208,0.793736,0.606187
0.298753,0.263530,0.697603,0.750114,-0.659964,0.042144
0.174755,-0.185559,0.653793,0.044291,-0.936232,0.348579
0.756453,-0.236042,0.693555,-0.200610,-0.255161,0.945859
-0.855906,0.279194,0.419364,0.248789,-0.464531,0.849891
-0.888792,-0.070634,0.671636,0.772226,-0.465484,0.432426
-0.232506,-0.609799,0.485964,-0.659389,0.749951,-0.052720
0.599172,-0.404446,0.670376,0.833019,0.417585,-0.362908
0.152751,-0.094988,0.665536,-0.233357,-0.763455,0.602230
0.476923,0.606526,0.539467,0.012690,-0.949522,0.313444
-0.011043,0.273357,0.891265,0.852580,0.483847,-0.197482
-0.622529,-0.431999,0.774271,0.009036,0.929108,0.369697
0.080466,-0.019937,-0.565247,0.999196,-0.020487,0.034473
0.088092,-0.018512,-0.194841,-0.451304,-0.891331,-0.043041
0.156009,0.347621,0.501381,0.147797,-0.564567,0.812047
-0.421320,0.485046,0.674692,0.953761,0.217433,0.207518
0.163793,0.015026,0.886439,-0.867008,0.419795,0.268457
-0.413774,0.545004,0.482385,-0.541486,0.837650,0.071663
0.064340,-0.467532,0.463791,0.989617,0.053684,0.133326
0.004527,0.041941,0.860967,-0.079663,0.319689,0.944168
0.165779,-0.230275,0.792383,0.883496,0.405970,-0.233717
-0.378107,-0.410069,0.744752,0.845187,-0.030536,0.533597
-0.399316,0.613001,0.460976,-0.651420,0.421936,-0.630573
0.555007,-0.173812,0.676998,-0.480242,0.315135,0.818571
-0.745492,-0.443108,0.515149,0.583485,-0.005417,0.812106
0.045039,-0.179579,0.693595,0.929447,0.183571,0.320046
0.067041,-0.167688,0.597810,0.909989,-0.126381,0.394902
0.496384,0.117844,0.761080,0.147703,-0.369666,0.917350
-0.531100,-0.415624,0.405649,-0.498704,0.118828,0.858588
-0.724840,0.950229,0.524868,-0.728546,-0.121810,0.674079
-0.016444,-0.933993,0.301271,-0.674388,0.100517,-0.731503
-0.440781,0.959699,0.301888,-0.276500,0.113160,0.954328
0.634124,-0.742951,0.193394,0.080819,0.065285,0.994588
-0.381128,-0.311737,0.630855,0.084099,0.863567,0.497171
0.102390,-0.415624,0.440036,-0.651846,0.572323,0.497538
0.178806,-0.665267,0.509518,-0.231420,0.532597,0.814116
-0.400429,0.157575,0.579671,0.196159,-0.230011,0.953214
0.145443,-0.057178,0.850564,-0.646574,0.756854,0.095464
-0.408055,0.396827,0.694332,-0.227013,0.973700,-0.019339
-0.741681,0.289520,0.582192,0.028682,-0.944204,0.328111
0.318214,0.353319,0.733893,0.945885,0.149133,-0.288205
0.028437,-0.583453,0.629997,0.798520,-0.326369,-0.505816
-0.029709,0.373398,0.574161,0.927885,-0.372709,-0.010805
-0.486139,-0.633154,0.694949,0.531079,0.635145,0.560843
0.066803,-0.192895,0.702858,0.534417,-0.473143,0.700381
-0.126937,-0.060099,0.712484,-0.198320,-0.926846,0.318788
0.096036,0.573914,0.449983,-0.254532,-0.161101,-0.953551
0.365795,0.390134,0.517012,0.301134,-0.510056,0.805706
-0.033362,-0.256051,0.581200,-0.560733,0.539344,0.628241
-0.465803,-0.398179,0.755771,0.750029,0.542778,0.377952
-0.744856,-0.356379,0.544950,0.970485,-0.100425,-0.219259
-0.273413,0.271149,0.669652,0.417171,0.669604,-0.614491
0.463023,-0.051837,0.853916,-0.697810,-0.617257,0.363393
-0.557472,-0.641342,0.705231,0.758770,0.533928,0.373081
-0.650172,-0.365710,0.720205,-0.388145,-0.840780,-0.377403
0.349510,0.176945,0.695337,0.360408,-0.171534,0.916887
-0.734054,-0.048491,0.385286,0.716585,0.046094,0.695975
0.047182,-0.082742,0.267997,0.811862,0.529007,-0.247045
0.195409,-0.080960,0.683446,0.946761,0.258430,-0.191985
0.254905,-0.677370,0.583948,0.942581,-0.136579,-0.304775
0.363252,0.894192,0.412205,-0.211682,-0.039906,0.976523
-0.652872,-0.232483,0.600089,-0.611481,0.111673,-0.783339
0.427754,0.519297,0.756924,0.755251,0.138180,0.640705
0.228293,0.519941,0.438735,0.118852,-0.194859,0.973604
-0.721582,0.503634,0.465654,0.052557,0.040579,0.997793
-0.126857,0.623827,0.309958,0.060402,-0.422967,0.904130
0.576931,-0.039590,0.714602,-0.419770,0.538475,0.730642
-0.439671,0.273427,0.779486,0.700996,0.713056,-0.012487
0.111604,-0.624253,0.669357,0.991352,0.125589,0.038067
-0.489555,0.361720,0.638175,0.554600,0.731434,0.396767
-0.544127,0.199301,0.183044,0.082968,-0.412938,0.906972
-0.131147,0.027556,0.781350,-0.121217,0.643130,0.756102
-0.124554,0.899460,0.487037,-0.413218,0.752658,-0.512598
-0.533243,-0.121690,0.667011,0.344712,0.937268,0.051979
-0.353483,0.804830,0.697603,-0.538796,-0.805744,0.245917
-0.312018,0.207632,0.479636,0.115320,0.946263,-0.302137
-0.479943,-0.385645,0.760571,0.657081,0.103550,0.746674
0.582729,-0.278268,0.679840,0.557106,0.118690,-0.821916
-0.502820,-0.392194,0.765852,-0.445868,-0.540079,-0.713804
0.112717,-0.080321,-0.002842,0.980597,-0.103380,-0.166558
0.092540,-0.050624,-0.902687,-0.404436,-0.906702,-0.119679
-0.783066,-0.106805,0.635212,0.829452,-0.549732,0.099014
0.184287,0.273926,0.507856,0.153043,0.041512,0.987347
0.511794,-0.269155,0.706464,0.960405,0.278182,0.015412
0.353245,0.327187,0.506971,0.040842,-0.681319,0.730847
0.201525,0.874183,0.405703,0.269124,-0.792195,0.547722
-0.123124,-0.518159,0.755342,-0.676021,0.566656,0.471059
0.493208,-0.793222,0.585731,-0.093406,-0.125847,0.987643
-0.472239,0.507337,0.237553,0.662044,0.601510,-0.447082
0.524266,0.346339,0.496287,-0.512889,-0.735545,0.442627
0.033600,-0.135432,0.883690,0.034100,0.999384,-0.008257
-0.276909,0.437840,0.637411,-0.633246,-0.311060,-0.708690
-0.691477,0.918830,0.521798,-0.690248,-0.569585,0.446241
-0.837160,0.744802,0.497104,0.654541,-0.521382,0.547482
0.596234,-0.037026,0.711049,0.479182,-0.582228,-0.656807
0.186750,-0.682568,0.525806,-0.387035,0.896630,0.215080
0.042099,-0.588008,0.725313,-0.421668,0.788898,0.447030
-0.494321,0.433281,0.729697,0.543440,0.837836,-0.051993
0.506791,0.283540,0.704440,-0.382028,0.410401,0.828025
0.428626,0.388852,0.699775,-0.182150,0.492789,0.850870
-0.136469,-0.647822,0.501569,-0.236353,0.790795,-0.564606
-0.468744,-0.321346,0.600196,0.168155,-0.978023,0.123266
0.069106,0.392481,0.252071,0.974022,-0.078816,0.212295
-0.195329,-0.120122,0.583613,0.054296,0.922541,-0.382060
-0.016047,0.160283,0.882779,0.769934,0.636841,-0.040436
0.451108,0.103246,0.644663,0.106159,-0.231243,0.967087
-0.742871,-0.154442,0.529667,-0.160775,0.396232,0.903964
0.188100,-0.148605,0.857200,0.702811,-0.037541,0.710386
0.023433,0.252566,0.809810,-0.199552,-0.175628,0.964020
-0.770118,0.260823,0.595343,0.705377,0.231718,-0.669888
0.727538,-0.023354,0.252152,-0.025681,0.659674,0.751113
0.304471,0.522287,0.438614,0.216520,-0.159053,0.963235
-0.193344,-0.236542,0.881894,0.521789,-0.684476,0.509146
-0.105568,-0.543292,0.759887,0.975608,-0.217445,0.030105
-0.440704,0.233409,0.691048,-0.532913,0.097142,-0.840576
-0.920088,-0.004700,0.501528,-0.656582,0.271567,-0.703670
0.435300,0.373684,0.694466,-0.083007,0.496406,0.864112
-0.818492,0.429153,0.626847,0.048192,-0.879200,0.474009
0.394470,-0.178723,0.552725,0.391010,0.643841,-0.657708
0.709110,-0.065722,0.481205,-0.227937,0.360822,0.904352
0.587735,0.512461,0.526262,-0.042105,-0.262160,0.964105
0.972595,-0.514312,0.291739,0.018866,-0.431986,0.901683
-0.434190,-0.719313,0.421736,0.208857,0.536277,0.817793
0.062435,-0.067217,-0.246575,0.456192,0.887430,0.066004
0.892365,-0.421460,0.302799,0.018866,-0.431986,0.901683
-0.774009,-0.299559,0.540325,-0.807978,0.061757,-0.585968
-0.041544,-0.257977,0.886412,0.697128,0.711035,-0.091880
-0.587180,0.115280,0.731842,0.914338,0.322626,0.244741
-0.206371,-0.820280,0.635923,-0.625875,0.779042,0.037068
-0.160855,0.153516,0.528099,-0.478264,-0.680493,-0.555151
0.043609,-0.312662,0.200485,0.228485,-0.260271,-0.938112
-0.222337,0.758475,0.319020,0.270363,0.386913,-0.881591
0.184287,-0.035887,-0.569107,-0.661708,-0.749303,0.026225
0.455634,-0.218528,0.560930,-0.323773,-0.277613,0.904490
0.151244,0.818715,-0.970185,0.202284,0.149854,-0.967794
0.666057,-0.167119,0.280116,-0.011452,0.748543,0.662987
0.083166,-0.669682,0.664692,0.993793,-0.107655,-0.028042
-0.154977,0.862362,-0.973644,0.105982,0.306747,0.945872
0.887520,0.011749,0.513258,0.735137,0.171543,-0.655855
-0.032807,-0.051980,0.747352,0.956246,0.156116,-0.247428
-0.024706,-0.314227,0.594686,-0.515852,0.414991,0.749453
0.526569,0.586443,0.545379,-0.238211,0.599113,-0.764408
0.670823,-0.109656,0.275853,-0.069034,0.810240,0.582019
-0.681230,-0.212974,0.138362,0.339464,0.095867,-0.935721
0.042894,0.154872,0.848715,0.484375,0.742261,-0.463066
0.258241,0.351111,0.509827,0.071989,-0.701605,0.708921
-0.692827,0.020793,0.614232,0.929246,0.340015,-0.144541
-0.701168,0.814087,0.552015,0.930057,0.230563,-0.286068
-0.606324,0.794790,0.527509,0.780033,0.019563,-0.625432
0.488917,-0.413203,0.757635,0.829702,0.110623,-0.547136
0.059417,0.206707,0.802102,-0.140456,0.410195,-0.901117
0.042814,-0.510184,0.722243,0.965496,0.132485,-0.224198
0.136866,-0.183638,0.203810,0.235460,-0.174949,0.956008
-0.670585,-0.037452,0.598735,0.888170,0.368130,0.275018
0.024148,-0.936201,0.669545,-0.690179,0.154071,0.707046
0.464928,-0.021076,0.458160,0.215124,0.292264,-0.931828
0.551434,-0.339290,0.567941,-0.294399,0.085087,0.951887
-0.930813,-0.090430,0.688018,0.912306,0.325336,0.248706
-0.582414,-0.745872,0.434070,0.130804,0.441806,0.887524
0.134006,0.226790,-0.974663,-0.401975,-0.356825,0.843263
-0.796251,0.169752,0.648404,0.884481,0.344017,0.315190
0.333147,-0.818498,0.599887,0.376537,0.439393,-0.815569
0.076098,-0.093420,0.609928,0.923173,-0.376523,0.077344
-0.581779,0.356735,0.598373,-0.705142,0.230317,-0.670618
-0.231473,-0.894405,0.446350,0.668750,-0.245566,-0.701763
0.655968,0.395827,0.504639,-0.667588,0.668151,-0.328482
-0.109224,0.581032,-0.983310,-0.272444,-0.286614,0.918492
-0.035508,-0.166406,0.755798,0.259080,-0.397196,0.880405
0.418540,0.456850,0.746334,-0.311910,0.921376,-0.231903
-0.148463,-0.168897,0.840162,0.660379,0.727446,0.186339
-0.579871,0.402663,0.533971,0.823495,0.557903,0.102952
0.163951,-0.267873,0.768668,0.903578,-0.013177,-0.428221
-0.551514,0.307821,0.189734,0.003292,-0.628026,0.778185
0.094526,-0.485047,0.700673,-0.674880,-0.327305,-0.661368
-0.058384,0.231557,0.872537,0.775596,0.627133,-0.071799
0.888950,-0.365566,0.310843,0.018866,-0.431986,0.901683
-0.710463,0.648034,0.526772,0.568520,-0.761311,0.311753
0.083009,-0.094276,0.786471,-0.191300,0.926790,0.323212
-0.968464,-0.058460,0.674987,0.864080,-0.096358,0.494046
-0.517197,0.355027,0.212068,0.496153,0.654502,-0.570490
-0.638494,0.888495,0.550178,0.835911,-0.259280,0.483763
0.102707,-0.299059,0.858662,0.958181,0.037292,0.283722
-0.092145,0.525138,0.627209,0.304922,0.093917,0.947735
-0.111289,-0.498576,0.182924,0.773684,-0.291065,-0.562756
0.238542,-0.181643,0.837360,-0.635378,0.769236,0.067609
-0.413934,0.472091,0.307169,-0.557476,0.075201,-0.826780
-0.348559,-0.022002,0.797933,0.489889,0.845762,0.211413
0.073795,-0.123042,-0.195592,-0.451304,-0.891331,-0.043041
-0.202240,0.237185,0.664598,0.966032,0.221289,-0.133464
-0.336405,-0.172812,0.637250,-0.051172,-0.843686,0.534393
-0.769323,0.276629,0.612274,0.120921,-0.817367,0.563284
0.044324,-0.750427,0.694627,-0.095742,0.854099,0.511223
-0.579952,0.606382,0.193796,0.753246,-0.497210,0.430584
-0.499167,0.656509,0.476017,0.106573,-0.367562,0.923873
-0.632776,-0.354671,0.719951,-0.388145,-0.840780,-0.377403
0.644371,0.600972,0.519251,-0.280884,0.404410,0.870377
0.028119,0.824908,0.449339,-0.105712,-0.712564,0.693598
0.238779,0.913914,0.413492,-0.080596,-0.614856,0.784511
0.110571,0.010185,-0.256522,-0.457954,-0.886941,-0.060119
0.537611,-0.187267,0.680671,0.914982,-0.254915,-0.312773
-0.325443,-0.343993,0.412446,-0.184109,0.246814,0.951413
-0.504648,0.717888,0.506408,-0.183504,0.814504,0.550372
-0.550641,-0.633154,0.598922,-0.117072,-0.026625,0.992766
0.197394,0.047208,0.882390,-0.590373,0.717052,-0.370536
-0.393678,-0.233483,0.572700,-0.473138,0.758556,-0.448032
0.260703,-0.480492,0.576829,0.013606,0.793750,0.608092
0.377232,-0.233483,0.667855,0.498443,0.762999,-0.411567
0.040909,-0.296639,0.594485,0.604681,-0.367801,-0.706458
-0.360632,0.491739,0.455854,0.498517,-0.125884,0.857691
0.030422,-0.210696,0.741467,-0.125041,-0.257188,0.958237
0.511319,-0.643975,0.600008,0.065045,-0.263731,0.962401
0.053141,-0.022428,0.286417,0.774407,0.630194,0.056113
0.263006,-0.838012,0.674894,-0.461635,0.741677,0.486629
-0.382080,-0.808959,0.212014,-0.150793,0.749758,0.644302
0.286996,0.199801,0.747406,-0.672281,0.016417,-0.740114
0.351337,-0.198806,0.743009,-0.440276,-0.599770,-0.668156
-0.902932,0.392481,0.622852,0.411406,-0.663145,0.625288
-0.614425,-0.459127,0.373529,0.961932,0.223611,-0.157113
0.007228,0.276916,0.809770,0.477063,0.069789,-0.876094
0.400666,-0.061807,0.864842,-0.085857,-0.830800,0.549909
0.220271,0.777771,0.460855,-0.061532,-0.421912,0.904546
0.458257,0.121121,0.641097,0.052428,-0.280380,0.958456
0.307727,0.363432,0.718127,-0.313792,-0.763686,0.564198
0.042974,-0.388991,0.681637,0.165169,0.963841,0.209117
0.125824,-0.064510,0.536303,0.968223,0.159770,0.192401
-0.137979,0.911068,0.488069,-0.413218,0.752658,-0.512598
0.176583,-0.036313,0.800922,-0.441724,0.719766,-0.535553
-0.101360,-0.548490,0.791230,0.963752,-0.234718,-0.126844
0.075780,-0.078539,0.921803,-0.223657,-0.162004,0.961110
-0.101279,-0.540302,0.792986,0.995133,0.097012,0.017298
0.030344,-0.093563,0.109017,0.232580,0.970342,-0.065894
0.343951,0.024140,0.888597,-0.698854,0.505916,0.505621
0.127572,-0.075192,0.894978,0.542051,0.820423,0.181896
0.186035,-0.766520,0.564134,0.921470,-0.274545,-0.274805
-0.451586,-0.461548,0.684639,0.255674,0.160625,0.953326
-0.341966,0.795147,0.302531,-0.541911,0.033480,0.839768
-0.463023,0.323201,0.657412,0.875689,-0.259421,-0.407271
-0.150689,0.440617,-0.972491,-0.208894,0.902443,-0.376776
0.063625,-0.155654,0.831689,0.595567,0.408137,0.691899
-0.462230,0.368843,0.709481,-0.617354,-0.768096,0.170008
0.978313,-0.155441,-0.075918,0.150461,0.859478,0.488527
-0.581382,-0.186772,0.636579,0.938434,0.344102,-0.030602
-0.097626,-0.204786,0.767113,0.910948,-0.060351,0.408083
-0.339265,0.809171,-0.973389,-0.527975,0.839664,0.127304
-0.557790,-0.239888,0.662935,0.667913,0.644053,-0.372946
0.183732,0.267233,0.467088,-0.334035,-0.868137,0.367096
-0.134961,0.675380,-0.972008,-0.045115,-0.071794,0.996399
-0.391692,-0.310455,0.663981,0.733686,-0.001298,0.679488
0.092701,-0.288238,0.847092,0.921720,0.132820,0.364405
0.042259,0.959630,0.485119,-0.061137,0.825950,-0.560418
-0.750895,0.306752,0.605143,-0.556320,0.352825,-0.752345
-0.018192,-0.865209,0.296378,-0.744243,0.050502,-0.665997
-0.333149,-0.448092,0.668123,0.843590,-0.368476,-0.390616
0.116610,-0.089221,0.923090,0.141659,-0.085318,0.986232
0.553974,0.653732,0.527482,-0.693147,-0.600431,-0.398786
0.187068,-0.484834,0.773507,0.103590,0.784884,0.610922
0.711890,0.321706,0.658297,-0.399038,-0.407893,0.821214
-0.040671,-0.822344,0.649771,-0.113566,0.351509,0.929271
0.716338,-0.704003,0.591576,-0.011780,0.672332,0.740156
-0.196362,-0.831814,0.480374,0.961123,-0.263863,0.081353
-0.138454,-0.516451,0.750476,0.090799,-0.916408,-0.389810
0.580586,0.614783,0.565488,-0.406646,0.913446,-0.016007
-0.298198,-0.794573,0.430061,0.120030,0.497617,0.859052
-0.349432,0.374680,0.698354,-0.737237,0.077493,-0.671175
-0.118595,-0.086014,0.885500,0.667209,0.644051,0.374207
0.273651,-0.431004,0.829021,0.935080,-0.334059,-0.118448
-0.495989,0.407792,0.722377,-0.527536,-0.739514,0.418120
-0.089285,-0.385575,0.690646,-0.658177,-0.383014,0.648154
-0.568037,-0.711478,0.600879,0.412545,0.337004,0.846307
-0.489077,0.384580,0.696732,0.764410,0.600767,0.234002
0.452776,-0.850259,0.630855,0.930327,0.354419,-0.094230
0.932003,-0.323271,0.480334,-0.528315,0.286001,0.799429
0.376199,-0.123255,0.934566,0.102816,0.943142,0.316090
0.173485,-0.281189,0.740770,0.110654,0.483716,0.868202
0.517515,-0.372759,0.292517,-0.508598,-0.435559,0.742709
-0.300898,0.788880,0.693688,-0.295025,-0.918995,0.261549
0.465406,-0.025705,0.874467,0.608763,0.775554,-0.167102
0.290571,-0.933280,0.588573,-0.700047,0.713904,-0.016591
-0.617206,0.748718,0.505456,0.793185,0.462929,0.395669
0.548653,-0.158075,0.724160,0.354552,0.010373,-0.934979
0.085709,-0.336300,0.662506,-0.744734,-0.491661,-0.451266
-0.090318,-0.096622,0.765745,-0.652372,-0.757892,0.003382
0.041306,-0.368913,0.894576,0.913501,0.265312,0.308424
0.391215,-0.775208,0.626042,0.808914,-0.273942,-0.520205
-0.396061,0.476076,0.663083,0.957377,0.106110,0.268645
0.079036,-0.459983,0.771362,0.829732,-0.430564,-0.355188
0.124711,0.421108,0.439620,-0.422219,0.234065,-0.875754
-0.466201,-0.568929,0.686516,0.340651,0.433996,0.834029
-0.048138,-0.403446,0.709776,-0.775267,0.060974,0.628684
-0.379380,0.615639,0.471177,0.853125,-0.442966,0.275607
-0.241402,-0.247012,0.308014,0.061090,0.716993,0.694398
-0.259353,-0.822557,0.625654,0.598651,-0.271644,-0.753543
0.988878,-0.209558,0.528662,0.983057,0.182956,-0.011257
-0.574310,-0.220949,0.339196,-0.749881,-0.075784,-0.657218
-0.100724,0.876817,0.461190,-0.009410,-0.414670,0.909923
-0.863533,0.499362,0.659463,0.436064,0.684384,-0.584352
-0.417189,0.478141,0.635132,-0.501412,0.799306,0.331204
0.245373,0.255056,0.461163,0.547126,0.606725,-0.576661
-0.000319,0.702294,0.433909,0.360827,-0.129155,-0.923646
0.235999,-0.652520,0.666823,0.795027,-0.554163,-0.246648
0.054571,-0.102320,-0.042229,0.842214,0.525393,0.120987
0.332989,-0.293436,0.734040,0.480713,0.787368,0.385962
-0.565654,-0.111864,0.695606,0.872537,-0.396814,-0.284988
-0.129637,-0.784964,0.218798,-0.576066,0.106559,0.810428
-0.765193,0.408787,0.465614,-0.217849,0.506205,-0.834445
0.347604,0.004200,0.871665,-0.531776,-0.834745,0.142882
0.262849,0.426875,0.326018,-0.522571,0.356834,0.774332
-0.359441,0.332384,0.618294,-0.508238,0.501527,-0.700117
0.381603,-0.354388,0.543717,-0.562188,0.731810,-0.385225
-0.432442,-0.482913,0.664196,-0.451465,-0.316228,-0.834374
0.616411,0.115849,0.656782,-0.015610,-0.988576,0.149910
-0.179919,0.903375,0.332802,-0.628930,0.489191,-0.604268
-0.387004,-0.546925,0.673218,-0.629588,0.300191,-0.716593
0.290174,-0.222800,0.725259,0.836924,0.528935,0.140662
0.242035,-0.253631,0.894093,0.311942,-0.402098,0.860819
-0.142665,0.937769,0.354385,0.674206,0.140037,-0.725145
-0.229805,-0.308247,0.670416,0.468021,0.717287,-0.516193
0.508379,-0.239106,0.709360,0.893222,0.444363,0.068533
-0.047980,-0.146328,0.860378,0.874762,-0.479621,-0.068966
-0.179999,0.353819,0.806660,0.029796,-0.734624,0.677820
-0.174438,0.781048,0.488136,0.946817,-0.314163,-0.069565
0.203748,0.478214,0.412982,0.867326,-0.497560,0.013439
0.023908,0.323340,0.574376,0.931606,-0.353463,-0.084700
-0.353643,0.068643,0.348151,-0.051773,-0.519324,0.853008
0.108031,0.909429,0.474650,0.312177,-0.580786,0.751820
-0.523156,-0.363215,0.767649,-0.536028,-0.334463,-0.775118
0.332194,-0.061307,0.707001,0.406436,0.902608,-0.141805
0.382078,0.559102,0.774942,0.952536,-0.117221,0.280953
-0.322742,0.806681,0.193394,0.145391,0.350412,-0.925242
0.559535,-0.316861,0.684626,-0.682355,0.193872,0.704844
-0.887680,0.406010,0.424659,-0.676553,0.425875,-0.600755
0.019065,-0.237681,0.839464,0.396677,0.034285,0.917318
-0.668282,-0.139279,0.610706,-0.608359,-0.568456,-0.553856
-0.290016,-0.794860,0.438333,-0.627691,-0.172359,-0.759142
0.276351,-0.375819,0.826581,0.984645,-0.012752,-0.174100
-0.679164,-0.759544,0.618803,0.323223,0.832073,0.450756
-0.612202,-0.178154,0.511462,0.462837,0.145348,-0.874446
-0.198825,-0.117488,0.817278,0.744201,-0.586871,0.318980
0.535864,0.420252,0.509518,0.746692,0.040845,-0.663914
0.581777,0.312519,0.656340,0.357025,0.134480,-0.924364
-0.709827,0.793652,0.540607,0.969551,0.243585,-0.025222
0.521248,0.382159,0.365056,0.533423,-0.048838,-0.844437
-0.709510,0.470948,0.184251,-0.243011,-0.018337,0.969850
0.033520,-0.104028,0.919632,-0.369759,-0.148311,0.917214
0.329414,0.825551,-0.971807,0.150618,0.284652,0.946725
0.302724,0.200370,0.685498,-0.597569,0.166211,-0.784401
0.047025,0.263957,0.808671,0.509342,-0.118092,0.852423
0.326950,-0.874679,-0.651192,0.929713,0.289042,-0.228229
-0.728256,0.690260,0.543154,0.681805,-0.611721,0.401173
0.125347,-0.053402,0.908116,0.237216,-0.967987,0.082040
0.443244,-0.285035,0.737901,-0.077303,0.820407,0.566530
0.026849,0.507693,0.516369,-0.625278,-0.677482,-0.387357
0.515925,-0.363359,0.764579,0.930123,-0.087801,-0.356598
-0.482246,-0.049129,0.524131,-0.343841,-0.077308,-0.935840
-0.345381,-0.225721,0.592822,0.756613,-0.601727,0.255853
0.206689,0.111651,0.673942,0.787896,-0.614584,0.038808
