0.446314,-0.343382,-0.161454,0.317994,-0.222886,0.921521
0.258650,-0.137289,-0.143339,0.420366,-0.141907,-0.896189
0.240779,-0.090968,-0.107709,-0.484518,0.837931,0.251226
0.187981,-0.040652,-0.112129,0.991920,0.092426,0.086905
0.280445,-0.048214,-0.000693,-0.569253,0.712995,0.409376
0.304608,-0.046323,0.032913,-0.845817,0.386487,-0.367724
0.291295,-0.020902,0.048136,-0.603639,0.774302,0.189937
0.332695,-0.031305,0.088786,0.347697,0.933201,0.090790
0.299686,0.006092,0.093454,-0.248126,-0.968685,0.009143
0.426434,0.020168,0.276833,0.052927,0.708292,0.703933
0.740209,-0.110820,0.519431,0.739709,-0.458552,0.492505
0.639265,-0.014706,0.510776,-0.704392,0.689933,-0.166808
0.652306,-0.008929,0.534881,-0.678792,0.704368,-0.207622
0.648476,0.008404,0.552066,0.978389,-0.156500,0.135143
0.647564,0.023214,0.569582,-0.808914,-0.586880,0.035086
0.632609,0.047689,0.581376,-0.332112,0.903623,0.270495
0.620389,0.070587,0.594431,-0.498522,-0.584929,-0.639792
0.063055,0.461343,0.365362,-0.574195,0.302908,0.760623
0.008891,0.512604,0.360012,0.492835,-0.272915,-0.826215
0.666620,0.081303,0.668501,-0.116966,-0.198840,0.973027
0.062054,0.759453,0.744203,-0.349232,0.435430,-0.829722
0.218620,-0.073423,-0.342065,-0.227143,0.973090,-0.038752
0.205763,-0.047480,-0.324426,0.786746,-0.613174,-0.071050
0.289473,-0.066073,-0.233418,0.662831,-0.667990,0.338296
0.297406,-0.054622,-0.206586,0.978587,0.055670,-0.198160
0.300506,-0.040126,-0.182482,0.624470,0.762969,0.167078
0.306615,-0.026890,-0.156167,0.789561,0.606851,-0.091241
0.340445,-0.015545,-0.094014,-0.496743,0.860215,-0.115224
0.300323,0.123633,0.039254,0.783708,-0.189296,-0.591582
0.842521,-0.104306,0.482293,0.922613,-0.089922,0.375099
0.851821,-0.096956,0.505344,-0.229773,0.173305,-0.957690
0.794557,-0.044329,0.497412,0.135910,0.603321,0.785832
0.742579,0.019117,0.511272,0.415783,0.110127,0.902771
0.657320,0.091384,0.491174,0.115360,0.918096,0.379199
0.592851,0.150000,0.480826,-0.536738,0.694140,0.479668
0.690057,0.097270,0.544424,0.907535,0.360176,0.215995
0.732731,0.081091,0.582017,0.086747,-0.987673,0.130292
0.229197,0.442228,0.372406,0.607488,-0.181534,0.773307
0.154515,0.522583,0.377528,-0.024430,-0.219014,0.975416
0.137100,0.549158,0.389240,0.009725,-0.105784,0.994342
-0.100626,0.728884,0.303086,0.192777,0.853826,0.483547
0.867324,-0.043489,0.468970,0.770253,0.596319,0.226084
0.790179,0.037604,0.472275,0.667522,0.383510,-0.638228
0.759997,0.072478,0.477748,-0.496376,-0.780185,-0.380687
0.761639,0.084348,0.497288,0.303370,-0.915487,-0.264294
-0.054485,0.767227,0.278795,-0.520629,-0.824294,-0.222454
0.081475,0.684557,0.359806,0.640891,-0.658500,0.394507
0.045821,0.723002,0.362760,0.328030,-0.468823,-0.820123
0.246431,0.772058,0.725262,0.143328,-0.795796,0.588359
0.275520,-0.076578,-0.442905,0.308385,-0.892794,0.328357
0.296585,-0.055254,-0.381724,0.761784,-0.565631,-0.315827
0.310355,-0.046954,-0.349687,-0.562439,0.797252,-0.219207
0.311997,-0.031513,-0.325417,0.156786,-0.536177,0.829417
0.323668,-0.022899,-0.295839,-0.716448,-0.420472,0.556691
0.320932,-0.003992,-0.273262,-0.535047,-0.844574,-0.020491
0.317648,0.030987,-0.228151,0.923332,-0.378352,0.065636
0.388318,0.048108,-0.099943,-0.423171,0.903845,-0.063171
0.354123,0.179517,0.037313,-0.716914,0.356990,0.598826
-0.086765,0.090756,-0.918413,-0.813891,0.311062,-0.490735
0.343910,-0.033824,-0.443091,0.990195,-0.104276,0.092957
0.333697,-0.010503,-0.423985,0.980700,-0.192690,-0.033123
0.344002,-0.001470,-0.394179,0.877819,-0.478879,0.010404
0.358956,0.005041,-0.361110,0.943642,-0.330877,0.007677
0.361235,0.019223,-0.336137,-0.082059,0.111161,0.990409
0.324216,0.060607,-0.331077,-0.697989,-0.657230,0.284360
0.796198,0.122268,0.486981,-0.646098,-0.094097,-0.757432
0.655586,0.248739,0.460584,0.446509,0.125894,0.885878
0.113572,0.742332,0.368254,0.832972,0.034943,0.552210
0.079560,0.779517,0.372013,-0.249453,0.599957,0.760148
-0.054485,0.125210,-0.964207,0.929564,-0.337029,0.149407
-0.073269,0.155042,-0.947145,0.998151,0.039229,0.046435
0.339168,0.063339,-0.427393,0.920638,0.390414,-0.001357
0.365248,0.077312,-0.362969,-0.570003,0.604791,-0.556169
0.449779,0.095273,-0.198758,-0.504237,0.731034,0.459711
0.803492,0.158193,0.470126,-0.435127,0.523620,0.732452
0.731365,0.222373,0.455234,0.242425,0.573824,0.782276
0.693249,0.261869,0.456329,0.599965,0.048742,0.798540
0.126431,0.775420,0.351729,0.583485,0.282677,0.761341
0.102173,0.805460,0.359888,0.475734,-0.792388,-0.381836
0.002143,0.142543,-0.949521,-0.441901,0.437855,0.782948
0.252542,-0.009561,-0.779010,0.967925,-0.240969,0.071102
0.260840,0.162710,-0.482915,0.942824,-0.287679,0.168294
0.528109,0.080566,-0.169489,0.822028,0.569250,-0.014948
0.305429,0.432457,0.034545,-0.094219,-0.113981,0.989005
0.790817,0.193593,0.456329,0.277927,0.942215,0.187048
0.728629,0.251156,0.446001,0.905296,0.391863,0.163956
0.147950,0.775840,0.334338,-0.753527,-0.496830,0.430531
0.141658,0.792330,0.350779,0.801937,0.500688,0.325898
0.115489,0.824370,0.358856,0.998509,0.045393,-0.030326
0.260657,-0.007250,-0.792044,0.864272,-0.502605,-0.020545
0.270689,0.001996,-0.759491,0.741607,-0.591787,-0.315923
0.419140,0.171637,-0.217740,0.463227,-0.616268,-0.636894
0.398350,0.227627,-0.158831,-0.180265,0.494528,0.850263
0.769116,0.212711,0.454139,0.071349,0.919860,0.385703
0.702822,0.273423,0.441787,-0.484369,-0.308929,-0.818504
0.685861,0.297689,0.453767,0.423535,0.754402,0.501493
0.138194,0.788025,0.337209,0.611096,0.788292,-0.071813
0.137646,0.800104,0.356129,0.731906,0.427476,0.530640
0.115489,0.828570,0.366168,-0.877911,0.116275,-0.464492
0.131994,-0.006829,-0.942911,-0.452341,-0.881352,-0.136408
0.040531,0.090231,-0.937871,0.194889,0.257358,0.946459
0.338074,0.059665,-0.473413,-0.601930,-0.629016,-0.491955
0.287739,0.169223,-0.375238,0.940280,0.147274,-0.306894
0.437379,0.120273,-0.198985,-0.299294,0.838386,0.455556
0.761455,0.057879,0.256467,-0.419884,0.407508,-0.810947
0.777047,0.167438,0.468143,-0.235696,0.675900,0.698288
0.695344,0.239286,0.448603,0.890293,-0.293935,0.347823
0.676288,0.265020,0.458766,0.323315,-0.171870,0.930552
0.127705,0.769432,0.361603,0.797258,0.189966,0.572968
0.099621,0.801783,0.367965,0.862965,-0.088017,0.497538
0.675467,0.204306,0.459220,-0.542491,0.378528,0.749947
0.118862,0.714914,0.357513,-0.738887,0.147307,-0.657531
0.087402,0.750420,0.362367,-0.393860,-0.103301,-0.913347
0.085304,-0.017648,-0.937499,0.847429,0.173367,0.501804
-0.012083,0.082877,-0.936342,0.425587,-0.433986,0.794060
0.333789,0.017017,-0.448399,0.936063,0.308849,-0.168517
0.344093,0.024893,-0.417127,0.872687,0.475501,-0.110976
0.336343,0.045483,-0.396162,0.647138,0.749452,0.139765
0.340354,0.057354,-0.368752,0.769441,0.236084,-0.593485
0.315277,0.089599,-0.358280,0.101497,-0.822890,0.559062
0.335979,0.088865,-0.323145,0.993447,-0.038897,0.107472
0.331874,0.106618,-0.300755,0.838354,-0.544390,-0.028320
0.478230,0.044852,-0.151292,-0.336745,-0.592452,-0.731850
0.169654,0.321324,-0.219021,-0.669562,0.676636,0.306352
0.360598,0.277205,0.037106,-0.672452,-0.116546,0.730907
0.713675,0.044431,0.255682,-0.419884,0.407508,-0.810947
0.781152,0.114600,0.490265,-0.419845,0.411853,-0.808769
0.043359,-0.018383,-0.935867,0.743437,-0.491025,-0.454088
0.316190,-0.002313,-0.432949,0.999836,0.012387,-0.013241
0.322663,0.008086,-0.403742,0.758462,0.649862,-0.049141
0.315642,0.028256,-0.382281,0.779988,0.619266,-0.090157
0.309078,0.047900,-0.360676,0.669712,0.720676,0.179198
0.312450,0.059559,-0.334753,0.674360,0.696887,-0.244105
0.292756,0.087605,-0.321369,-0.682597,-0.727832,0.065740
0.305065,0.135923,-0.217885,-0.687882,0.562218,-0.459052
0.680389,0.033718,0.262601,-0.419884,0.407508,-0.810947
0.847992,-0.006618,0.486217,-0.612483,-0.726076,-0.312534
0.763918,0.067647,0.465954,0.845529,0.423585,-0.325049
0.760362,0.082143,0.484193,0.105641,-0.923215,0.369477
0.744222,0.105778,0.495491,-0.220016,0.973773,0.057956
0.729723,0.127521,0.507637,0.774332,-0.539839,-0.330128
0.103542,0.679832,0.353237,0.755742,-0.291264,0.586532
0.088952,0.703047,0.366581,0.481112,-0.223651,0.847650
0.070441,0.728044,0.377342,-0.099865,-0.118687,0.987897
0.235125,0.766807,0.729600,0.741204,-0.117830,0.660857
0.252723,0.171218,-0.210242,0.999617,-0.026796,0.006968
0.382939,0.089916,-0.119338,-0.497519,0.822466,0.275724
0.362969,0.144749,-0.060016,0.719964,-0.693498,0.026711
0.321753,0.239811,0.030145,-0.625785,0.061539,0.777564
0.824831,-0.012606,0.485556,0.555647,0.740061,0.378901
0.757354,0.048843,0.472440,0.723940,0.687118,0.061476
0.741759,0.072058,0.484916,0.627574,0.573309,-0.526752
0.722062,0.097898,0.494686,-0.006583,-0.998982,0.044617
0.650755,0.163130,0.480681,0.266725,0.926900,0.264034
0.580175,0.228047,0.467131,-0.032116,0.919620,0.391494
0.454429,0.334454,0.427989,0.077944,0.955038,0.286054
0.087950,0.669013,0.355447,0.648469,0.462326,0.604766
0.043178,-0.026576,-0.921966,-0.170690,0.105894,0.979618
0.314640,-0.014286,-0.419812,0.966815,-0.250129,0.051993
0.332331,-0.012814,-0.385648,0.899276,-0.415113,0.137779
0.334882,-0.000316,-0.360036,0.963657,-0.265653,0.028158
0.354398,-0.000002,-0.324550,0.834723,0.149374,0.530024
0.298681,0.053885,-0.330725,0.662148,0.651750,-0.369841
0.301052,0.066701,-0.304762,-0.673354,0.726668,0.136192
0.279716,-0.049371,-0.509457,-0.430898,0.900307,0.061435
0.293942,-0.044749,-0.475251,0.258095,0.545827,0.797157
0.299137,-0.019748,-0.423014,-0.650596,0.604084,0.460226
0.318926,-0.019540,-0.386536,0.867015,-0.495033,0.056809
0.322299,-0.008195,-0.360407,-0.756587,0.563627,0.331513
0.335066,-0.003153,-0.328268,0.817541,0.536677,0.208816
0.304700,0.033087,-0.319737,0.815221,0.330030,0.475915
0.296858,0.053045,-0.298772,0.404201,-0.429183,-0.807727
0.295765,0.121742,-0.180395,0.836265,-0.043099,-0.546629
0.355035,0.092122,-0.125679,-0.548077,0.821147,0.159151
0.333516,0.147374,-0.068381,0.692994,-0.720772,-0.015712
0.288835,0.245062,0.022317,-0.577888,-0.146092,0.802934
0.834039,-0.043592,0.498837,0.572271,0.632159,0.522381
0.776226,0.011241,0.490141,0.648121,0.698620,0.303098
0.732002,0.067435,0.508793,0.843819,-0.244797,-0.477538
0.614735,0.167438,0.473080,0.959670,0.187968,-0.209051
0.587015,0.199263,0.479050,-0.256566,0.794081,0.551007
0.463456,0.304199,0.440093,-0.182973,0.789875,0.585336
0.167739,0.575316,0.381762,-0.248038,0.285825,0.925625
-0.062235,0.762816,0.296146,-0.444551,-0.410859,-0.795971
0.022933,0.708612,0.354663,0.025246,0.820924,0.570479
0.309078,-0.050631,-0.519082,0.832762,-0.550724,0.056671
0.324305,-0.047163,-0.484216,0.634272,-0.736726,-0.234379
0.317740,-0.027730,-0.461805,0.980946,0.030550,-0.191862
0.329411,-0.022585,-0.430491,0.895152,-0.441310,0.062828
0.332058,-0.011029,-0.404362,0.871666,0.488120,-0.044007
0.329231,0.005567,-0.380422,0.930830,-0.341732,0.129519
0.306250,0.035610,-0.368587,0.620258,-0.015621,-0.784242
0.313727,0.044326,-0.339401,0.753381,0.649318,-0.103942
0.304155,0.065124,-0.319262,0.903459,0.018615,0.428270
0.299137,0.082877,-0.297078,0.605526,-0.794924,0.037868
0.198102,0.209874,-0.255333,0.881945,0.314713,0.350896
0.290293,0.155462,-0.182688,0.884178,-0.034922,-0.465843
0.373090,0.195904,0.043261,0.547468,-0.338177,-0.765451
0.230658,0.339074,0.037127,0.276242,0.227002,-0.933895
0.875347,-0.067858,0.500841,0.230686,0.939040,0.254928
0.793371,0.005881,0.481094,0.438729,0.725864,0.529753
0.729358,0.065547,0.469424,-0.660477,-0.732750,-0.163850
0.730180,0.075840,0.489914,-0.109477,0.893347,-0.435828
0.693978,0.114600,0.492538,-0.123260,0.856166,-0.501783
0.632244,0.172897,0.483201,-0.237538,0.811935,0.533233
0.530388,0.261869,0.454036,-0.001086,0.654530,0.756035
0.181325,0.530043,0.289040,0.890397,0.451218,-0.059958
0.205671,0.555883,0.380461,0.432940,-0.364462,0.824458
0.046731,0.690125,0.327026,0.696667,0.711146,-0.094477
0.054120,0.695376,0.350800,0.306670,0.265750,-0.913964
-0.091050,0.776049,0.258243,0.287063,0.946183,-0.149442
0.017918,0.702624,0.329277,0.906301,-0.351381,-0.234841
0.051841,0.686868,0.364970,0.119449,0.289354,-0.949740
0.178041,0.761553,0.739556,-0.259595,-0.282162,-0.923577
0.315918,-0.057985,-0.498448,0.738382,-0.669260,-0.082958
0.327224,-0.051997,-0.465771,0.446049,0.805552,-0.390033
0.318469,-0.031407,-0.444454,0.998666,-0.030174,0.041906
0.330508,-0.026788,-0.412831,0.884431,0.349766,-0.308942
0.340354,-0.020380,-0.382736,0.919064,-0.335998,0.205979
0.327680,0.002730,-0.364435,0.948861,-0.308250,-0.068149
0.344641,0.003675,-0.330953,-0.703598,-0.622155,-0.343326
0.307071,0.045271,-0.326264,0.907892,0.418057,0.030988
0.216705,0.178779,-0.252483,0.841088,0.267232,0.470275
0.283272,0.142018,-0.193904,0.939818,-0.038716,0.339475
0.417042,0.055568,-0.099529,-0.423577,0.858877,-0.287945
0.289745,0.250631,0.017091,-0.577888,-0.146092,0.802934
0.657228,0.007878,0.266567,-0.397822,0.387074,-0.831812
0.884923,-0.120273,0.462174,0.923516,-0.383554,0.002080
0.848357,-0.059979,0.503320,0.146997,0.570872,0.807773
0.683125,0.088234,0.463021,-0.426211,-0.884705,0.188788
0.727444,0.065230,0.504290,-0.440167,-0.580370,-0.685145
0.627046,0.153782,0.476240,0.683877,-0.708217,0.175332
0.597866,0.187185,0.482396,-0.413596,0.611608,0.674443
0.493822,0.278465,0.452239,-0.576294,0.388260,0.719124
0.318561,-0.046743,-0.355016,0.857281,-0.494774,0.142365
0.318197,-0.005253,-0.279810,-0.256084,-0.884582,0.389790
0.232024,0.123844,-0.206380,0.988338,-0.081778,0.128455
0.291114,0.130461,-0.082571,0.507782,-0.848839,0.147070
0.377740,0.115439,0.052639,0.683364,-0.306109,-0.662805
0.596407,0.007666,0.269769,-0.307167,0.271436,-0.912124
0.877902,-0.172900,0.471345,0.839132,-0.537284,0.084752
0.857292,-0.146640,0.480681,0.865392,-0.449564,0.221332
0.827931,-0.102521,0.505819,0.032937,-0.234856,0.971472
0.788994,-0.061870,0.506108,-0.404471,0.702852,0.585152
0.744770,-0.017017,0.504662,0.380356,0.208794,0.900963
0.713126,0.018277,0.509351,0.446356,-0.250735,-0.859010
0.604522,0.113128,0.477438,-0.463677,0.764455,0.447897
0.587107,0.136869,0.488282,-0.467460,0.645947,0.603517
0.674827,0.079517,0.548700,0.953944,0.254666,0.158542
0.709662,0.062918,0.584661,-0.090668,0.946882,0.308534
0.640178,0.127310,0.570532,0.544539,0.835115,0.077847
0.146401,0.533508,0.379656,0.173925,-0.062661,-0.982763
0.026762,0.637816,0.344438,0.264930,-0.839895,-0.473697
0.023117,0.651468,0.362099,0.209839,0.123437,0.969913
-0.027859,0.701890,0.357988,0.236050,-0.836857,-0.493914
0.273240,-0.096850,-0.532488,0.071895,-0.992637,0.097487
0.271782,-0.081617,-0.506710,-0.386263,0.908502,-0.159452
0.284458,-0.076052,-0.473434,0.044998,0.998842,0.017041
0.294306,-0.069958,-0.443091,-0.493929,0.798318,-0.344562
0.283729,-0.048426,-0.424274,-0.535807,0.830908,-0.150010
0.309898,-0.053362,-0.384202,0.865001,-0.477450,-0.154319
0.158255,-0.084768,-0.510779,0.721299,0.543863,-0.428882
0.249077,-0.109034,-0.384987,0.160228,-0.961215,0.224482
0.234304,-0.070378,-0.343119,-0.110556,0.991970,-0.061431
0.305794,-0.029727,-0.136813,0.961364,-0.275165,0.007937
0.323576,-0.029727,-0.103970,-0.585793,0.777367,0.229233
0.303606,0.011343,-0.067204,0.988481,-0.141484,0.053742
0.314640,0.015440,-0.039133,0.994745,-0.073295,0.071482
0.388593,-0.027416,0.020995,0.273118,0.867397,-0.415968
0.609720,-0.180462,0.156887,-0.248380,-0.964271,-0.092139
0.382482,0.001784,0.061955,0.842457,-0.519417,-0.143084
0.338166,0.047374,0.061893,0.866077,-0.472367,-0.163648
0.512241,-0.071535,0.172193,-0.217213,-0.966013,0.140135
0.504035,-0.006618,0.273404,-0.112451,-0.126280,-0.985600
0.811242,-0.217647,0.466202,-0.490741,0.774545,-0.399066
0.356858,0.140755,0.264688,0.371250,0.554994,-0.744416
0.789631,-0.178783,0.495099,0.599464,-0.651267,0.465289
0.769389,-0.152836,0.504497,0.483241,-0.336566,0.808209
0.741850,-0.120379,0.511086,-0.657257,0.241517,-0.713921
0.718689,-0.092227,0.519080,0.613655,-0.168692,0.771343
0.675010,-0.047688,0.518026,0.777750,0.574493,0.255074
0.640451,-0.009981,0.521331,0.594885,-0.783914,0.177739
0.637896,0.002941,0.539776,0.800979,-0.583448,0.134239
0.637896,0.013340,0.558552,0.904490,-0.283021,0.319057
0.647199,0.016386,0.581356,0.814583,-0.547320,0.192081
0.608627,0.057248,0.582492,0.677247,-0.728263,-0.104737
0.674189,0.016805,0.631466,0.853667,0.520104,-0.027276
0.136004,0.434559,0.380978,0.046438,-0.382603,0.922745
0.093878,0.478256,0.381577,0.331088,-0.102326,-0.938035
0.672912,0.038550,0.668749,0.152783,-0.064335,0.986164
0.034696,0.535293,0.374306,0.743064,-0.146427,-0.653005
0.619568,0.090544,0.663296,0.614751,0.632624,-0.471029
-0.056126,0.617226,0.352845,-0.722053,-0.078458,0.687374
0.597228,0.118171,0.671042,0.366684,-0.153535,0.917589
-0.165368,0.713446,0.322151,-0.097799,0.908446,0.406401
0.189987,0.549581,0.689115,-0.692865,-0.243681,-0.678644
0.252815,-0.064813,-0.087549,0.900820,-0.007225,-0.434133
0.266219,-0.061450,-0.057413,0.305745,0.902622,0.302976
0.282360,-0.061239,-0.027050,0.887153,-0.325611,0.327012
0.276980,-0.044749,-0.007861,-0.136659,0.700922,0.700024
0.296494,-0.046640,0.024919,0.798018,-0.205231,0.566610
0.281995,-0.023845,0.039275,0.696522,-0.716343,-0.041344
0.295765,-0.021220,0.068585,0.340482,-0.940243,-0.003831
0.305978,-0.016597,0.096057,-0.248126,-0.968685,0.009143
0.383122,-0.050000,0.177666,-0.034914,-0.997435,0.062486
0.426525,-0.035716,0.283277,0.017871,-0.809905,0.586289
0.315097,0.072584,0.270926,-0.066998,0.995957,0.059835
0.711484,-0.217856,0.483098,-0.339765,0.934650,-0.104826
0.693065,-0.193173,0.493260,-0.155330,0.969297,-0.190620
0.687230,-0.177625,0.510260,0.264758,-0.768118,0.583008
0.670087,-0.153993,0.521063,0.123420,0.835040,-0.536168
0.627230,-0.109874,0.520278,0.326084,0.228738,-0.917250
0.599872,-0.077626,0.526887,0.343555,0.102421,-0.933531
0.639630,-0.097376,0.565327,0.942619,0.235857,0.236307
0.672183,-0.090968,0.636754,0.935883,0.352088,-0.012532
0.666439,-0.075946,0.652225,0.780878,0.261105,0.567498
0.632425,-0.039181,0.655364,-0.585693,0.060500,-0.808272
0.032689,0.425103,0.378106,0.477195,-0.776813,-0.410910
0.633430,-0.029096,0.674553,-0.469327,0.304617,-0.828819
-0.109835,0.547164,0.332499,0.201296,0.808613,0.552834
0.589202,0.015546,0.673004,-0.555106,-0.324326,-0.765944
-0.159713,0.597059,0.329814,-0.234352,-0.557629,-0.796322
0.570603,0.040229,0.682340,-0.370883,-0.371997,-0.850919
-0.195278,0.635713,0.332830,0.513588,0.419967,0.748235
-0.231295,0.674578,0.335763,0.374139,0.309264,0.874286
0.192723,0.437919,0.694403,0.967377,0.073332,0.242496
0.096613,0.523843,0.670752,0.227813,-0.843203,0.486940
0.130716,0.507459,0.703801,-0.073444,-0.129396,0.988869
0.266492,-0.076892,0.067594,-0.220486,0.964352,-0.146323
0.275155,-0.070798,0.094549,-0.014251,0.984724,0.173536
0.287558,-0.067438,0.122868,-0.051995,0.993844,-0.097829
0.314913,-0.075840,0.158477,-0.345881,0.930681,0.119159
0.300871,-0.053468,0.172420,0.205608,-0.977879,0.038445
0.293758,-0.036450,0.189378,0.558992,-0.829173,0.000275
0.621211,-0.272060,0.372364,-0.364778,0.182295,-0.913075
0.290658,-0.022165,0.209372,0.998156,0.002904,-0.060626
0.614006,-0.255253,0.388641,0.917754,-0.341726,0.202363
0.345371,-0.040021,0.277783,-0.294141,0.951969,0.085067
0.666620,-0.260821,0.475373,-0.463721,0.870366,0.165607
0.654036,-0.240231,0.488489,-0.523778,0.814142,-0.250655
0.641088,-0.219644,0.501440,0.664858,-0.698726,0.264094
0.595951,-0.174160,0.499705,0.940257,0.326031,0.098087
0.597957,-0.164813,0.519575,0.432562,0.206619,0.877609
0.550722,-0.117754,0.516725,0.440276,0.897600,0.021700
0.477682,-0.050420,0.501750,-0.171210,0.869468,0.463371
0.623762,-0.151576,0.590072,0.578959,0.760006,-0.295292
0.553369,-0.086976,0.575572,-0.810407,0.061570,0.582623
0.673096,-0.169118,0.649891,0.481205,-0.244571,0.841800
0.638628,-0.131932,0.652844,-0.494037,-0.146416,-0.857024
0.597045,-0.089390,0.651626,-0.033577,0.431942,0.901276
0.024939,0.353047,0.387133,0.301213,-0.590208,-0.748950
0.594220,-0.076472,0.669121,0.154000,-0.733218,0.662326
-0.011535,0.392752,0.390273,-0.405173,0.677312,0.614071
0.570238,-0.047480,0.676805,0.185295,-0.599074,0.778958
0.544430,-0.016703,0.683538,-0.139112,-0.105654,-0.984624
-0.143209,0.517438,0.369741,-0.090381,-0.006399,0.995887
0.517804,0.013866,0.689280,-0.550437,0.128292,-0.824961
-0.230383,0.595796,0.349251,-0.280897,-0.632950,-0.721437
0.453151,0.074055,0.677878,0.320768,0.770203,0.551268
-0.275431,0.641701,0.348074,-0.578768,0.528773,0.620827
0.372088,0.147688,0.659888,0.612933,0.741893,0.271860
0.371632,0.158193,0.677527,-0.544085,-0.747351,-0.381363
0.114392,0.370062,0.580901,0.419343,0.372486,0.827892
0.222084,0.326575,0.701880,0.819037,0.443043,-0.364543
0.129347,0.410085,0.679324,0.941144,-0.307077,-0.141250
0.050655,0.481827,0.662614,0.821710,0.064223,-0.566276
0.096065,0.456512,0.700620,-0.359310,-0.477338,0.801901
0.071627,0.485923,0.708139,0.190609,-0.337677,0.921760
0.070349,0.516492,0.760149,0.324560,0.167922,0.930840
0.313819,-0.161450,0.004285,0.957224,-0.201925,-0.207242
0.290566,-0.132144,0.014179,0.979436,0.125461,0.158002
0.245429,-0.086345,0.012939,0.582558,0.812375,-0.025931
0.255826,-0.081094,0.040721,0.999957,0.000840,0.009220
0.215428,-0.084245,0.102419,0.365970,-0.876559,0.312586
0.201113,-0.061764,0.116423,0.101316,-0.994664,-0.019447
0.244881,-0.082460,0.160378,0.646696,-0.762545,0.017589
0.254000,-0.076997,0.186486,-0.389839,0.918240,-0.069718
0.269868,-0.076680,0.215755,0.889911,-0.449267,-0.078856
0.281812,-0.074369,0.242173,0.305747,0.948112,-0.087188
0.534857,-0.254621,0.386079,-0.558264,0.454804,-0.693898
0.273516,-0.056408,0.258346,0.350308,0.936547,-0.012805
0.270869,-0.042858,0.278010,-0.095094,0.992543,-0.076264
0.280626,-0.038866,0.302673,-0.572904,0.819518,0.013090
0.620846,-0.286662,0.487539,0.614794,-0.764964,0.191983
0.586194,-0.227101,0.529717,-0.401462,0.598997,0.692843
0.456254,-0.105778,0.506728,-0.024423,0.886974,0.461173
0.341450,-0.006724,0.471552,0.212507,-0.249108,-0.944874
0.267132,0.061345,0.456556,-0.046109,0.967116,0.250120
0.616833,-0.186556,0.657946,0.135731,0.161898,-0.977428
0.564856,-0.136347,0.651997,-0.430465,0.151011,0.889885
0.024756,0.281196,0.402480,0.973125,0.091874,-0.211158
0.527653,-0.097164,0.652803,0.714276,-0.097671,0.693015
-0.024027,0.329938,0.398968,0.255520,-0.518324,-0.816119
0.525373,-0.084666,0.670752,0.876699,-0.278998,0.391866
-0.073088,0.379516,0.396511,0.343571,0.514045,0.785950
0.515433,-0.067018,0.684096,0.345895,-0.275177,0.897014
0.481876,-0.030567,0.687545,-0.485935,0.557736,-0.672903
0.453335,0.001996,0.693164,-0.443206,-0.238859,-0.864011
0.402727,0.051994,0.688805,0.481327,0.537413,0.692468
0.382301,0.078046,0.697357,0.669850,0.343941,0.658031
0.038890,0.366911,0.580633,0.524372,0.425191,0.737731
0.216797,0.237500,0.677589,-0.067180,0.971153,0.228798
0.284547,0.194852,0.725820,0.746101,0.665616,0.016999
0.140289,0.318173,0.680481,-0.100299,-0.053311,0.993528
-0.023846,0.468068,0.644541,-0.289836,0.505274,0.812831
0.129531,0.356826,0.728794,-0.726999,-0.595572,-0.341712
0.102813,0.397583,0.752775,0.761971,0.180765,0.621872
0.082388,0.423949,0.761843,-0.565294,0.554645,-0.610583
0.056126,0.455146,0.768411,-0.304877,0.070231,-0.949799
-0.338074,-0.129621,-0.996883,0.468723,-0.080831,-0.879639
0.197373,-0.209874,-0.154349,0.934543,0.340583,0.103115
0.263211,-0.206828,-0.028062,0.940169,-0.223557,-0.257107
0.258926,-0.191493,-0.008191,0.884967,0.206611,-0.417307
0.316555,-0.221639,0.044212,0.844100,0.506146,-0.176950
0.071991,-0.013446,-0.035560,0.065792,0.610027,0.789644
0.792458,-0.529202,0.371166,0.746464,-0.407439,0.526103
0.766197,-0.497899,0.378726,-0.637010,0.464743,-0.615005
0.269959,-0.066492,0.349189,0.952405,0.041469,0.302003
0.262847,-0.049474,0.366168,0.391447,-0.766121,0.509734
0.565769,-0.270168,0.530812,0.591610,0.613029,0.523634
0.283818,-0.042858,0.416691,-0.625274,0.189450,0.757061
0.263028,-0.016071,0.426048,-0.617779,0.563944,0.548011
0.298408,-0.032879,0.461885,0.042423,-0.718121,0.694624
0.611089,-0.262920,0.628078,-0.474160,0.867121,-0.152557
0.608991,-0.251364,0.645470,-0.161503,-0.868052,0.469470
0.233394,0.038761,0.470271,0.909001,0.416707,-0.008487
0.568688,-0.209454,0.645532,-0.627281,-0.586871,0.511958
0.552456,-0.186136,0.656872,0.777736,-0.291586,0.556870
0.539688,-0.165966,0.669782,0.916737,-0.003912,0.399472
-0.032417,0.277836,0.406425,-0.371310,0.122347,0.920413
0.510235,-0.132772,0.674181,0.860096,0.475161,0.185624
0.488167,-0.105989,0.681989,0.336869,0.079168,0.938217
0.453427,-0.068487,0.684777,0.720610,-0.174369,0.671057
0.437651,-0.046220,0.695456,0.311866,-0.226871,0.922642
0.393881,-0.001787,0.694155,-0.509907,-0.533322,-0.674953
0.354215,0.039707,0.694692,0.692319,0.494579,0.525439
0.349748,0.053359,0.711196,-0.672881,-0.124545,-0.729191
0.298956,0.112814,0.723651,-0.583484,-0.733553,0.348492
0.078283,0.296218,0.644417,0.996661,0.042485,-0.069722
0.051841,0.327101,0.650489,-0.614884,-0.773624,-0.153044
0.041901,0.345062,0.664597,-0.384532,0.910639,0.151233
-0.057676,0.434034,0.639563,-0.435916,-0.113263,0.892832
-0.116583,0.490754,0.632395,0.638355,-0.009240,-0.769687
0.107099,0.323844,0.746785,-0.654730,0.626877,-0.422320
0.078923,0.355567,0.751846,-0.573586,0.534431,-0.620792
0.060593,0.380041,0.761843,-0.570235,0.450682,-0.686818
0.034423,0.410504,0.767750,-0.323645,0.594996,-0.735686
0.012172,0.437919,0.776033,-0.530206,0.415414,-0.739130
-0.115305,-0.354726,-0.882390,0.383118,0.867351,0.317682
0.234395,-0.279833,-0.100170,0.992499,0.030292,-0.118438
0.387224,-0.367228,0.026014,0.738167,0.630978,-0.238698
0.246979,-0.250944,-0.024674,0.908095,-0.337184,-0.248337
0.238773,-0.232457,-0.006931,0.929055,-0.072032,-0.362861
-0.003877,-0.013552,-0.063465,0.528382,-0.820341,0.218754
0.021291,-0.019748,-0.027711,-0.046626,0.826706,0.560699
0.765924,-0.566388,0.370340,0.364443,-0.713454,0.598468
0.750694,-0.543487,0.382609,0.742202,-0.185453,0.644006
0.725983,-0.513969,0.390293,0.564193,-0.143677,0.813045
0.693065,-0.477733,0.394528,-0.166598,0.033780,-0.985446
0.634159,-0.422269,0.385253,0.578151,0.593395,0.560021
0.593034,-0.379516,0.385501,-0.594561,-0.138638,-0.792008
0.557014,-0.340757,0.388393,-0.719605,0.255303,-0.645747
0.553549,-0.326575,0.407107,-0.658014,0.747413,-0.091606
0.244152,-0.080149,0.275986,-0.177507,-0.934800,-0.307636
0.255278,-0.077520,0.301516,-0.745749,0.664937,0.041443
0.258561,-0.068698,0.323865,0.852862,-0.521572,-0.024256
0.117312,0.325315,0.736746,-0.602162,0.681381,-0.416079
0.106186,0.343802,0.749945,0.750541,-0.233711,0.618117
0.076552,0.377204,0.755295,0.793306,0.013838,0.608666
0.049651,0.408613,0.761636,0.350246,-0.640150,0.683766
0.037523,0.427834,0.773616,-0.434375,0.360050,-0.825641
0.007797,0.460609,0.778057,-0.308855,-0.069968,-0.948532
-0.262663,-0.197901,-0.970713,0.638969,0.529767,-0.557733
0.188073,-0.222058,-0.147058,0.902430,0.413349,-0.121505
0.126976,-0.163655,-0.156497,-0.625934,-0.767683,0.137362
0.379747,-0.329203,0.021842,0.767957,0.600391,-0.223099
0.236218,-0.208720,-0.029528,0.931135,-0.111993,-0.347053
0.240504,-0.199581,-0.004287,0.890160,0.280632,-0.358971
0.053844,-0.022165,-0.033164,-0.126414,0.873827,0.469516
0.796655,-0.574896,0.366973,-0.547193,0.713483,-0.437631
0.774312,-0.546849,0.375834,0.742730,-0.301120,0.598062
0.750605,-0.517646,0.384840,0.750963,-0.189382,0.632604
0.723248,-0.485821,0.392028,-0.530754,0.234791,-0.814355
0.168741,-0.062184,0.114171,0.212425,-0.853032,0.476667
0.647928,-0.416912,0.375153,0.879331,0.374892,0.293654
0.623946,-0.387815,0.383291,0.624956,0.215974,0.750190
0.234304,-0.089182,0.189750,0.506649,-0.862104,0.009150
0.580724,-0.343802,0.381742,-0.418047,0.191656,-0.887978
0.570327,-0.324895,0.397275,0.710773,-0.639707,0.292535
0.519538,-0.274999,0.392111,-0.094527,0.761942,0.640710
0.261386,-0.065233,0.286500,0.052892,-0.996548,0.063988
0.271326,-0.061556,0.312195,0.854746,-0.509086,-0.101199
0.265491,-0.046009,0.330103,0.962998,-0.228782,0.142455
0.271053,-0.039812,0.352597,0.871386,-0.357703,0.335761
0.598506,-0.283087,0.529366,-0.568491,0.816883,-0.097573
0.530116,-0.219433,0.516622,-0.532863,-0.351076,-0.769937
0.310719,-0.038447,0.431232,-0.723390,0.575173,0.381948
0.484157,-0.162501,0.533373,0.850722,0.185158,0.491923
0.628048,-0.264392,0.620766,-0.406131,0.866494,-0.290252
0.622212,-0.249684,0.637270,0.161006,-0.849940,0.501677
0.612728,-0.232669,0.650944,0.290544,0.810764,-0.508179
0.580359,-0.197269,0.654001,-0.464085,-0.750230,0.470936
0.562028,-0.172689,0.664329,0.872047,0.042034,0.487614
-0.009620,0.275526,0.399464,0.573113,0.140956,0.807263
0.523095,-0.132670,0.664473,0.793426,0.455531,0.403692
0.503579,-0.107037,0.674140,0.767354,0.300878,0.566251
0.481695,-0.079831,0.683063,0.421512,-0.136598,0.896476
0.459171,-0.052102,0.691491,-0.573576,0.426968,-0.699078
0.429080,-0.018908,0.695725,-0.155421,0.320443,-0.934431
0.375005,0.033507,0.689074,0.528620,0.478487,0.701149
0.187889,0.221007,0.678725,-0.412959,-0.432757,-0.801365
0.218803,0.206511,0.710865,-0.298387,0.626131,0.720365
0.110836,0.302100,0.680585,0.674835,0.496917,-0.545593
0.092781,0.325841,0.690354,0.811166,0.421109,-0.405805
-0.061049,0.458612,0.641339,-0.481464,0.083904,0.872440
0.209592,-0.131618,-0.155898,0.889269,-0.384733,-0.247347
0.346100,-0.224264,-0.059623,0.612806,0.413669,0.673310
0.329776,-0.200735,-0.045743,0.770585,0.204897,0.603503
0.262390,-0.125736,-0.035332,0.950698,-0.077153,-0.300368
0.375645,-0.201998,0.045823,0.940046,0.340972,-0.007207
0.221631,-0.071535,-0.011207,0.424255,-0.900859,-0.091976
0.259471,-0.089496,0.031343,0.960359,0.039987,0.275882
0.243606,-0.065653,0.045823,0.773501,0.631597,-0.052748
0.253363,-0.062502,0.072592,-0.408596,0.911900,0.038578
0.815895,-0.489812,0.380440,0.639471,-0.296511,0.709337
0.262207,-0.058508,0.098597,0.261877,-0.926005,0.271911
0.276432,-0.058193,0.128031,-0.000608,0.999791,0.020422
0.290839,-0.059033,0.156536,-0.545087,0.838218,0.016438
0.295308,-0.051683,0.180682,-0.364519,0.931168,0.007190
0.285916,-0.033613,0.197826,0.738607,-0.641632,0.206806
0.604614,-0.272688,0.378065,-0.422112,0.197674,-0.884729
0.302694,-0.035821,0.227818,-0.800822,-0.596491,-0.053698
0.614919,-0.270902,0.403120,0.808793,-0.571611,0.138257
0.316371,-0.025945,0.275532,-0.298776,0.941506,0.155883
0.322026,-0.019748,0.299347,-0.243623,0.963767,-0.108630
0.609993,-0.237080,0.460212,-0.582907,0.811022,0.049627
0.636165,-0.237814,0.513234,0.801533,-0.403720,0.441083
0.608170,-0.205569,0.519534,-0.548225,-0.167520,-0.819381
0.206584,0.142857,0.385873,0.979277,-0.188649,0.073671
0.245246,0.121742,0.423755,0.536157,0.837139,0.108327
0.460448,-0.040021,0.545539,0.197891,-0.862225,0.466270
0.651849,-0.183088,0.655116,-0.704831,0.129701,-0.697417
0.614370,-0.143489,0.656624,-0.045423,0.300249,0.952779
0.519354,-0.058087,0.630454,0.409603,0.807810,0.423874
0.543064,-0.068066,0.659743,0.131569,-0.972644,0.191449
-0.033146,0.393698,0.392193,0.115003,0.741726,0.660769
0.536043,-0.052942,0.675338,-0.439246,0.636996,-0.633481
0.515069,-0.027102,0.683724,0.384926,-0.020590,0.922718
0.486072,0.005567,0.689157,-0.635117,0.203151,-0.745223
0.384397,0.106092,0.680171,0.555185,0.677906,0.481885
0.343729,0.148214,0.679634,-0.573229,-0.669150,-0.472912
0.346645,0.163550,0.717186,0.557119,-0.281928,0.781112
0.206219,0.286344,0.671951,-0.266584,-0.921150,0.283577
0.231844,0.274686,0.701942,0.995933,0.052096,-0.073509
0.137189,0.360923,0.678271,0.751921,0.236260,-0.615464
0.113572,0.389389,0.686492,0.835169,-0.359608,0.416144
0.082023,0.423949,0.690293,-0.018168,-0.593603,0.804553
0.160991,0.368383,0.742468,-0.461891,0.641345,-0.612644
0.090321,0.443801,0.747157,0.967601,0.218587,0.126363
0.096430,0.447690,0.767854,-0.707595,0.220049,-0.671482
0.051109,0.494011,0.766222,-0.171137,0.337007,0.925818
0.205671,-0.051157,-0.181366,0.084431,-0.524291,0.847343
0.179045,-0.019434,-0.172236,0.166033,-0.979980,-0.109873
0.240415,-0.056199,-0.115496,0.659118,-0.498281,-0.563275
0.256463,-0.058087,-0.084141,-0.022893,-0.763984,0.644829
0.265399,-0.053888,-0.055843,0.305745,0.902622,0.302976
0.278074,-0.052837,-0.025542,0.832639,-0.534082,0.146520
0.277710,-0.041386,-0.002470,0.411402,-0.366198,-0.834654
0.290385,-0.041072,0.026324,0.803211,-0.385980,0.453730
0.281539,-0.023951,0.043716,-0.610234,0.782937,0.120934
0.292208,-0.021428,0.071973,-0.340799,0.931649,-0.126041
0.321297,-0.034455,0.108657,0.324270,0.944789,0.047152
0.320476,-0.023005,0.130572,0.012337,0.994644,0.102617
0.343364,-0.030567,0.164364,0.110303,-0.991167,-0.073630
0.674738,-0.226681,0.476158,-0.539960,0.838266,0.075854
0.661060,-0.206303,0.489749,-0.419824,0.865514,-0.273192
0.660876,-0.197163,0.509124,0.499929,-0.655334,0.566223
0.626589,-0.160398,0.511788,-0.227053,-0.821539,0.522993
0.604522,-0.132984,0.521083,-0.269955,-0.445567,0.853578
0.542151,-0.073423,0.510095,0.157584,0.949509,0.271292
0.477501,-0.011869,0.498837,-0.405262,0.680876,0.610058
0.599415,-0.101155,0.576894,0.936347,0.350391,-0.021919
0.617381,-0.106618,0.604986,0.920807,0.328274,-0.210594
0.639630,-0.107037,0.652803,0.319847,0.368863,0.872719
0.595586,-0.062290,0.651274,-0.635929,0.696733,-0.331899
0.028677,0.399368,0.385191,0.404553,-0.801794,-0.439844
0.605070,-0.061239,0.673995,-0.490852,0.140452,-0.859847
-0.045822,0.469328,0.369803,-0.268551,0.694424,0.667575
0.575525,-0.028362,0.679242,0.736547,0.628635,0.249633
-0.092328,0.516701,0.368502,-0.064009,0.133062,-0.989039
0.542972,0.007352,0.682939,0.276001,0.039070,0.960363
-0.169926,0.589812,0.352659,0.088181,0.855535,0.510181
0.512241,0.041281,0.687628,-0.525489,0.176830,-0.832221
0.443487,0.106303,0.674037,-0.564317,-0.731214,-0.383240
0.270505,0.282879,0.669183,0.547629,0.836092,-0.032426
0.064789,0.470168,0.614363,0.772659,-0.553309,0.311202
0.205671,0.362289,0.695312,0.797769,0.506517,-0.327117
0.089681,0.466702,0.661581,0.878840,0.110783,-0.464077
0.135731,0.437394,0.700352,-0.418980,-0.290827,0.860160
0.104363,0.471742,0.704173,-0.288333,-0.361285,0.886757
0.058951,0.517960,0.702624,0.252808,0.632141,0.732452
0.080473,0.525526,0.766119,0.450103,-0.322060,-0.832877
0.288103,-0.094539,-0.175087,-0.051998,-0.102225,0.993401
0.217983,-0.027836,-0.188575,-0.626711,-0.669643,-0.398512
0.271053,-0.058825,-0.135718,0.916991,-0.398820,-0.008357
0.268774,-0.046640,-0.113740,0.900390,-0.352274,0.255346
0.276432,-0.042226,-0.086785,0.031451,-0.982926,0.181294
0.285095,-0.038553,-0.058528,0.741155,-0.650160,-0.167273
0.288560,-0.030881,-0.034155,0.870591,-0.260330,0.417492
0.296950,-0.026788,-0.006188,0.411402,-0.366198,-0.834654
0.304335,-0.022374,0.020974,0.827055,0.438280,0.351980
0.272331,0.013655,0.027439,0.095613,0.995297,-0.015544
0.310900,0.002521,0.091223,0.276716,0.952037,0.130588
0.392149,-0.043172,0.176489,-0.062832,-0.997337,0.037022
0.697991,-0.224895,0.476529,-0.338550,0.923501,-0.180362
0.686225,-0.205989,0.491009,-0.223048,0.953638,-0.202049
0.675923,-0.188342,0.506418,0.581542,-0.768011,0.268267
0.658962,-0.165547,0.518315,-0.107937,-0.774668,0.623088
0.624219,-0.128255,0.520711,0.116936,0.519229,-0.846597
0.577804,-0.081723,0.517510,0.604204,0.521002,-0.602905
0.551451,-0.050945,0.524719,0.120358,0.986971,-0.106779
0.627046,-0.104518,0.579951,0.899959,0.314932,-0.301483
0.377468,0.109455,0.480206,-0.056058,0.376003,0.924921
0.635617,-0.084979,0.642289,-0.481698,-0.221007,-0.848011
0.626681,-0.069432,0.656562,-0.147072,-0.349114,-0.925467
0.032508,0.420272,0.376206,-0.299133,0.796323,0.525728
0.623762,-0.058825,0.673603,-0.104636,0.233303,0.966758
-0.083938,0.525106,0.341154,0.035671,0.851569,0.523028
0.589567,-0.021848,0.676577,0.602108,0.297324,0.740989
0.555828,0.014286,0.679035,0.378630,0.304913,0.873881
-0.166826,0.611658,0.342497,0.459996,0.820850,0.338538
0.523732,0.049474,0.683022,-0.563290,0.362820,-0.742339
-0.230566,0.673949,0.333222,0.220292,0.026529,0.975073
0.438564,0.128990,0.662656,0.652342,0.708292,0.269764
-0.256555,0.704935,0.341774,-0.301742,0.592963,0.746556
0.174941,0.364286,0.579063,0.771711,0.009347,0.635904
0.274334,0.298635,0.661767,-0.495593,-0.868237,0.023505
0.123695,0.457563,0.668170,0.830528,0.261571,-0.491735
0.155520,0.439285,0.700166,0.428498,0.268568,-0.862706
0.124333,0.473213,0.704090,-0.239193,-0.344735,0.907714
0.088861,0.511450,0.706817,-0.247090,-0.323556,0.913378
0.031140,0.568067,0.699133,-0.222574,0.897091,0.381691
0.104271,0.522897,0.767564,0.380533,0.148210,0.912814
0.296585,-0.052837,0.021924,-0.540410,0.447095,-0.712785
0.280445,-0.029621,0.036507,0.936477,-0.229241,0.265442
0.296494,-0.033298,0.066912,0.340482,-0.940243,-0.003831
0.318288,-0.040232,0.100787,-0.085247,-0.992950,-0.082355
0.323940,-0.034558,0.126090,0.133287,0.988956,-0.064807
0.382117,-0.071743,0.178451,0.016254,0.996156,0.086070
0.504127,-0.161030,0.261755,-0.097749,0.873263,-0.477343
0.344822,-0.031827,0.180641,-0.081475,0.995329,0.051782
0.629965,-0.235400,0.387876,0.917754,-0.341726,0.202363
0.368713,-0.013234,0.278114,0.140931,-0.967032,-0.212104
0.677108,-0.246219,0.473658,-0.456968,0.883368,0.104123
0.658962,-0.222270,0.484193,-0.543628,0.821659,-0.171303
0.651757,-0.207563,0.499911,-0.360455,0.918408,-0.163094
0.598414,-0.146322,0.513338,0.851133,0.482296,-0.207274
0.516983,-0.070589,0.493942,0.372289,0.874728,0.310245
0.461085,-0.015545,0.486961,0.288808,-0.689911,-0.663786
0.540966,-0.072375,0.545374,-0.071894,0.978971,-0.190910
0.520267,-0.046534,0.554421,0.138378,0.968362,-0.207668
0.683036,-0.172480,0.650903,-0.678272,-0.169633,-0.714963
0.654949,-0.140758,0.656789,-0.249027,-0.262089,-0.932360
0.586378,-0.075840,0.642826,0.089283,0.144458,0.985475
0.578625,-0.060818,0.658607,-0.059980,-0.264032,0.962647
-0.010077,0.426888,0.381618,0.018931,0.830136,0.557239
0.574159,-0.048426,0.675586,-0.233374,0.487603,-0.841297
0.541238,-0.012395,0.679159,0.130040,-0.096035,0.986847
-0.134090,0.548424,0.364185,-0.183020,0.687816,0.702434
0.520632,0.012815,0.687814,-0.461203,0.265658,-0.846592
0.483153,0.052205,0.688516,0.492423,0.515686,0.701133
-0.249170,0.661765,0.349809,-0.102512,0.433657,0.895228
0.391053,0.137183,0.664742,0.592966,0.756831,0.274952
0.386587,0.148948,0.680812,0.498143,0.802612,0.328128
0.033875,0.460609,0.557891,0.561883,0.817451,0.126736
0.223270,0.310819,0.662841,0.424811,0.864527,-0.268568
0.206676,0.340859,0.691552,0.734457,0.525392,-0.429576
0.112386,0.428152,0.668088,-0.723008,0.058792,0.688333
0.131537,0.420272,0.694486,0.515602,0.651302,-0.556741
0.127252,0.432249,0.711134,0.816666,0.498553,-0.290691
0.042902,0.519957,0.710721,-0.241979,-0.827587,-0.506503
0.085852,0.499159,0.764693,-0.305751,0.461481,0.832798
0.269047,-0.082982,-0.108391,-0.528342,0.816897,-0.231375
0.243242,-0.051365,-0.098207,-0.453046,0.889043,-0.065966
0.269228,-0.061345,-0.060697,0.964612,-0.263109,0.017229
0.270232,-0.051683,-0.036489,-0.717567,0.333995,-0.611183
0.276889,-0.046743,-0.010546,-0.107175,0.927783,0.357397
0.309261,-0.016283,0.276441,-0.437569,0.898745,-0.028127
0.312542,-0.009137,0.299306,-0.243623,0.963767,-0.108630
0.595859,-0.232457,0.459819,-0.582907,0.811022,0.049627
0.606347,-0.213339,0.525483,-0.786812,0.112684,-0.606819
0.481787,-0.084666,0.523417,-0.060762,0.997411,-0.038472
0.653307,-0.218068,0.624608,0.848356,-0.494714,-0.188546
0.220445,0.139600,0.416959,0.324778,0.500007,0.802815
0.462454,-0.051365,0.552665,-0.167607,-0.898737,0.405190
0.639174,-0.188656,0.656232,0.760556,-0.085908,-0.643564
0.599872,-0.147585,0.656810,-0.055062,0.465355,0.883410
0.542424,-0.091808,0.648031,-0.623667,0.069229,-0.778618
0.538867,-0.080671,0.664928,0.850788,-0.439154,0.288624
0.527744,-0.062710,0.678663,0.551086,-0.428734,0.715885
0.499841,-0.031407,0.683910,0.568686,-0.245764,0.784982
-0.180050,0.534662,0.367572,-0.196348,-0.514962,-0.834423
0.477317,-0.003992,0.692151,-0.584199,0.140391,-0.799376
0.451148,0.026471,0.698782,-0.321344,-0.423875,-0.846799
0.385037,0.089916,0.687194,0.390065,0.596679,0.701301
0.069895,0.369643,0.579621,0.645763,0.190968,0.739271
0.166370,0.306091,0.660487,0.236740,0.910463,-0.339132
0.224274,0.265652,0.705247,-0.396134,-0.435303,-0.808449
0.124424,0.357772,0.679035,0.907295,-0.050989,-0.417392
0.122054,0.367963,0.696613,0.566915,0.643131,-0.514772
0.085304,0.407142,0.697976,0.071965,-0.488233,0.869741
0.155336,0.356198,0.746640,0.496585,-0.666332,0.556241
0.088680,0.428677,0.752920,0.989863,0.076172,0.119874
0.082112,0.442228,0.768184,-0.522812,0.233110,-0.819955
0.047917,0.479201,0.771344,0.341203,0.279368,0.897516
-0.162176,-0.075420,-0.946959,0.720769,0.299176,-0.625288
0.332331,-0.193804,-0.064766,0.798974,0.561066,-0.216439
0.320020,-0.173948,-0.048552,0.796170,0.315110,0.516545
0.250263,-0.097058,-0.039443,0.860716,-0.318828,0.396884
0.282997,-0.113026,0.000174,-0.708162,0.150698,0.689780
0.231660,-0.061136,-0.003709,0.767531,0.610529,-0.195321
0.263757,-0.076892,0.036259,0.995930,0.036018,0.082621
0.260932,-0.064390,0.057658,0.153983,-0.987513,0.033263
0.267132,-0.059771,0.082713,-0.005366,-0.999275,0.037684
0.271782,-0.053571,0.106694,-0.090990,0.987724,0.126970
0.283453,-0.052837,0.135116,0.310758,-0.907588,-0.282336
0.750970,-0.423215,0.395003,0.607321,-0.207752,0.766812
0.300323,-0.057039,0.165046,0.287910,-0.957655,0.002249
0.301692,-0.048006,0.187684,0.558992,-0.829173,0.000275
0.293942,-0.032039,0.205634,0.982484,0.173049,0.069139
0.614462,-0.283825,0.388765,0.862041,-0.468873,0.192468
0.600512,-0.263235,0.401716,0.808793,-0.571611,0.138257
0.614098,-0.242436,0.649312,-0.213757,-0.846172,0.488162
0.215520,0.087499,0.459509,0.793176,-0.600548,-0.101065
0.569506,-0.197058,0.646462,0.785710,0.509025,-0.351501
0.561483,-0.181828,0.661891,0.598866,0.176375,0.781186
0.038344,0.252310,0.414873,-0.613480,0.096496,0.783793
0.529111,-0.146428,0.664886,0.823273,0.452670,0.342506
0.527561,-0.136660,0.683414,0.353967,0.143387,0.924201
0.486528,-0.094013,0.683208,0.392769,0.158394,0.905894
0.455434,-0.059453,0.687587,0.642599,-0.409545,0.647565
-0.229564,0.511450,0.369741,-0.003031,0.397102,0.917769
0.435828,-0.035084,0.696654,0.208111,-0.339673,0.917231
0.397072,0.005778,0.696758,0.574777,0.540727,0.614204
0.368532,0.037921,0.702397,0.657185,0.270176,0.703642
0.333608,0.075421,0.704380,0.553078,0.452070,0.699812
0.289200,0.121008,0.702830,0.745313,0.481307,0.461359
0.278074,0.138760,0.716401,-0.062405,-0.410907,0.909539
0.070168,0.329832,0.659103,-0.698825,-0.707647,-0.104304
0.064422,0.342856,0.674450,-0.206508,-0.839117,0.503226
-0.058954,0.455041,0.638200,-0.251346,0.152717,0.955773
-0.096978,0.495063,0.639294,-0.498183,0.397973,0.770345
0.108192,0.330566,0.748355,0.679890,-0.428425,0.595148
0.080473,0.362289,0.754593,0.754615,-0.258721,0.603009
0.058497,0.389181,0.763082,-0.458262,0.546888,-0.700650
0.031048,0.420484,0.768432,0.446517,-0.389389,0.805604
0.007797,0.447898,0.775641,-0.530206,0.415414,-0.739130
0.277345,-0.247479,-0.137535,0.076530,0.209861,0.974731
0.269868,-0.188868,-0.024984,0.977505,-0.096510,-0.187535
0.067160,0.016386,-0.040000,0.249503,-0.892616,-0.375479
0.759084,-0.514495,0.383704,0.772168,-0.180637,0.609201
0.210321,-0.069224,0.101861,0.365970,-0.876559,0.312586
0.736288,-0.486241,0.393164,-0.539359,0.230251,-0.809986
0.214153,-0.062081,0.126234,0.097037,0.953767,-0.284450
0.702001,-0.448844,0.396738,-0.147604,0.080545,-0.985761
0.241052,-0.074055,0.162175,0.641099,-0.767021,0.025905
0.247163,-0.069224,0.186383,-0.362892,0.930858,-0.042572
0.258013,-0.068384,0.212822,0.857214,-0.507979,-0.084509
0.569690,-0.313025,0.390975,-0.677407,0.175076,-0.714471
0.260657,-0.060924,0.235832,-0.172822,-0.976202,0.131002
0.557835,-0.294538,0.405145,0.679562,-0.718485,-0.148241
0.270232,-0.050000,0.282679,-0.352334,0.929457,-0.109411
0.269776,-0.039812,0.303561,-0.698709,0.713022,0.058356
0.283181,-0.041178,0.331260,0.962998,-0.228782,0.142455
0.267497,-0.019222,0.343571,0.975416,-0.126209,0.180651
0.595678,-0.279833,0.523954,-0.657388,0.700282,-0.278292
0.549628,-0.233089,0.521806,-0.466567,-0.451276,-0.760701
0.355127,-0.064181,0.446703,0.628607,0.678702,-0.379758
0.190079,0.081197,0.387360,-0.014158,0.865596,0.500542
0.362696,-0.051997,0.490782,0.145469,-0.834259,-0.531837
0.616377,-0.252730,0.632044,-0.474160,0.867121,-0.152557
0.233302,0.039287,0.698513,-0.052029,-0.698221,0.713989
0.223181,0.056408,0.712476,0.030681,-0.416491,0.908622
0.185064,0.096324,0.713096,0.159179,0.312611,-0.936449
0.076004,0.196324,0.682505,-0.528707,-0.818438,0.225008
0.087494,0.195484,0.706259,-0.660787,-0.719935,0.212259
-0.005062,0.289915,0.701157,0.409837,0.119353,-0.904316
0.020927,0.285084,0.748376,0.133793,-0.744214,0.654404
-0.017827,0.325841,0.748851,0.887831,0.091658,-0.450949
-0.190352,0.521429,0.780350,-0.203133,-0.958324,0.200877
-0.174760,0.516595,0.803856,0.308379,0.900379,0.306952
-0.049195,-0.007669,-0.025129,-0.180623,0.953011,0.243198
0.681575,-0.585400,0.371187,-0.433192,0.858166,-0.275491
0.672183,-0.568067,0.387443,-0.151777,0.752670,-0.640666
0.650663,-0.541073,0.396552,0.133735,-0.143989,0.980501
0.612183,-0.500211,0.397750,-0.054683,0.116884,0.991639
0.570054,-0.456303,0.397213,-0.150338,-0.327984,0.932644
0.534309,-0.417227,0.399960,0.710250,0.237545,0.662659
0.515706,-0.392857,0.410577,-0.694601,-0.004254,-0.719382
0.482059,-0.356406,0.413592,0.361351,0.237831,0.901589
0.437924,-0.310819,0.412601,-0.499767,-0.294860,-0.814426
0.521361,-0.369223,0.473245,-0.702435,0.703937,-0.105156
0.512882,-0.352733,0.489253,-0.416695,0.318375,-0.851471
0.474033,-0.311556,0.490348,-0.444621,0.702785,-0.555343
0.578261,-0.386975,0.560928,0.936849,-0.155766,0.313130
0.544157,-0.350315,0.563406,0.822655,0.216800,0.525582
0.514796,-0.317541,0.568178,0.768494,0.632350,0.097722
0.235033,-0.069750,0.472811,0.413702,0.890977,-0.187112
0.238773,-0.063236,0.494438,-0.473291,0.825823,0.306614
0.253455,-0.066179,0.520959,0.760732,0.647204,0.049131
0.257648,-0.060190,0.542482,0.612375,0.790558,0.003880
0.253363,-0.048006,0.559172,-0.567858,-0.567269,-0.596442
0.215428,-0.007563,0.559915,0.648490,0.705710,0.285367
0.417590,-0.165652,0.673314,0.225378,0.894789,0.385432
-0.284366,0.414602,0.346813,-0.736036,0.398583,0.547159
0.353029,-0.103886,0.661685,0.301345,0.787434,-0.537716
0.372177,-0.110608,0.689239,0.014406,-0.495207,0.868656
0.408015,-0.131618,0.724353,0.805481,0.592272,-0.020366
0.389960,-0.107669,0.734475,0.524263,0.841942,0.127605
0.275155,-0.003781,0.699773,0.116293,-0.455147,0.882790
0.398350,-0.352313,0.542565,-0.536073,-0.799855,0.269920
0.296313,-0.259455,0.513399,0.811487,0.363202,0.457792
0.418319,-0.330777,0.628946,0.721863,-0.035920,0.691103
-0.153970,0.136869,0.359165,0.369173,-0.518016,-0.771603
0.380660,-0.291178,0.629380,0.507649,0.292243,0.810486
0.235853,-0.163027,0.580695,0.160458,0.134483,0.977838
0.179591,-0.107669,0.572949,-0.015820,0.626239,0.779471
0.310627,-0.205989,0.652803,0.801312,0.595306,0.059245
0.235125,-0.134769,0.636836,-0.557486,-0.813069,-0.167716
0.190536,-0.088971,0.635494,0.939319,0.296902,0.171840
0.210232,-0.096113,0.662573,0.587915,-0.527688,0.613107
0.183879,-0.065755,0.668584,0.871467,0.061955,0.486525
0.270413,-0.127836,0.726398,0.134473,0.908835,0.394886
0.268955,-0.117754,0.743336,0.448702,0.883129,-0.136928
0.254913,-0.097376,0.755295,-0.228527,-0.950161,0.212058
0.239410,-0.075632,0.766594,0.001027,-0.847754,0.530389
0.216889,-0.048214,0.774629,0.149020,-0.965945,0.211527
0.254457,-0.070798,0.808669,0.123645,-0.929553,0.347336
0.247071,-0.055988,0.822529,-0.566549,-0.823463,0.030495
0.242874,-0.043803,0.838474,0.523385,-0.688467,0.502077
0.210778,-0.008929,0.841407,0.913470,0.287082,0.288368
0.187889,0.018591,0.849112,0.903474,-0.389329,-0.179325
-0.172845,0.319433,0.691532,0.092914,0.104765,0.990147
0.539416,-0.573110,0.394032,-0.226611,0.102408,-0.968587
0.512514,-0.541595,0.400414,0.294243,-0.252734,0.921709
0.484338,-0.509350,0.406301,0.375895,-0.463556,0.802383
0.480874,-0.496322,0.425098,0.449585,-0.384684,0.806158
0.596043,-0.579518,0.501729,0.592122,-0.101831,-0.799388
0.455069,-0.456092,0.452466,0.596487,0.802401,0.018893
0.526648,-0.484558,0.546841,0.981301,0.137260,0.134937
0.432272,-0.398846,0.520133,-0.149618,-0.100737,0.983599
0.391329,-0.355672,0.520175,0.312817,0.687689,0.655156
0.425616,-0.484349,0.593625,0.421689,-0.776175,0.468754
0.274699,-0.352941,0.540499,0.636481,0.372625,0.675309
0.416496,-0.458297,0.627046,0.937642,0.344181,-0.048654
0.405371,-0.439602,0.640823,0.113135,-0.642426,0.757951
