0.543253,-0.217703,0.346377,0.961889,-0.031686,0.271599
-0.487362,0.070041,0.655897,-0.552005,0.752060,0.360133
0.568696,0.522159,0.600345,-0.190430,0.794359,-0.576828
-0.863262,0.266168,0.369102,-0.054959,0.102463,0.993217
0.247454,-0.335761,0.365935,-0.000448,-0.230776,0.973007
-0.469714,-0.217463,0.725949,0.505406,-0.854160,0.122370
-0.269531,0.266168,0.323247,0.614450,0.235412,0.753015
-0.124999,0.233460,0.750520,0.739221,-0.637165,0.218113
-0.493023,0.051599,0.659079,-0.548476,0.832160,0.081748
0.638378,0.078994,0.355098,-0.037193,0.112219,0.992987
-0.617448,0.311051,0.625922,0.331416,-0.751684,0.570205
-0.008043,-0.151213,-0.042636,0.996978,0.073590,-0.024873
-0.515596,0.427378,0.701527,0.964587,-0.158087,-0.211139
-0.275773,0.014713,0.416233,-0.280446,-0.723594,0.630684
-0.241874,-0.358083,0.844197,0.945525,-0.272354,0.178342
0.404386,-0.296487,0.360576,-0.338070,-0.214953,0.916245
-0.298997,-0.287235,0.887861,0.431523,0.770263,0.469556
0.340695,-0.446476,0.352846,0.087095,-0.369574,0.925111
-0.717006,0.150497,0.720230,0.865501,0.341518,0.366434
0.104891,0.143752,0.747848,0.658039,0.398204,-0.639076
0.563691,0.146617,0.354452,-0.109624,0.569674,0.814527
-0.496715,0.389954,0.689714,0.789086,0.582516,-0.194985
-0.026758,-0.165956,-0.107734,0.937349,-0.346919,-0.031985
0.331338,-0.263540,0.506098,0.242805,0.903924,0.352089
-0.143629,-0.182906,0.976269,0.584179,0.811624,-0.000620
0.072474,-0.029514,0.495621,-0.813529,0.514207,-0.271590
0.283077,0.819512,0.285331,0.543143,-0.235841,0.805838
-0.540954,0.252320,0.676566,-0.632712,0.770736,-0.075112
0.070586,0.301920,0.261151,-0.703819,0.474561,-0.528612
-0.714381,-0.353606,0.741364,0.803354,0.537185,0.257013
-0.493023,0.357068,0.678322,0.859618,0.369781,-0.352589
-0.113837,0.029933,0.723097,-0.791567,0.338527,0.508745
0.063773,-0.036915,0.846328,0.985195,0.171307,0.006616
-0.389853,0.270048,0.328590,0.384608,0.015004,0.922958
-0.013954,-0.374019,0.748629,0.313947,0.213639,0.925092
-0.043825,0.137248,0.271582,-0.440178,0.082693,0.894095
-0.176130,-0.352292,0.852617,-0.593489,0.715475,-0.368601
-0.041200,-0.142856,0.848429,-0.136849,0.984636,0.108459
-0.000819,-0.159329,0.918691,0.855071,-0.518225,0.017192
0.248116,0.153959,0.676821,-0.104275,-0.663384,0.740978
0.288822,0.211435,0.160629,-0.005452,-0.016441,0.999850
0.315253,0.024142,0.151248,0.140377,-0.467133,0.872972
0.294894,0.168941,0.537078,0.385757,-0.415974,-0.823503
0.513873,0.395089,0.104822,0.959026,0.083176,0.270833
0.430320,-0.199857,0.376862,-0.436373,-0.620814,0.651282
-0.279791,-0.238533,0.484138,0.515735,-0.537420,0.667231
-0.169568,0.309559,0.777403,-0.563457,0.699503,-0.439558
-0.033731,0.461937,0.293962,-0.121621,-0.485163,0.865925
-0.708059,-0.285565,0.729851,0.754372,-0.651398,0.081258
-0.541695,0.097019,0.814612,0.885918,0.147667,0.439709
0.328713,-0.015727,0.631836,-0.081947,-0.846523,0.526008
0.563526,0.558984,0.367826,-0.296901,0.040487,0.954050
-0.489822,-0.224923,0.826350,-0.269147,-0.897054,-0.350505
0.349557,0.109971,0.700687,0.607176,-0.312594,0.730494
0.819685,-0.213703,0.554700,-0.503731,-0.814838,0.286869
-0.148393,0.045749,0.845353,0.365420,0.496791,0.787190
-0.052692,-0.149781,0.925115,0.907800,0.416714,0.047428
-0.174327,-0.514578,0.744321,0.396040,-0.840421,0.369927
0.048098,-0.066162,0.916410,-0.336053,0.462997,0.820184
0.791366,-0.187203,0.561635,0.006247,-0.587439,0.809244
-0.313524,0.146916,0.320530,0.201990,-0.081096,0.976024
-0.291448,-0.099824,0.893730,0.445325,0.837896,0.315620
-0.407256,-0.443076,0.715081,-0.434597,-0.561470,-0.704185
0.294979,0.655854,0.292461,0.142398,-0.330400,0.933037
-0.692955,0.300964,0.626282,-0.209782,-0.925055,0.316647
0.316069,0.243666,0.207550,0.987875,-0.147600,0.048131
0.268795,0.590260,-0.922113,0.535263,-0.027343,-0.844243
0.202645,0.011370,0.414522,-0.457306,0.636935,-0.620633
-0.451249,-0.540959,0.767556,-0.736869,0.248048,0.628885
-0.295796,-0.628696,0.792277,0.159280,0.795875,0.584134
0.283978,0.379510,0.221734,-0.496547,-0.062501,-0.865757
-0.277246,0.725685,0.588833,0.331310,0.656048,-0.678111
-0.563035,-0.556297,0.658989,0.057130,0.878104,0.475047
0.084372,0.522217,0.292086,-0.363608,0.218634,-0.905532
0.198457,0.079651,0.213134,0.218946,-0.298351,0.929005
-0.599309,-0.095525,0.810695,0.471854,-0.871605,-0.132887
0.485063,0.322451,0.565957,-0.165443,-0.800439,0.576130
0.266661,-0.158315,-0.941071,0.152672,-0.725677,0.670883
-0.281679,0.722284,0.586506,-0.154326,-0.831768,0.533241
-0.010588,-0.114625,0.080085,0.658663,-0.714950,0.234541
-0.148473,0.247844,0.743780,0.855970,-0.365423,-0.365762
-0.097587,-0.160524,0.964997,0.973161,-0.216705,-0.077434
-0.164558,-0.721507,0.546820,0.604533,0.190413,0.773487
0.123526,0.039900,0.118826,0.831400,0.107162,-0.545244
0.241383,-0.414366,0.653826,-0.100361,-0.804303,0.585683
0.233012,0.359157,0.227258,-0.546514,0.170148,-0.819983
-0.219056,0.361784,0.498097,0.221253,0.568747,-0.792196
0.003203,-0.241040,-0.950167,0.618256,0.655692,-0.433391
0.102922,0.368767,0.281189,-0.619611,0.229984,-0.750460
0.402087,0.281805,0.548381,-0.149583,-0.558735,0.815745
-0.668499,0.569131,0.354227,0.539392,0.354734,0.763688
-0.407667,-0.213585,0.883928,0.526326,0.428037,0.734687
-0.504430,0.408040,0.721055,-0.241126,-0.688554,0.683924
0.346356,-0.463665,0.510796,-0.545618,0.586849,0.598255
-0.869995,-0.350622,0.689159,-0.648018,0.645744,-0.403841
-0.284880,0.107225,0.845322,0.065827,-0.857141,0.510858
0.017566,-0.027724,0.879936,0.705164,0.697421,0.127855
-0.632877,-0.084843,0.397561,-0.489540,-0.801904,-0.342492
-0.148142,-0.157659,0.909805,0.159409,-0.892558,-0.421815
0.453874,0.335999,0.351961,-0.040758,-0.119392,0.992010
-0.710604,0.197410,0.717078,0.291972,0.373368,0.880539
-0.317547,-0.572115,0.741168,0.803198,0.475211,-0.359232
-0.204774,-0.695305,-0.979451,-0.669358,-0.690713,-0.273633
0.343977,0.457221,0.238230,-0.733223,0.607258,-0.305975
-0.894371,-0.676504,0.742610,0.002351,-0.945234,0.326384
-0.107681,-0.238772,0.944673,-0.600317,-0.632289,0.489724
-0.470451,-0.476140,0.232451,0.862202,-0.266391,0.430865
-0.145602,-0.004088,0.722541,0.897517,0.160853,-0.410596
-0.419074,-0.071652,0.141897,0.799865,0.486822,0.351028
0.178024,0.768600,0.290720,0.738310,0.155209,0.656361
-0.617613,0.226060,0.718428,-0.518950,0.235352,-0.821766
-0.731859,0.127100,0.689144,0.695900,-0.427527,0.577013
0.064018,0.606256,0.292806,-0.323141,0.045559,-0.945253
0.563526,0.470710,0.362693,0.045119,-0.083728,0.995467
-0.697719,-0.033394,0.557732,0.810198,0.034296,0.585152
0.249428,0.078517,0.214935,0.167991,-0.160084,0.972704
-0.202395,0.735832,0.553994,-0.531785,0.729372,-0.430373
-0.040544,-0.201469,0.885894,0.846754,0.401104,-0.349463
0.019865,-0.077621,0.906128,0.851094,0.348061,-0.393055
-0.703791,0.136173,0.494645,0.512688,0.517576,-0.685030
0.551629,0.493032,0.359466,0.426893,0.055050,0.902625
-1.000000,0.435793,0.507944,0.359958,-0.809669,0.463536
0.694108,0.005640,0.207805,-0.488495,-0.335478,-0.805498
0.106208,0.457100,0.576224,-0.711162,-0.513118,0.480581
-0.314922,0.273270,0.222215,-0.358296,-0.069436,0.931022
0.278072,-0.452624,0.651905,0.915916,0.401273,-0.008771
-0.059505,-0.509265,0.787369,-0.572060,0.528872,0.626930
0.161933,0.193709,0.685482,0.459618,0.500296,-0.733795
-0.004676,-0.163568,-0.514278,0.717147,0.696912,0.003693
-0.738016,-0.562027,0.608285,-0.426702,-0.872360,0.238565
0.335931,-0.112358,0.779669,0.501504,-0.821011,-0.272826
-0.370322,-0.536423,0.729461,-0.089351,-0.376597,0.922058
0.058438,-0.240801,0.653720,0.456315,0.644159,-0.613869
-0.936555,-0.219135,0.252820,0.382201,0.377082,0.843642
-0.691728,-0.088006,0.536673,0.421752,-0.433770,0.796222
0.034883,0.338447,0.630320,0.308820,0.948628,-0.068813
0.490809,0.636337,0.192915,0.028513,0.134996,0.990436
-0.363589,-0.130024,0.772269,0.617718,0.573881,-0.537666
-0.602019,-0.555581,0.546039,0.024328,0.808759,0.587636
0.278729,0.627802,0.299711,-0.492238,0.579945,-0.649127
0.736132,0.204811,0.329236,0.656199,0.472603,0.588259
-0.084206,0.146200,0.591895,0.596460,-0.585468,0.549056
0.031517,0.169358,-0.922489,0.013334,0.831491,0.555379
0.280206,0.131637,0.431363,-0.027702,-0.607507,0.793831
0.007221,-0.201587,0.975264,0.935046,-0.353249,0.030052
0.093073,-0.388343,0.732928,-0.693323,0.484304,0.533623
-0.901098,0.163986,0.279778,-0.386060,0.410894,-0.825908
-0.142807,-0.250947,0.898338,0.045265,-0.930797,-0.362723
0.058603,0.240502,0.608496,0.980576,-0.187031,-0.059082
0.058929,0.053209,0.231326,0.641231,-0.058067,-0.765148
-0.026508,0.634725,0.532800,0.337561,-0.160667,0.927490
-0.716515,0.479126,0.363473,0.398129,-0.176023,0.900283
0.177117,-0.204512,0.802964,0.059072,-0.544914,0.836409
-0.127133,-0.584768,-0.988637,-0.111847,0.174502,0.978284
0.409225,-0.528187,0.603197,0.478460,0.485183,0.731897
-0.605546,0.558448,0.353897,0.522883,0.450017,0.723932
-0.713640,-0.233401,0.667875,0.777106,0.216706,0.590885
0.156598,-0.261154,0.653270,-0.635508,-0.268646,0.723850
-0.782339,-0.342027,0.667110,-0.574383,-0.772511,0.270759
0.327891,0.056612,0.160074,-0.099085,-0.244111,0.964672
0.512725,0.143694,-0.948291,0.523995,-0.592680,-0.611686
0.319110,0.082515,0.508875,-0.125539,-0.427961,0.895036
0.060737,-0.284669,-0.945079,0.900859,0.036906,0.432540
-0.138790,0.171746,0.215790,-0.020962,-0.462485,0.886379
-0.531351,0.084307,0.663132,0.688523,-0.723724,0.046475
-0.507881,0.268913,0.656963,0.025823,0.996258,0.082479
-0.368678,-0.553672,0.732658,-0.538261,0.761578,0.360935
-0.166692,-0.444148,0.812871,-0.065373,0.934646,0.349519
0.168501,-0.142080,0.600735,-0.583520,0.812098,-0.000766
-0.043334,0.455132,0.293722,-0.121621,-0.485163,0.865925
-0.104480,-0.153420,-0.327915,0.621100,0.778079,0.093955
-0.098323,-0.566922,0.655402,-0.492935,-0.743823,-0.451378
-0.484732,0.548539,0.544643,-0.210122,-0.737459,0.641875
-0.587246,0.450177,0.355983,0.233917,-0.077951,0.969127
-0.556223,-0.176578,0.771684,0.368211,-0.677541,0.636678
-0.637886,0.078934,0.659725,-0.147696,0.892833,-0.425483
0.680733,-0.168223,0.316402,0.255777,-0.300629,-0.918804
-0.052938,-0.356769,0.800143,-0.496622,-0.813030,-0.303889
0.507636,0.103106,0.364734,-0.103946,0.605604,0.788948
-0.570910,0.181474,0.698435,0.867075,-0.398106,0.299487
-0.077394,0.187024,0.873106,0.884112,0.466765,0.021847
0.255174,0.229759,0.699891,-0.493201,-0.563077,0.663097
-0.307864,0.288490,0.646921,0.743779,-0.325899,0.583595
0.100622,0.146499,0.591744,0.291195,-0.036835,0.955954
0.335195,0.119938,0.757740,0.255747,0.886666,0.385248
-0.293006,-0.145184,0.566468,-0.513835,0.748167,-0.419784
-0.009110,-0.075054,0.883433,0.889101,0.454271,0.056012
-0.996719,0.511176,0.524290,-0.795875,0.452088,-0.402739
0.500167,0.427677,0.589388,0.545552,0.838049,-0.006822
-0.487608,-0.660747,0.610747,-0.396673,0.445215,0.802767
-0.017480,-0.045570,0.893790,0.957896,0.172887,0.229226
0.285376,0.772061,0.284056,0.513502,0.273361,0.813382
0.240727,0.340416,0.574303,0.437333,-0.450429,0.778366
-0.725707,0.321078,0.624992,0.068514,0.975392,-0.209562
0.366875,-0.140350,0.369807,0.145755,0.182161,0.972406
0.058192,-0.006893,0.082442,0.893227,-0.447939,-0.038677
-0.390675,-0.614729,0.718444,-0.063509,-0.898855,0.433620
-0.553678,-0.002358,0.199745,0.748438,0.132697,0.649794
0.206828,0.874602,0.296214,-0.187359,-0.332059,0.924464
0.334208,-0.149244,0.851237,-0.180823,-0.863601,0.470633
-0.509765,0.328061,0.607520,0.500051,-0.782728,0.370521
0.431878,-0.522516,0.594401,0.474649,0.578489,0.663369
-0.857025,-0.222357,0.486375,0.894863,0.425304,0.135414
-0.725297,0.142619,0.248842,-0.457960,0.591619,-0.663520
-0.515345,0.166671,0.648602,0.909847,-0.259570,-0.323731
0.146339,0.228923,-0.968119,-0.184562,0.082214,-0.979376
0.556713,0.279716,0.139195,0.411563,0.314925,0.855241
0.329204,0.132173,0.751856,0.866035,0.456282,-0.204425
-0.629431,-0.039661,0.378588,0.188497,0.951217,-0.244246
-0.354151,-0.259781,0.233427,-0.434295,0.887869,0.151908
-0.374014,-0.056432,0.722271,0.633946,0.593330,-0.496057
-0.809340,-0.692917,0.445803,0.645961,0.755448,-0.109692
-0.353991,-0.088602,0.884529,-0.559787,0.586162,-0.585707
-0.777660,-0.677877,0.449976,0.611531,0.782478,-0.117293
-0.329284,0.106152,0.654081,-0.504264,-0.146657,-0.851005
-0.540297,-0.060311,0.511531,-0.512630,-0.695562,-0.503392
0.372701,-0.270762,0.499659,-0.345043,0.884011,0.315389
-0.771173,0.310991,0.575023,-0.242447,0.761719,-0.600836
0.331092,-0.271360,0.677782,0.349238,0.318254,-0.881333
0.579531,-0.437584,0.525746,0.041732,0.001960,0.999127
0.063693,-0.109492,-0.857225,0.208429,0.973055,-0.098600
0.014034,-0.336834,0.753777,0.294209,-0.673655,-0.677960
0.099806,-0.096959,0.922414,0.835617,-0.478249,-0.270226
-0.753855,0.203199,0.285001,-0.423917,0.611744,-0.667880
0.443124,-0.247187,0.369462,0.246141,0.516870,-0.819915
0.061393,-0.470231,0.727900,0.098630,-0.978580,0.180701
-0.582813,-0.785012,0.601591,0.630821,-0.555915,-0.541316
0.445423,0.705869,0.197073,-0.009357,-0.250397,0.968098
0.586675,0.530336,0.596082,-0.106208,-0.826542,0.552764
0.114494,-0.097913,0.841885,0.313940,0.930625,-0.188092
0.193618,0.031186,0.418995,-0.594251,0.639823,-0.487331
0.574607,0.304963,0.552283,0.354010,-0.722663,0.593663
-0.198622,0.796294,0.596758,0.214927,0.810776,-0.544472
-0.313199,0.345311,0.251994,0.477109,-0.271292,0.835923
0.400033,-0.004804,-0.941491,-0.711126,0.064621,-0.700089
0.447472,0.219135,0.354722,0.060209,-0.025973,-0.997848
-0.600461,0.408517,0.673594,0.774826,0.149217,-0.614312
-0.281514,-0.425945,0.341108,0.507204,0.420690,0.752172
0.310328,-0.289325,0.529558,-0.036956,0.056733,0.997705
0.115150,0.139038,0.225697,0.218118,-0.092563,0.971523
0.660705,0.231431,0.462134,-0.177857,-0.377234,0.908879
-0.186966,0.005760,0.316027,0.067916,-0.283247,0.956639
0.264281,0.504671,0.287328,-0.483000,0.133392,-0.865400
-0.133780,-0.539347,0.536583,0.169342,0.377801,0.910269
0.404631,0.651676,-0.945004,-0.429961,-0.112486,-0.895813
0.074198,0.591812,0.286833,-0.356214,0.010681,-0.934343
-0.536440,-0.134978,0.193906,0.605319,0.725983,0.326400
-0.104565,0.090573,0.829772,0.502369,0.787521,-0.356983
0.022816,-0.422065,0.511096,-0.003203,0.669512,0.742794
0.539396,-0.438001,0.530279,-0.406541,0.440587,-0.800380
0.357603,0.805545,-0.925025,0.709280,0.008291,0.704878
0.221195,0.899251,0.294698,-0.179012,-0.517423,0.836797
0.218976,-0.085797,-0.954475,-0.687283,0.573541,0.445751
-0.591103,0.130144,0.813411,-0.670509,-0.593160,-0.445621
0.009606,0.043780,0.773245,0.206817,0.764625,-0.610390
-0.468893,-0.166313,0.363473,-0.662749,0.639988,-0.388818
0.587331,-0.160344,0.594596,-0.677236,-0.293792,0.674565
-0.275443,-0.837656,0.352351,-0.757319,0.245155,-0.605282
0.023722,-0.066818,0.856055,0.410031,-0.906704,0.098804
-0.174161,-0.649228,0.806477,0.228382,0.584502,0.778587
0.580273,-0.275837,0.498127,0.067493,0.902063,0.426295
-0.149129,0.194367,0.857511,0.785837,0.581158,-0.211462
-0.077233,0.188696,0.738167,-0.151200,-0.672525,0.724465
0.311145,0.434779,0.224046,-0.448942,-0.023668,-0.893247
0.036932,-0.602375,0.520132,-0.655407,-0.717449,0.236028
-0.006810,-0.046286,0.163721,0.711134,-0.621094,0.329440
0.309917,-0.442418,0.664588,0.504731,-0.032431,-0.862667
0.344222,0.316959,0.188472,-0.764116,0.420106,-0.489527
-0.748440,0.357605,0.573958,-0.371422,0.158438,-0.914846
0.746802,-0.095824,0.624931,-0.692358,-0.632675,0.346933
0.202560,-0.413768,0.529438,0.232156,-0.042420,0.971753
0.256647,0.150378,0.684986,0.690975,0.585043,-0.424592
-0.506073,-0.091168,0.774851,0.830631,0.119872,0.543767
-0.030204,-0.067235,-0.934016,-0.480378,0.709890,0.515067
0.428431,-0.230415,0.367046,0.179504,-0.218362,0.959217
-0.164889,-0.516369,0.656948,-0.364035,-0.524664,0.769549
-0.366955,0.306933,0.335315,0.456698,0.088085,0.885250
-0.350539,-0.570146,0.725498,0.181209,0.179107,-0.966997
-0.236784,0.142976,0.759496,0.986833,0.054051,0.152443
-0.479237,0.264436,0.698630,0.902858,-0.342090,0.260425
0.740565,-0.386135,0.523765,-0.306886,0.622795,-0.719686
0.216676,-0.373183,0.736906,0.810288,0.445589,-0.380636
0.084046,-0.442478,0.777087,0.682538,0.370174,-0.630169
0.366139,-0.289802,0.362498,0.279032,-0.235329,0.931000
-0.117695,-0.374735,0.327705,0.719510,0.000833,0.694482
0.345700,-0.118148,0.258989,0.062894,0.185670,-0.980597
0.794813,-0.189114,0.325798,-0.524898,0.774451,-0.353141
0.238513,-0.529021,0.681954,-0.558982,0.655288,0.508070
0.074768,-0.073562,0.351000,-0.132159,0.221912,0.966069
0.758539,-0.308304,0.307561,0.369062,-0.186861,0.910426
-0.523636,0.243249,0.648107,0.382793,-0.064987,-0.921545
-0.436391,-0.120654,0.802229,0.279494,-0.532082,-0.799232
0.179091,-0.133366,0.267695,-0.312721,0.046009,-0.948730
0.642155,-0.169178,0.193005,0.894066,-0.251196,0.370872
-0.710273,0.283536,0.381665,-0.436196,-0.125928,0.890996
-0.920224,-0.342564,0.608240,-0.654311,-0.425533,-0.625139
0.017891,-0.550509,0.801298,0.179368,0.843680,0.505996
-0.142071,-0.557253,0.764734,0.504930,-0.832593,-0.227674
-0.038901,0.061684,0.849510,0.986827,-0.158801,-0.030905
-0.568942,0.451134,0.352531,0.335399,0.243604,0.910036
0.396751,-0.163030,0.580262,-0.098628,-0.215344,0.971545
0.067961,-0.195618,-0.298931,0.763020,0.621190,0.178672
0.027414,-0.211554,0.934602,0.707548,0.215717,-0.672935
0.298751,-0.138441,0.781380,0.501504,-0.821011,-0.272826
-0.283077,0.134799,0.595602,-0.336209,-0.175713,0.925251
-0.468316,-0.658301,0.746062,0.979284,-0.173963,-0.103630
0.313444,0.238056,0.539060,0.057116,-0.174172,0.983057
0.204037,0.402369,0.591324,0.830967,-0.242939,0.500474
0.666205,-0.584231,0.533326,0.152183,0.084852,-0.984703
-0.009686,-0.457756,0.718984,0.449483,0.892700,0.032436
-0.851445,-0.423079,0.300642,0.273119,0.342245,0.899041
0.013463,-0.034049,0.347818,-0.618575,0.559601,0.551553
-0.218154,-0.410546,0.844572,0.757150,0.429178,0.492473
0.267402,0.278702,0.544973,-0.458771,0.691621,-0.557844
0.141580,0.061149,0.120417,0.831400,0.107162,-0.545244
-0.379348,-0.298099,0.231716,0.749170,-0.435793,0.498828
-0.354727,-0.627920,0.673309,-0.258271,0.850692,0.457842
0.361951,-0.538214,0.621614,0.730429,0.593215,0.338481
-0.715939,-0.057805,0.203302,0.710892,0.181354,0.679516
-0.156518,-0.157242,0.529543,0.966774,-0.234240,0.102373
-0.857436,-0.054821,0.709798,-0.573158,-0.706548,-0.415065
0.427610,0.044377,0.141236,-0.578731,0.552785,-0.599582
0.322882,0.064371,0.425885,-0.646668,0.538045,0.540674
-0.187456,-0.027126,0.794004,0.929998,-0.134182,0.342196
0.765187,-0.185890,0.558708,-0.556429,-0.374945,0.741487
-0.225047,0.116237,0.318744,0.111441,-0.208061,0.971747
-0.923751,0.117133,0.475147,-0.535226,0.321321,-0.781208
0.097261,-0.269808,0.874337,-0.523712,0.655229,0.544427
-0.308931,-0.207556,0.841180,-0.599013,-0.463229,-0.653148
-0.589215,-0.583395,0.633532,-0.654687,-0.755899,0.001453
-0.098323,-0.456026,0.736050,0.717577,-0.609902,-0.336307
0.314186,0.292787,0.223431,0.972591,-0.231979,0.015870
-0.240887,-0.587453,0.786379,-0.622503,-0.572421,-0.533689
-0.060897,-0.124652,-0.933686,0.626887,0.210830,-0.750042
0.250165,0.706645,0.292821,0.095757,0.118247,0.988356
-0.249423,-0.790921,0.358085,-0.684814,0.147867,-0.713559
-0.660374,-0.479543,0.645765,0.589053,0.594331,0.547528
-0.858994,-0.337313,0.701002,0.555052,-0.705547,0.440592
0.438611,-0.336298,0.095741,0.473302,0.880498,0.026624
0.115726,0.751889,0.287448,0.423758,-0.125747,-0.897004
0.530779,0.228684,0.349244,0.184136,0.010990,0.982839
-0.391577,-0.051956,0.704980,0.050490,-0.996725,-0.063171
-0.635422,0.358560,0.589988,0.440206,0.804024,0.399705
0.133865,-0.180877,0.894795,0.273908,-0.513792,0.813014
0.324856,0.289804,0.803910,-0.378834,-0.349773,0.856822
0.089547,0.311171,0.277136,-0.724933,0.309564,-0.615339
-0.173505,-0.689158,0.554475,0.710662,-0.060325,0.700942
0.105466,-0.384046,0.740028,0.113495,0.359632,0.926166
-0.401425,-0.797665,0.579391,0.064837,-0.217276,0.973955
0.197225,0.217166,-0.945049,0.167570,-0.873788,-0.456525
-0.128690,-0.164761,0.537393,0.926853,-0.366508,-0.081340
0.666205,-0.555283,0.520282,-0.415394,0.151954,0.896860
-0.716019,0.040377,0.533791,0.745101,0.596291,0.298767
0.118847,-0.428631,-0.961394,0.895660,-0.426220,-0.127002
0.765598,-0.321078,0.308222,0.369062,-0.186861,0.910426
-0.080434,-0.143393,-0.717153,0.926158,0.374268,-0.046417
-0.319681,0.625891,0.559548,0.216733,0.597844,-0.771758
-0.695911,0.208452,0.714151,-0.637375,-0.063965,-0.767894
0.390515,-0.162613,0.468108,0.123698,0.469499,0.874225
-0.239004,0.467903,0.512132,-0.018177,-0.676973,0.735784
-0.651016,-0.622370,0.585786,0.420615,0.571588,-0.704535
0.462165,0.323346,-0.954955,-0.140042,-0.149901,0.978733
0.409310,-0.164941,0.859297,0.330454,-0.549535,0.767341
0.598818,0.313022,0.544283,0.294326,-0.742435,0.601799
-0.067220,-0.174908,0.917325,-0.666372,0.554786,-0.498157
0.202645,0.205170,0.799137,-0.649425,0.727905,0.220005
-0.448619,0.363037,0.691531,-0.047390,-0.886727,0.459857
-0.429909,0.706467,0.574603,-0.133139,-0.798769,0.586722
-0.121061,-0.166433,-0.957162,0.811520,-0.213811,-0.543801
0.018142,-0.466173,0.805156,0.880659,-0.184557,0.436323
0.019044,-0.189471,0.912897,0.249506,0.242288,0.937573
-0.743105,0.325615,0.621314,-0.064667,0.986680,-0.149268
0.036607,0.124772,-0.920793,0.629708,0.557566,-0.540915
-0.114163,0.128055,0.743720,0.295580,-0.045039,0.954256
0.592826,-0.259841,0.008038,0.171472,0.953624,0.247383
-0.701988,-0.792711,0.596608,-0.361762,0.264995,0.893815
-0.653235,-0.160823,0.810154,0.716018,0.016092,0.697896
0.250576,0.742399,0.291996,0.234065,0.422049,0.875836
0.551052,0.243548,0.345777,0.194473,-0.011532,0.980840
-0.475129,0.353309,0.697610,0.193239,-0.811142,0.552003
0.331829,0.513205,-0.943518,0.471056,-0.586555,0.658832
0.360969,0.731415,0.276881,-0.511578,-0.513687,-0.688777
0.212408,0.240622,-0.960104,0.725803,-0.007065,-0.687867
-0.104234,0.110926,0.461563,0.116812,-0.355415,0.927381
0.768799,-0.295831,0.547180,0.133594,0.526927,-0.839345
-0.784473,-0.054761,0.684131,0.416541,0.765243,0.490812
-0.589625,-0.488495,0.264453,0.654913,-0.232357,0.719096
-0.105632,0.192694,0.219258,0.362073,-0.132861,0.922633
0.306962,0.276374,-0.946925,-0.401153,-0.257547,-0.879060
0.013543,-0.069622,0.092063,0.811553,-0.563757,-0.153494
-0.132387,-0.191321,0.583369,-0.275196,0.957636,-0.084858
0.434999,-0.148945,0.261151,0.027838,-0.088623,0.995676
-0.247455,-0.241876,0.760651,0.395212,0.916520,0.061631
0.808193,-0.306335,0.544238,-0.280964,-0.519394,0.807025
-0.010257,-0.172402,0.946955,-0.632289,0.491736,-0.598671
-0.324360,-0.391386,0.632752,0.165735,0.982578,-0.084095
0.155616,-0.156346,0.815663,0.076111,-0.741826,0.666259
-0.388786,0.292669,0.546309,0.979397,0.056159,-0.193978
0.329780,-0.196813,0.779759,0.552280,-0.675187,-0.488988
-0.241874,-0.555044,-0.996052,0.103522,0.042285,0.993728
0.530449,0.111523,0.356719,-0.150751,0.627680,0.763736
-0.328463,-0.144827,0.906653,-0.584349,-0.418170,0.695464
-0.219467,0.729685,0.589043,0.002464,-0.809308,0.587380
-0.629596,0.111463,0.694247,0.056138,-0.902968,-0.426024
-0.719060,0.390014,0.558588,0.542627,0.730338,0.414925
-0.096029,-0.078396,-0.665759,0.588692,0.720366,-0.366762
-0.202234,-0.201110,0.858051,-0.705086,-0.285487,-0.649115
-0.107926,-0.380643,0.509640,0.601906,0.389239,0.697282
0.675643,-0.171445,0.316237,0.379228,-0.238363,-0.894075
0.305649,0.407562,0.592285,-0.141380,0.883621,-0.446348
0.420060,0.234892,0.456505,-0.142249,-0.665211,0.732980
-0.261656,0.176580,0.765920,-0.505686,-0.201938,-0.838751
0.236539,-0.351815,0.667635,0.839709,0.279970,0.465302
-0.453298,0.125847,0.766926,0.519679,0.765594,0.379209
-0.503363,-0.725984,0.241337,0.864489,0.002400,0.502646
-0.436311,-0.498583,0.360261,-0.033104,0.303866,0.952139
-0.962740,0.321138,0.568329,0.837769,0.130732,-0.530144
0.028481,-0.104538,-0.404856,-0.387489,0.919697,0.063332
-0.210359,0.364350,0.785673,0.255356,-0.962823,0.088126
-0.504184,0.320302,0.628594,-0.010851,-0.999092,0.041206
0.393385,0.402309,0.570490,-0.000233,-0.834203,0.551458
-0.574196,0.468800,0.354047,0.507027,0.242657,0.827068
0.118927,0.637829,0.290630,0.213737,-0.114323,0.970179
0.326328,0.136291,0.222335,0.747141,-0.051086,0.662700
0.133374,0.170014,0.269841,-0.472278,-0.082302,-0.877599
-0.627873,-0.576173,0.656542,0.440279,0.833204,0.334551
-0.048013,-0.498643,0.320290,0.644888,0.503500,0.574984
-0.380335,-0.368409,0.682585,0.585891,0.170203,-0.792315
-0.042678,-0.430839,0.747458,-0.423976,0.889345,0.171203
0.268635,0.155571,0.687628,-0.640023,-0.355540,0.681148
-0.101199,-0.563519,0.760771,-0.639180,-0.054578,-0.767118
-0.337164,0.031842,0.758790,0.180839,0.857492,-0.481668
-0.006895,-0.119162,0.955000,-0.804738,0.172466,-0.568025
-0.402167,-0.252320,0.811400,0.385457,0.808999,0.443782
-0.306386,-0.315288,0.278007,-0.358538,0.766210,0.533266
-0.494010,-0.624995,0.610732,0.476332,-0.782287,-0.401416
0.251066,0.554508,0.726759,0.861967,0.395586,-0.317055
-0.064184,-0.344832,0.244249,0.745626,0.065272,0.663160
-0.210765,-0.453399,-0.979391,0.033188,-0.024456,0.999150
0.529056,-0.252141,0.360156,-0.291857,-0.916525,-0.273497
-0.187787,-0.607926,0.781725,-0.527506,-0.607118,-0.594260
-0.441726,0.256618,0.577920,0.881962,-0.459416,0.105258
-0.697144,0.133845,0.736876,0.160916,-0.923320,0.348693
-0.558271,-0.103106,0.399767,0.549538,0.577978,0.603282
0.277577,-0.285565,0.531134,-0.265793,0.023274,0.963749
0.221686,-0.183443,-0.960854,0.074475,-0.409537,0.909249
0.057536,-0.299113,0.704334,-0.112068,0.456097,0.882845
-0.097587,0.265392,0.739022,0.677582,0.633487,-0.373599
0.074032,-0.216747,0.944478,-0.674388,-0.529936,0.514168
-0.307288,0.506223,0.520672,0.015495,-0.680190,0.732872
-0.966597,0.551643,0.545709,-0.626046,0.635137,-0.452402
0.300229,0.103347,0.439889,0.136322,-0.536842,0.832596
-0.144285,0.413411,0.505062,0.282283,0.576528,-0.766767
-0.044732,-0.367274,-0.990244,-0.433658,-0.009051,0.901032
-0.120730,0.302397,0.780840,0.153591,-0.841738,0.517578
0.160045,0.078815,-0.919006,-0.719455,-0.464307,-0.516530
-0.147160,-0.474947,0.732508,-0.618672,0.748318,0.239301
0.422194,-0.395743,0.528733,0.820987,-0.067561,-0.566935
-0.058929,0.026412,0.780930,0.977251,0.191173,0.091830
-0.274130,-0.285266,0.875373,0.682693,0.550681,0.480292
0.049736,-0.053865,0.916815,0.261773,0.655860,0.708041
0.654383,-0.050226,0.218102,-0.378264,-0.481211,-0.790792
-0.927283,-0.407562,0.638966,-0.773267,-0.478311,-0.416266
-0.232762,0.530097,0.240722,0.180153,0.116104,-0.976762
0.207078,-0.123399,0.828316,-0.213190,-0.831545,0.512916
0.079858,0.146976,0.821232,0.344747,-0.875594,0.338356
-0.530369,0.084485,0.808323,0.947398,-0.218979,0.233419
0.373522,0.017219,-0.941686,0.836829,0.053519,0.544843
0.010016,0.163509,-0.922609,0.197724,0.828145,0.524482
-0.298175,0.740310,0.580247,0.376491,0.856821,-0.352296
-0.411028,0.232446,0.600060,-0.558918,0.468418,0.684248
0.339874,0.429646,0.595137,-0.216840,0.877962,-0.426805
0.541284,-0.373123,0.083508,0.403696,0.905306,0.132099
-0.654874,-0.162852,0.791227,0.813643,0.304625,0.495166
-0.003855,-0.148229,-0.034185,0.999082,0.037859,-0.020069
0.191975,0.156406,-0.944463,0.026219,-0.180551,0.983216
-0.759767,0.300368,0.638035,0.151901,0.691549,-0.706177
0.374509,-0.252141,0.487305,0.235947,0.798393,0.553983
-0.281514,0.161538,0.637180,0.895136,0.233950,0.379472
0.214708,0.083232,0.506128,-0.154976,-0.410246,0.898710
0.089707,-0.431017,-0.974708,0.929033,-0.181956,-0.322164
0.444025,-0.277746,0.503456,0.166369,0.827877,0.535669
-0.600541,0.199856,0.700837,0.850179,-0.360949,0.383291
-0.303430,-0.473215,0.699291,0.851690,0.476349,0.218439
-0.011409,-0.081679,0.689054,-0.757331,0.265170,0.596771
0.022735,-0.126264,0.957552,-0.258416,-0.964626,0.052132
0.184260,-0.186308,0.696394,-0.207203,-0.891229,0.403456
-0.039968,-0.125787,0.960674,0.181398,-0.942871,-0.279443
-0.108748,-0.173535,0.811085,-0.263248,-0.032251,-0.964189
0.381568,-0.040437,-0.943503,-0.476204,-0.036353,-0.878583
-0.935243,0.082037,0.284146,-0.781899,0.267888,-0.562912
0.294814,0.276733,0.199445,0.921589,-0.006718,0.388108
0.143223,-0.082216,0.352786,-0.093862,0.085056,0.991945
-0.105136,-0.064848,-0.659770,0.690273,0.720402,-0.067409
-0.374589,-1.000000,0.456490,0.204189,0.618950,-0.758425
0.410377,-0.421826,0.674960,-0.672861,0.247929,0.696986
0.135343,0.403145,0.642388,-0.447358,-0.432821,-0.782647
-0.200671,0.416695,0.499523,0.101879,-0.611068,0.784994
-0.384273,0.601779,0.546249,0.146074,-0.553459,0.819967
-0.247044,-0.165537,0.567278,-0.530565,0.762276,-0.370725
0.175233,0.056910,0.412181,-0.475283,0.725762,-0.497368
0.496800,0.174014,-0.948741,-0.144760,0.551612,0.821443
-0.122784,-0.221463,0.857886,-0.682540,0.630193,0.370129
-0.668009,-0.145005,0.636129,0.769424,-0.040282,0.637467
0.032008,-0.549255,0.814342,0.081752,0.771914,0.630448
0.085028,-0.117490,0.925656,0.510781,-0.843551,-0.165908
-0.383206,0.223672,0.770273,0.159111,0.675666,0.719833
-0.066563,0.074637,0.831513,0.951239,-0.300426,-0.069920
0.219467,-0.053328,-0.952854,-0.179930,0.891718,0.415287
-0.100542,-0.498583,0.747233,-0.307171,0.615127,0.726130
0.200180,0.346624,-0.956741,-0.147763,0.146269,-0.978147
0.199770,-0.100658,-0.929513,0.021787,-0.252398,0.967378
-0.222503,-0.655257,-0.978491,0.515633,0.851846,-0.092092
-0.051049,-0.142200,0.958633,-0.030603,0.740709,0.671128
0.181140,0.041630,0.345011,0.003575,-0.053746,0.998548
-0.383782,0.176161,0.674374,-0.025592,0.287698,0.957379
-0.587491,0.520547,0.363938,0.567273,0.304245,0.765269
-0.455677,0.369184,0.550767,0.441591,0.679649,0.585726
0.522899,0.528724,0.610657,0.128552,-0.937131,0.324439
0.455517,-0.294159,0.033675,0.173723,0.951640,0.253379
0.113346,0.312484,0.637015,-0.587631,-0.747391,-0.309993
0.315823,0.485153,0.549206,-0.686799,0.136578,0.713900
-0.871062,0.223433,0.552959,0.309678,-0.936903,0.162209
0.094471,-0.327105,0.574798,-0.636021,0.000430,0.771671
0.447968,-0.188695,0.685061,0.454860,0.113473,-0.883304
0.444025,-0.203736,0.586161,0.308238,0.500862,-0.808781
0.224231,0.607509,-0.935832,0.831971,-0.055873,-0.551999
0.445994,-0.156705,0.691336,0.454860,0.113473,-0.883304
-0.262393,-0.704199,0.572697,-0.520392,-0.140110,-0.842354
0.299738,-0.095884,0.356734,0.384499,0.879944,0.279031
0.337164,0.210004,0.708237,0.951167,-0.263485,0.160800
0.244750,0.061566,0.349124,-0.044903,0.107851,0.993153
-0.018302,-0.117490,0.302008,0.865038,-0.498741,0.054457
-0.034222,-0.133486,0.922609,-0.742494,0.232790,-0.628101
0.437543,-0.071950,0.610297,-0.529947,-0.827539,0.185295
0.304252,0.540662,-0.925416,0.416343,-0.164163,0.894264
-0.716926,0.331642,0.581313,-0.509713,0.805360,-0.302634
0.479483,0.267959,0.461879,-0.580422,0.634045,-0.510976
0.181550,-0.190008,0.892964,0.775429,0.003109,-0.631427
0.231124,-0.098391,-0.932996,-0.017668,0.190787,-0.981473
-0.001065,-0.338744,-0.992975,-0.487171,-0.074215,0.870148
0.450428,0.324063,0.458696,0.813247,-0.381912,-0.439059
-0.538574,0.105137,0.794874,0.633425,0.544494,0.549817
-0.200100,-0.254409,0.862704,0.824527,0.562623,0.060089
-0.202234,0.348713,0.795520,-0.192029,-0.973069,-0.127519
0.550887,-0.382315,0.535817,-0.172589,0.511614,-0.841703
0.085439,0.093199,0.593741,-0.372675,-0.022283,0.927695
0.277166,0.508371,0.272873,0.934352,-0.190951,0.300871
0.349147,0.121252,0.684011,0.082512,-0.951851,0.295250
-0.097341,0.446358,0.490908,0.223652,-0.724331,0.652168
-0.421288,-0.486107,0.723457,-0.450683,-0.604502,-0.656858
-0.959699,0.499657,0.527322,-0.517723,0.476104,-0.710836
-0.731533,0.458474,0.476063,0.863291,-0.350342,0.363302
-0.447963,-0.768599,0.624797,-0.579224,0.802016,0.145844
0.151919,0.028142,-0.939765,-0.454053,0.636144,-0.623825
-0.069924,-0.125368,-0.948696,0.937784,0.087957,-0.335894
-0.466268,-0.567280,0.740403,0.904942,-0.162253,0.393387
-0.943368,0.458951,0.479215,0.352882,-0.809193,-0.469767
0.606943,0.320661,0.481376,0.689753,0.541478,-0.480669
0.362116,-0.132412,0.360111,-0.432791,0.064671,-0.899171
-0.196899,-0.659554,0.806327,0.228382,0.584502,0.778587
0.017400,-0.199259,0.893580,0.895482,0.150717,-0.418804
-0.247289,-0.267897,0.852753,-0.442002,-0.813135,0.378741
-0.264116,-0.478051,0.661436,0.719669,0.691591,-0.061472
-0.143218,-0.397654,0.823768,0.093123,-0.738787,0.667474
0.308930,-0.492792,0.621809,0.908563,0.350389,-0.227464
-0.081662,-0.218537,-0.948906,-0.537830,-0.434439,0.722496
0.451986,0.248083,0.163766,0.355487,-0.513070,0.781273
-0.471683,0.265272,0.647011,0.119338,0.669384,0.733269
0.611131,-0.565608,0.519096,-0.472092,-0.099887,0.875872
-0.166612,-0.386313,0.606154,-0.404556,0.717745,0.566725
0.385345,0.272972,0.180982,0.658413,-0.559673,0.503248
-0.249178,-0.172163,0.356674,-0.067119,-0.858633,0.508178
0.188198,0.630009,0.289594,0.010505,0.109427,0.993939
-0.304417,-0.108598,0.725843,-0.400275,-0.385681,0.831282
-0.539726,0.110807,0.797381,-0.562873,-0.698208,-0.442357
-0.193448,0.403085,0.237450,0.199711,-0.349766,0.915303
-0.399456,0.344893,0.583684,0.844521,-0.066115,0.531425
0.297604,0.249396,0.220804,0.893571,-0.034403,0.447601
0.394943,-0.408517,0.574603,0.297672,0.731500,0.613432
0.072800,-0.205168,0.641172,-0.873032,0.004777,0.487640
-0.057942,0.180638,0.807963,0.888655,-0.401034,0.222405
-0.034473,-0.390552,0.771804,0.897081,-0.025892,-0.441107
-0.752708,0.453939,0.595677,-0.446236,-0.845843,-0.292273
-0.321569,0.103465,0.509565,0.870437,0.147718,0.469595
-0.386738,-0.187979,0.771248,0.342993,0.682342,0.645574
0.010177,0.150856,0.840594,-0.602248,0.760506,0.242750
0.816318,-0.180995,0.559953,-0.190310,-0.716898,0.670701
0.809180,-0.208988,0.547555,0.721092,0.535721,-0.439352
-0.003940,-0.510162,0.811865,0.347876,0.702378,0.621005
0.038330,-0.173236,0.831604,-0.715289,-0.363686,-0.596736
0.610720,0.350921,0.469684,-0.366226,-0.387265,0.846111
-0.886982,-0.322869,0.700116,0.564777,-0.528336,0.633946
0.393470,-0.228983,0.364614,0.362608,0.080248,0.928480
0.389528,0.514757,0.579466,0.810783,-0.218752,-0.542936
0.546374,0.223135,0.147795,-0.440571,-0.384790,-0.811070
-0.473817,0.344713,0.665173,0.738307,-0.646714,0.191479
-0.901098,-0.467605,0.629645,-0.379846,-0.904265,-0.194989
-0.721600,0.304545,0.466607,-0.569300,0.043963,-0.820954
0.408569,0.315706,0.554295,-0.211208,-0.595853,0.774823
0.290626,0.106270,-0.939885,0.052324,0.270733,0.961231
0.252133,-0.106388,0.347443,0.203412,-0.941874,-0.267389
-0.571572,0.264139,0.275125,-0.502405,0.679100,-0.535174
-0.939511,-0.118982,0.718804,0.912730,0.209221,0.350928
-0.077559,-0.091289,-0.864430,0.076012,-0.984963,0.155144
-0.552856,-0.336118,0.710008,-0.745800,0.657548,-0.106836
0.236789,0.106569,0.748493,-0.202186,0.685857,-0.699086
-0.304167,0.130503,0.805636,0.822047,0.562656,-0.087504
0.125494,0.191263,0.584675,0.374641,0.387213,0.842443
0.293747,-0.103704,-0.928748,-0.339406,0.333944,-0.879366
-0.339709,-0.326211,0.289219,-0.572513,0.553557,0.604817
0.267648,-0.112237,0.850681,0.672607,0.491840,-0.552895
0.412757,-0.406845,0.352831,-0.052940,-0.318045,0.946597
0.184260,-0.138798,-0.945349,-0.032828,-0.871953,0.488488
-0.320913,-0.310333,0.567969,0.917997,-0.101023,0.383505
-0.182372,-0.507535,0.748719,0.132435,0.921264,0.365697
-0.230793,-0.042823,0.514293,0.323926,0.101514,-0.940620
0.316320,0.338865,0.205644,0.910745,-0.309883,0.272975
0.333883,0.495837,0.545919,-0.686799,0.136578,0.713900
0.572553,0.203618,0.345146,0.499628,0.283854,0.818413
-0.456830,0.401415,0.698991,0.440918,0.870241,-0.219709
-0.661441,-0.391386,0.731022,0.788578,0.253352,0.560319
0.017891,-0.162613,0.904432,-0.238716,0.436148,0.867635
0.164152,-0.402430,0.749064,-0.354524,0.797250,0.488575
0.478085,0.350622,0.572937,0.351084,0.561856,-0.749038
0.299904,-0.435853,0.656963,0.896118,-0.383846,0.222786
-0.307207,-0.499238,0.649518,-0.188920,0.253047,-0.948829
-0.280943,-0.494105,0.724087,-0.197033,0.754024,0.626599
-0.097096,0.286521,0.476198,0.722701,-0.165808,0.670978
0.497537,0.121550,-0.937514,0.131820,0.186491,0.973573
-0.152661,-0.615148,0.779249,-0.803913,-0.435249,-0.405318
-0.041281,-0.249753,-0.965462,-0.335597,-0.751104,0.568523
-0.172603,0.343400,0.493054,0.075921,-0.553934,0.829092
-0.752874,0.618789,0.369627,0.185449,0.294507,0.937483
0.195091,0.107465,0.340058,0.205343,0.044270,0.977688
0.124017,0.741144,0.296979,-0.186679,-0.043764,0.981446
0.056715,-0.504908,-0.987061,-0.609491,0.246633,0.753454
-0.152661,-0.365782,0.845893,0.577725,-0.548775,0.604218
-0.768548,-0.531647,0.617712,-0.185254,-0.842357,0.506079
-0.226280,-0.222060,0.850891,0.818418,-0.219538,0.531031
0.118025,0.035364,0.502240,-0.387207,0.521068,-0.760630
0.806059,-0.161180,0.340418,0.114377,-0.873928,0.472406
0.307783,0.459370,0.215505,-0.347517,0.435224,0.830549
0.720127,-0.516846,0.524305,0.457562,0.239061,0.856438
0.170469,0.437882,0.276971,0.418891,-0.530274,0.737116
-0.210109,-0.353010,-0.997463,-0.125824,0.106722,0.986295
0.024458,-0.142617,0.804030,0.746057,-0.632820,-0.207214
-0.030285,0.005820,0.877324,0.932007,0.361107,-0.031045
0.012641,-0.568295,0.820751,-0.305478,0.844387,0.440106
0.550396,-0.190307,0.360291,0.846760,0.381349,0.370905
0.121061,-0.519114,0.769898,-0.058365,0.987978,0.143157
0.000824,-0.106926,0.344831,-0.591178,0.567175,0.573430
0.387804,0.766152,0.272423,-0.625148,-0.464068,-0.627559
-0.840694,-0.286341,0.716507,-0.771857,0.119606,0.624445
0.196734,0.510101,0.614500,-0.283255,-0.794330,0.537407
-0.033075,-0.078517,0.522383,-0.707866,0.354648,-0.610861
0.519699,0.204155,0.453533,0.623688,0.159842,-0.765156
-0.765347,0.275299,0.478239,-0.533764,-0.080719,-0.841772
0.112936,0.593662,0.288589,0.167967,0.058569,0.984051
0.300640,0.546629,0.628999,-0.569331,0.818360,-0.078412
-0.069519,-0.198066,0.124035,0.691426,-0.651421,-0.312379
-0.792022,-0.289264,0.419926,0.811130,0.048780,-0.582828
0.652745,-0.248440,0.546129,0.862836,-0.061821,-0.501689
-0.400934,0.697635,0.525476,0.687913,0.386634,0.614240
-0.808108,-0.435853,0.624931,-0.538139,-0.087108,-0.838343
-0.315087,-0.180458,0.801779,-0.688238,0.505045,-0.520825
0.516332,0.194723,-0.945499,-0.207996,0.456320,0.865164
0.615399,-0.405293,0.525611,0.311469,-0.477185,0.821755
0.083635,0.131696,0.531344,-0.641286,0.587281,-0.493816
0.286608,0.060551,0.505017,-0.125539,-0.427961,0.895036
0.314100,-0.178966,-0.954535,-0.574661,0.648821,-0.498794
0.054911,-0.121011,0.817554,0.031301,0.999348,-0.017984
0.347834,-0.455370,0.525341,-0.446403,0.191281,0.874149
-0.023883,-0.109731,-0.434620,-0.229425,0.972294,-0.044815
0.137557,0.398490,0.286472,0.541991,-0.282691,0.791411
0.340200,0.105434,-0.939300,0.102157,0.194067,0.975655
-0.156353,-0.157539,-0.961034,0.849925,-0.116380,-0.513890
0.484737,0.674178,0.196187,0.041683,-0.309526,0.949977
-0.064184,-0.188217,-0.948111,-0.488516,0.458360,0.742468
0.062460,0.153779,0.787985,-0.549695,0.423209,-0.720229
0.178680,0.069803,0.370378,0.987150,-0.156489,0.032352
0.448374,0.127996,0.355878,-0.128453,0.321067,0.938305
0.298095,-0.118148,0.362768,0.261049,0.512798,0.817858
-0.355714,0.042586,0.762693,0.046673,-0.787639,0.614367
0.253120,0.141664,0.693512,-0.617459,-0.189101,0.763534
-0.180398,-0.017099,0.811745,0.288849,0.741271,-0.605874
0.566562,0.200632,0.150452,-0.449101,0.016073,-0.893336
-0.293006,-0.156227,0.718999,0.702898,0.385164,-0.597982
-0.331173,0.384166,0.619063,-0.065917,0.977335,0.201173
0.106944,0.047242,-0.939915,0.046258,-0.748904,0.661062
0.032915,-0.689038,0.527832,-0.652401,0.065159,-0.755068
0.236048,0.395983,0.636294,0.888208,-0.188292,0.419086
0.326494,-0.468142,0.351240,0.087095,-0.369574,0.925111
-0.634851,0.362500,0.645090,-0.357013,-0.736045,0.575134
-0.964708,-0.395087,0.615265,-0.642320,-0.329458,-0.692013
-0.233914,0.168642,0.322016,-0.103244,-0.266602,0.958261
0.022655,-0.159987,0.477354,0.118550,0.858278,-0.499304
0.523230,0.520309,0.197313,0.956701,0.186286,0.223655
-0.614738,-0.141065,0.812001,0.812407,-0.556941,0.172661
-0.915380,0.596229,0.371068,-0.584121,-0.549506,-0.597365
-0.489331,0.342147,0.341724,0.318288,-0.142018,0.937296
-0.079939,-0.126980,-0.266569,0.990145,0.063572,-0.124790
-0.674982,-0.231728,0.675440,0.122266,-0.108716,0.986525
-0.252870,-0.859739,0.577380,0.292125,-0.327196,0.898669
-0.287670,0.431795,0.257233,0.240535,-0.648326,0.722368
0.300971,0.424513,0.596307,0.053419,-0.808493,0.586076
-0.110962,-0.101316,-0.712109,0.941283,0.337605,0.003036
0.629350,0.435316,0.077174,0.662015,0.600115,0.448996
0.145437,0.098929,0.743570,0.267450,-0.654527,0.707152
-0.300395,0.309858,0.629855,0.989936,-0.014327,0.140788
0.601859,-0.092482,0.238560,0.542145,0.491704,0.681400
0.243597,-0.345906,0.742444,0.514772,0.857243,-0.012046
0.073787,-0.071652,0.851792,-0.144181,-0.797655,0.585627
0.559754,-0.198365,0.342564,0.862579,0.297031,0.409549
0.352022,0.151034,-0.937844,-0.119751,0.473751,0.872479
-0.355218,0.282403,0.330001,-0.523088,-0.114038,-0.844615
0.408488,0.071653,-0.939405,0.085419,-0.064636,0.994246
-0.230713,-0.016920,0.803520,-0.504015,-0.328612,0.798738
0.251477,0.183862,0.759526,-0.227540,-0.969459,-0.091514
-0.972914,0.524008,0.534542,0.935741,-0.351462,0.029392
-0.709457,-0.299472,0.767241,0.909361,0.270153,0.316355
0.070010,-0.133964,0.273504,-0.371253,0.296229,-0.880011
0.023637,0.470231,0.286337,-0.093534,0.995614,0.001826
-0.258370,-0.354859,-0.991309,-0.137646,0.291759,0.946536
0.358584,0.088722,0.505738,-0.125539,-0.427961,0.895036
-0.281023,0.378079,0.492994,0.388111,0.453055,-0.802565
0.321655,0.643022,0.291020,0.390021,-0.680109,0.620754
-0.090118,0.379987,0.495351,0.808840,-0.509964,0.292770
0.027990,0.123698,0.587992,0.835013,0.130983,-0.534413
0.026593,-0.355338,-0.985485,0.552717,0.311305,-0.773042
-0.171782,-0.558268,-0.994912,-0.237172,-0.043752,0.970482
0.143468,0.382674,0.650043,-0.279888,0.726113,-0.628031
-0.691563,-0.225282,0.646051,0.831821,0.520198,0.193568
-0.586915,0.253633,0.549567,0.038821,-0.459858,0.887143
-0.522078,-0.254469,0.351826,-0.737125,0.402132,-0.543081
-0.158076,-0.676087,0.556531,0.848106,-0.119754,0.516115
-0.381568,-0.251067,0.239161,0.320710,-0.864583,-0.386835
-0.388461,-0.696857,0.718939,0.560161,-0.820472,0.114221
-0.179907,0.552896,0.544538,-0.168745,0.899550,0.402907
-0.795880,-0.742874,0.751030,-0.058608,-0.893148,0.445928
-0.128856,0.294638,0.482367,0.299117,-0.439997,0.846718
-0.021994,-0.174072,0.906803,-0.663556,0.701891,0.258925
0.228253,0.521323,0.709092,0.861967,0.395586,-0.317055
-0.842828,0.410726,0.564727,-0.187545,0.710267,0.678489
0.119583,0.087529,0.119997,0.965898,0.067105,-0.250076
-0.049491,0.024084,0.762032,0.920616,0.195607,-0.337940
-0.022240,-0.096839,-0.410214,-0.396197,0.917937,0.020497
-0.037674,-0.021815,0.912252,0.256275,-0.368961,-0.893415
-0.542021,0.357427,0.622980,-0.426112,0.852285,-0.303381
0.712738,0.192993,0.325949,-0.470807,-0.517599,-0.714445
-0.596518,0.382494,0.550077,0.914525,-0.403390,-0.030343
-0.056469,-0.139872,0.873481,0.411004,0.906912,-0.092660
0.385916,-0.377241,0.526751,0.105874,0.375343,0.920819
-0.234325,-0.218000,0.867477,0.412953,0.569706,-0.710567
-0.472750,-0.302038,0.694608,0.869433,-0.261596,0.419111
0.075265,-0.456623,0.704514,0.107825,-0.992256,-0.061666
-0.859895,-0.629949,0.574273,-0.338667,-0.549350,0.763885
0.067054,-0.490464,0.798477,-0.084263,0.854279,0.512939
0.063608,0.168223,0.821126,0.290051,-0.886467,0.360619
-0.595697,-0.524008,0.633757,0.994025,0.105169,-0.029227
-0.114824,-0.155271,0.917670,-0.344538,0.930041,0.127735
-0.648471,0.461101,0.355653,0.409109,-0.080529,0.908925
0.220454,0.156167,-0.943142,0.380365,0.089728,-0.920473
-0.261406,-0.102509,0.777057,0.093408,0.987915,0.123688
-0.005252,-0.662002,0.520627,-0.207368,-0.892405,0.400764
0.340365,0.496852,0.618852,0.984119,-0.119241,0.131498
-0.590447,-0.222118,0.641247,0.709143,0.586430,0.391428
0.131977,-0.562864,0.657683,0.798941,0.560664,0.217601
-0.247620,0.352354,0.492769,0.350695,0.376445,-0.857497
-0.642155,0.331642,0.559128,0.594285,-0.278237,0.754592
-0.087818,-0.203377,0.961409,0.889002,0.456777,-0.032079
-0.006565,0.154735,0.822868,-0.149460,0.981092,0.122961
-0.294649,-0.744546,0.346062,-0.590911,0.205559,-0.780109
0.640677,0.342088,0.494060,0.581032,0.209633,-0.786419
-0.080184,0.130741,0.863184,0.885231,0.448928,0.121781
0.642645,-0.050821,0.215940,-0.380940,-0.284983,-0.879585
-0.677692,0.150080,0.735495,0.160916,-0.923320,0.348693
0.335441,0.608702,0.209531,-0.739434,-0.140051,-0.658500
0.509524,0.276971,0.350099,0.121435,-0.158149,0.979920
-0.177037,-0.233519,0.559038,-0.578556,0.814369,-0.045564
0.027003,-0.269868,0.863154,0.708567,0.692161,0.137281
0.796786,-0.322271,0.526121,-0.278429,0.640048,-0.716111
0.320092,0.094035,0.775211,-0.377352,-0.799939,0.466587
0.213070,-0.168640,0.814807,0.401142,0.694821,-0.596916
-0.674571,0.551942,0.366100,0.709040,0.278855,0.647690
0.067465,0.229699,-0.963736,-0.421175,-0.281903,-0.862057
-0.222913,-0.286878,0.873751,-0.676209,-0.191196,-0.711468
0.120981,0.223790,0.635228,0.788833,0.221251,-0.573403
-0.049000,-0.128293,0.928027,0.779001,-0.609267,-0.148158
-0.676625,0.322391,0.392548,0.443406,0.261095,-0.857450
-0.272818,-0.172460,0.597598,-0.423010,0.583682,0.693093
0.227597,0.090156,-0.939780,-0.097592,0.150999,0.983705
-0.413904,-0.287654,0.681909,-0.652789,0.260223,-0.711443
-0.288412,0.214599,0.319509,-0.324126,0.106493,-0.940001
-0.526672,0.318154,0.617126,0.556085,-0.739716,0.378931
0.380826,0.183325,0.447994,-0.429347,-0.433256,0.792434
0.566727,-0.226297,0.333859,0.809156,0.088001,0.580967
0.352267,0.280254,-0.961740,0.278756,0.717821,0.637987
0.488344,-0.299650,0.503726,0.181778,0.678030,0.712202
-0.793826,0.021576,0.564126,0.590766,0.600640,0.538727
-0.104891,-0.310393,0.135562,0.907970,0.117667,0.402174
-0.039397,-0.015429,0.669481,0.851690,-0.139548,0.505124
-0.114248,0.114805,0.882577,0.764826,0.516174,-0.385494
-0.510341,-0.774030,0.642148,-0.636749,0.755630,0.153539
0.258210,0.868454,0.297399,-0.120308,-0.426758,0.896328
0.047687,-0.115521,0.915134,-0.711016,0.096391,0.696538
-0.782009,0.357904,0.577635,0.533856,-0.074262,0.842308
0.328382,0.502761,0.208075,-0.530728,0.344209,0.774498
-0.197716,-0.684263,0.802289,0.675571,0.566677,0.471679
0.230548,0.515713,0.285812,0.356563,-0.048190,0.933028
-0.062460,-0.317198,0.791677,-0.584684,-0.811200,-0.009956
0.024458,-0.518517,0.800293,0.348354,0.803121,0.483370
0.643552,-0.386313,0.528838,0.402646,-0.523111,0.751153
0.222097,-0.386971,0.652175,-0.316380,-0.681853,0.659531
0.155040,0.172402,0.761462,0.603627,0.401685,-0.688683
0.044401,0.487362,0.291891,0.086585,-0.240794,0.966706
0.118436,0.037215,-0.966723,0.342853,0.923504,-0.172022
-0.114739,-0.132590,-0.828962,0.884482,-0.466446,-0.010952
-0.181385,-0.095467,0.798912,0.991666,0.125204,0.030387
-0.483009,-0.075293,0.166528,0.891903,0.240480,0.382986
0.321735,-0.533797,0.635033,0.843182,0.447717,0.297648
0.115070,-0.165537,0.232842,0.356976,-0.899762,-0.250992
-0.241463,0.496196,0.522353,-0.000753,-0.642558,0.766237
-0.541775,-0.863021,0.462884,-0.090347,-0.382466,0.919542
-0.952641,0.115283,0.552598,0.959618,0.003071,-0.281290
0.234079,-0.183981,0.358790,0.406179,0.089261,-0.909424
-0.057125,-0.187381,0.967488,0.375251,0.285598,-0.881828
-0.738181,-0.561372,0.609531,-0.426702,-0.872360,0.238565
0.498113,0.349607,0.560073,0.152915,-0.745186,0.649088
-0.307618,0.226655,0.331998,0.522219,-0.112662,0.845337
0.400033,0.395805,0.575309,0.252409,-0.696018,0.672197
0.778807,-0.127876,0.608721,0.692691,0.149230,-0.705627
-0.044236,-0.271239,0.930939,0.903312,-0.373810,-0.210461
-0.666365,0.335283,0.373185,-0.139802,0.797963,0.586269
-0.546374,-0.063535,0.191294,0.768143,0.166807,0.618169
-0.562705,0.023904,0.722736,-0.042264,0.987491,-0.151903
0.045388,0.692143,0.298450,-0.664433,0.070837,-0.743983
0.280287,0.228684,0.800668,-0.221868,-0.691263,0.687699
0.453138,0.168999,0.450306,0.296550,0.429020,-0.853229
-0.059420,-0.281565,0.920793,0.565913,-0.726313,-0.390143
-0.705514,-0.444984,0.627813,-0.009437,0.407459,0.913175
0.364986,0.325375,0.555540,0.042322,-0.605471,0.794741
-0.564102,0.431974,0.553409,0.362252,0.862631,0.353045
-0.210029,0.457758,0.247657,0.117783,-0.176582,0.977213
-0.086836,-0.522516,0.755938,0.033678,0.840043,0.541474
-0.091761,-0.087768,0.906758,-0.685796,-0.727057,0.032757
-0.336097,-0.633292,0.602402,0.909878,0.401303,0.105250
-0.245075,-0.303053,0.891223,-0.721031,0.105955,-0.684754
0.240972,0.732669,0.293272,-0.165273,0.035607,-0.985605
-0.253776,0.023248,0.800833,-0.624477,0.597156,-0.503422
0.109078,-0.301082,-0.959218,-0.641173,0.180213,-0.745936
