0.127631,0.440882,0.775460,-0.658654,0.356336,-0.662722
-0.318302,0.266575,0.539292,0.952899,-0.207871,0.220846
-0.545596,-0.126025,0.605753,0.400336,0.570455,0.717156
-0.585876,-0.493721,0.433158,0.805052,-0.083658,-0.587276
0.074922,-0.126025,0.603169,-0.160985,-0.570653,0.805257
-0.430486,0.279717,0.653519,-0.571094,0.592396,-0.568259
0.585753,-0.223913,0.658484,-0.055253,0.227717,0.972159
0.928765,-0.079866,-0.910891,0.407275,-0.075451,-0.910184
0.324760,0.729344,0.500849,0.595837,0.358634,0.718582
-0.819506,-0.196143,0.320084,0.730931,-0.542759,0.413706
0.528106,-0.045578,0.802224,0.729331,-0.134985,-0.670713
0.251881,0.134506,0.136812,0.733804,-0.169300,0.657928
-0.649371,0.018339,-0.078127,-0.381363,-0.314780,0.869181
0.469485,0.402778,0.551110,0.156827,-0.047306,0.986493
-0.059444,-0.321267,0.409105,-0.679599,0.664132,-0.311566
-0.690625,-0.595261,0.521128,-0.638647,0.385582,-0.665925
0.180220,0.287138,0.814865,0.086837,-0.246461,0.965254
-0.442003,-0.019927,0.704185,0.830798,0.289132,0.475581
0.093874,-0.867880,0.367052,-0.451400,0.653015,0.608120
-0.022882,-0.481212,0.722995,-0.604449,-0.776336,0.178729
-0.367540,-0.234406,0.760805,0.596812,0.140106,0.790054
-0.364858,0.529972,0.417237,0.513188,0.291740,-0.807171
-0.709577,-0.817318,0.553921,-0.667775,-0.021160,-0.744062
0.503427,0.493669,0.740513,0.533407,0.598268,-0.597957
0.264190,-0.223330,0.812864,-0.209591,0.977270,0.031865
0.500806,0.102974,0.734534,-0.000766,0.318490,0.947926
0.524268,0.434840,0.551097,-0.235093,-0.011053,-0.971910
0.301057,0.000105,0.021774,0.932613,-0.263564,0.246508
-0.157551,0.319572,0.717054,0.518566,-0.576769,0.631211
-0.491972,0.066193,-0.061142,0.208579,-0.280986,0.936772
0.108436,-0.638825,0.687604,0.510812,-0.691698,0.510515
-0.410255,0.802109,0.395425,0.794068,0.152254,-0.588452
0.200390,0.686152,0.565955,0.264923,0.598625,-0.755952
-0.573383,-0.308335,0.382822,0.207568,0.931372,-0.299101
-0.973675,-0.419947,0.360756,-0.522052,0.705328,0.479556
-0.601413,-0.363771,0.592643,-0.467094,0.695108,-0.546487
0.025379,0.149929,-0.973970,-0.378310,0.216067,0.900109
-0.127632,0.188829,0.791306,-0.505930,0.680454,-0.530111
-0.304714,0.594785,0.228910,-0.535873,-0.296991,-0.790340
-0.734864,0.027878,0.322465,-0.296981,-0.325996,-0.897513
-0.349868,-0.399333,0.519266,-0.618673,0.356169,-0.700277
0.415313,0.825958,0.201500,-0.103296,0.261528,0.959653
0.079978,-0.788701,0.482381,-0.117690,-0.718470,0.685529
-0.201364,-0.530392,0.362264,0.184342,0.084077,0.979259
0.080527,0.123747,0.915932,-0.547534,0.239282,0.801842
-0.627799,-0.577774,0.376577,-0.200640,0.820912,0.534647
-0.431950,0.892046,0.379427,-0.655905,0.459459,-0.598904
0.963315,-0.103026,-0.907863,0.478846,-0.194794,-0.856015
-0.793365,0.375804,0.273116,0.750563,0.310039,-0.583550
-0.158038,0.511951,0.553225,-0.497601,0.351149,0.793150
0.245910,-0.100057,0.452044,0.960847,-0.242863,0.133384
0.369732,-0.469076,0.663779,-0.657653,-0.480810,-0.579926
-0.551811,0.586572,0.563231,0.189008,-0.106849,0.976145
0.322507,-0.526896,0.681132,0.066520,-0.283529,0.956654
-0.000823,0.125921,0.812319,-0.518903,0.781064,0.347389
0.515128,0.038530,0.586424,-0.336193,0.422227,0.841842
-0.540843,0.206743,0.327785,-0.423533,0.067656,0.903351
0.221413,0.383751,0.723248,0.964773,0.029591,0.261415
-0.603364,-0.324660,0.600053,0.548047,-0.201239,0.811879
0.370342,0.034341,-0.952184,-0.144789,0.402645,0.903833
0.130434,-0.176056,-0.864911,0.998198,0.017752,0.057326
0.033363,0.473316,0.342149,0.362528,-0.027283,-0.931574
-0.350477,0.235467,0.642321,-0.051454,-0.651858,0.756594
0.395570,-0.342360,0.407015,0.523895,0.366888,0.768718
-0.148716,0.808310,0.584790,-0.732806,-0.633907,0.247299
0.101001,-0.124278,0.364227,0.887998,-0.430322,-0.162120
-0.645349,0.221529,0.403962,0.719816,0.633625,-0.283522
-0.206728,0.452223,0.249759,-0.163860,0.335692,0.927610
-0.191188,-0.688005,0.354917,0.907666,-0.274648,0.317350
0.085585,-0.180930,0.808950,0.880233,-0.101713,-0.463513
0.300752,0.011553,-0.951411,0.174267,-0.356780,-0.917790
-0.063526,-0.271398,-0.965610,-0.284625,0.083459,0.954999
0.259072,0.255448,0.717941,0.661847,0.713672,0.229414
-0.223972,-0.270550,0.752799,0.610159,0.788513,-0.077157
-0.526401,-0.497483,0.482799,0.843788,0.203613,0.496551
0.374547,0.351210,0.700436,0.703836,0.168035,-0.690202
-0.188691,0.898829,0.361909,0.051215,-0.596716,0.800817
0.739984,-0.117919,-0.922088,-0.226231,0.162901,0.960356
0.244508,-0.035719,0.918427,0.431680,0.889294,0.151028
0.095456,0.323495,0.815093,0.877187,-0.215471,0.429087
-0.053412,0.226934,0.261336,0.565608,0.408583,0.716343
0.231345,0.021357,0.033338,-0.638070,-0.760104,-0.122913
0.098381,0.672110,0.633544,0.801055,-0.051735,-0.596351
-0.457968,-0.149027,0.584803,0.655986,0.151192,0.739475
0.770268,0.059833,0.568488,0.189348,-0.443976,0.875804
-0.462905,-0.200274,0.607830,0.660416,0.311803,0.683103
-0.525427,-0.194286,0.510361,0.115559,0.220265,0.968571
-0.459127,-0.439398,0.458783,0.866161,-0.117728,-0.485701
-0.428292,0.102444,0.606830,-0.230989,0.960455,-0.155467
0.250174,-0.382373,0.708213,0.487731,-0.454424,0.745397
0.906401,-0.253484,0.685134,-0.667238,0.611843,0.424783
0.469425,-0.197201,0.799944,-0.544979,0.478761,0.688321
-0.566740,0.636600,0.378388,-0.322262,0.080346,-0.943235
0.047743,-0.782500,0.338983,0.317199,-0.333677,-0.887719
-0.202402,-0.202606,0.766808,-0.253824,0.708172,0.658837
-0.458396,-0.614976,0.105310,0.741197,-0.285933,-0.607346
-0.525852,0.277492,0.574429,-0.740171,0.587648,-0.326826
-0.697266,-0.871693,0.528373,-0.741632,-0.596557,0.306760
0.024587,-0.456040,0.335449,-0.291128,0.014108,-0.956580
0.688126,0.109385,0.576772,-0.183010,-0.364302,-0.913122
-0.326834,-0.711324,0.132340,0.009774,0.784603,0.619921
-0.280644,0.213791,0.056886,0.172141,0.901883,-0.396200
-0.626884,0.322541,0.424647,0.202658,0.882325,0.424773
0.909326,-0.173086,0.666388,-0.710117,0.490482,0.505135
-0.043174,0.207801,0.779678,-0.803603,0.271843,-0.529456
0.266018,-0.290635,0.729404,-0.069424,-0.907691,0.413856
-0.026112,-0.483438,0.820426,0.117617,-0.922202,0.368387
0.805307,-0.015263,0.655533,-0.339613,-0.145632,0.929222
-0.373877,0.080451,0.598964,-0.291839,0.572478,-0.766224
0.126413,-0.333245,0.659877,-0.151869,0.464051,0.872692
0.343347,0.022046,0.860959,0.303784,0.835500,0.457882
-0.515554,0.469448,0.288177,-0.648122,0.559632,0.516479
0.328173,0.192381,0.507625,-0.628593,0.623277,-0.465184
-0.116176,-0.059516,0.861732,0.171488,-0.133568,0.976090
0.213491,-0.047325,-0.317893,0.974776,-0.001727,0.223178
-0.064562,-0.447559,0.254991,-0.024604,0.110687,0.993551
0.563207,-0.029942,0.809596,-0.754582,0.016991,0.655986
0.281801,0.890985,0.325087,0.902739,-0.249382,0.350529
-0.060906,-0.219937,0.811129,-0.653356,-0.743677,0.141672
0.540355,-0.399967,0.719081,0.144309,-0.580332,-0.801492
0.159441,0.303515,0.172937,0.922101,0.364145,-0.130876
-0.260413,0.395305,0.212013,-0.597909,-0.532487,0.599134
-0.202584,0.333989,0.586563,0.493587,0.849904,-0.184484
0.214588,-0.671473,0.565271,0.457234,-0.172448,0.872467
0.283690,-0.493986,0.651315,0.890192,0.239806,0.387365
-0.484416,-0.569134,0.377020,-0.295710,0.419816,-0.858085
0.153956,-0.256664,0.263452,-0.145276,-0.645932,0.749444
0.133603,-0.129208,-0.809039,0.947735,0.210009,-0.240195
-0.526767,0.299698,0.422443,-0.004598,0.530843,0.847458
-0.035740,0.265038,-0.985547,0.248269,-0.053042,-0.967238
-0.056153,0.211935,0.791204,-0.456580,0.781336,-0.425499
0.081319,-0.408341,0.732875,-0.648832,0.625577,0.433209
0.240485,0.727067,0.513148,-0.132550,0.396477,0.908425
-0.212394,-0.088609,0.588653,-0.226454,0.972370,0.056697
-0.128606,0.272404,0.710417,-0.702727,0.710959,0.026683
-0.550714,-0.583072,0.489664,-0.333477,0.835635,0.436471
-0.260291,0.357942,0.056227,-0.250593,0.026693,0.967724
0.072484,-0.282473,-0.958162,-0.437544,-0.107584,0.892738
0.052497,0.288144,0.817766,0.781493,-0.028114,0.623280
0.190214,-0.027610,-0.071845,0.937837,0.220339,-0.268166
-0.455348,-0.161745,0.591617,0.540127,0.158627,0.826499
0.515858,0.336266,0.674115,0.191627,0.924756,-0.328793
0.495445,-0.436535,0.721107,-0.495253,0.647936,0.578708
-0.725968,-0.832689,0.525941,0.905255,0.295755,-0.305028
0.081075,-0.781811,0.290571,-0.376982,0.790483,0.482723
0.172724,-0.483861,0.667959,0.165039,-0.448778,-0.878271
-0.117394,-0.581643,0.695217,0.055720,0.632477,0.772573
0.059139,0.015211,0.909117,0.068323,0.973216,-0.219505
0.196308,-0.765275,0.312585,0.448479,-0.097005,0.888514
-0.064503,0.566750,0.446978,0.389816,0.078066,0.917578
0.384479,0.469182,0.642207,-0.138677,0.344324,0.928553
0.249687,-0.388257,0.711544,0.554260,-0.091192,0.827333
-0.177539,-0.604431,0.414615,-0.065998,-0.904286,0.421795
0.090156,0.537072,0.150542,-0.243929,0.895506,0.372248
-0.703360,-0.422862,0.393968,-0.484946,0.796298,0.361576
-0.254929,-0.095871,0.740867,-0.466545,-0.654638,-0.594798
-0.365528,0.095661,0.680258,0.070586,0.728595,0.681298
-0.508546,-0.493614,0.385925,-0.569615,0.215495,-0.793159
-0.171749,-0.100215,0.441050,-0.364472,0.410857,-0.835678
0.461198,-0.007791,-0.940176,-0.211892,0.207242,0.955067
0.964291,-0.036463,-0.909421,-0.444925,0.090282,0.891005
0.056396,0.574859,0.643031,0.849881,-0.370540,0.374703
-0.021054,0.743176,0.170707,-0.058522,0.705788,0.706001
-0.031778,-0.346918,0.629288,0.754677,-0.653248,0.061067
0.763017,-0.127403,0.603093,0.356358,0.811904,0.462407
-0.528778,0.031058,-0.066082,-0.128075,-0.152672,0.979943
0.336643,-0.204304,-0.933260,-0.074495,0.096969,-0.992496
0.145181,-0.087603,0.934742,0.901685,0.360770,-0.238347
0.718961,-0.016482,-0.928738,-0.233564,0.165804,0.958101
0.084426,0.470030,0.596709,0.678325,-0.637525,-0.365290
-0.852412,-0.256134,0.337247,-0.711099,0.007562,-0.703051
-0.052740,0.267529,0.262350,-0.127717,0.499065,0.857102
-0.501234,0.442842,0.528095,-0.003283,-0.488293,0.872673
0.545655,0.509144,0.745453,-0.596909,-0.665641,0.447909
-0.574601,-0.385870,0.584537,-0.742245,-0.160577,-0.650606
-0.213491,0.511262,0.230468,-0.110639,0.044119,0.992881
0.015934,-0.102389,0.625462,-0.639454,0.123811,0.758795
-0.158892,0.013516,0.693710,0.973601,-0.088481,-0.210408
0.143535,0.112672,0.741931,-0.531113,0.294440,0.794496
-0.776118,0.256984,0.272445,0.766411,0.265600,-0.584868
-0.347735,0.905085,0.312446,0.213106,0.919950,0.329055
-0.475153,-0.116434,0.586500,0.588000,0.101508,0.802466
-0.632248,-0.666860,0.541166,-0.745437,0.639462,-0.188179
0.552177,-0.063330,0.805822,-0.683626,0.035434,0.728972
-0.200513,0.221687,0.697902,0.914495,-0.036553,-0.402943
0.280765,-0.006943,0.616532,0.227455,0.060532,-0.971905
-0.606350,-0.086119,0.600763,0.677817,0.148197,0.720140
0.258767,0.419789,0.369965,0.260650,0.301737,-0.917070
0.271930,-0.036887,-0.615608,0.967423,-0.205927,0.147266
0.189483,-0.007312,0.957858,-0.142443,0.949540,0.279436
0.306785,-0.213206,0.865886,-0.553511,0.397201,-0.732022
0.121660,-0.678731,0.335651,0.169868,0.020469,0.985254
0.015996,0.457524,0.560027,-0.064378,0.493101,0.867587
0.228056,0.045843,0.889509,0.366615,-0.556493,0.745593
0.123001,0.151944,0.164247,0.745250,0.104064,-0.658615
0.363394,-0.049499,0.860060,0.927851,-0.371514,0.032713
-0.348832,-0.041338,-0.063954,0.204070,0.225610,0.952605
-0.106060,0.635435,0.549526,0.332435,0.684487,-0.648817
-0.203133,-0.667339,0.188618,-0.329488,0.921392,-0.206095
-0.541209,0.233717,0.596747,-0.261758,0.864102,-0.429896
-0.577161,0.401717,0.535568,-0.562432,0.378937,-0.734900
0.090033,0.181409,-0.973122,0.398869,-0.153889,-0.904003
-0.728467,-0.128994,0.624525,0.854650,-0.119485,0.505269
0.160050,0.211301,0.786771,-0.186555,0.492692,-0.849972
-0.578013,-0.094758,0.599724,-0.572961,-0.137350,-0.807992
-0.064503,-0.238857,0.858780,0.934329,0.203536,0.292578
0.401480,0.134189,0.721260,-0.422089,0.375992,0.824907
0.035617,-0.608882,0.465927,0.466413,0.222216,0.856200
-0.419395,-0.845939,0.541179,0.130967,0.731930,0.668674
0.138417,0.272459,0.265035,-0.586741,-0.275621,0.761425
-0.157918,0.227730,0.711760,-0.261717,0.756947,0.598778
-0.735108,-0.146960,0.327000,-0.695467,0.552080,0.459928
0.120014,0.214584,0.595101,0.751055,0.137033,-0.645863
0.608176,-0.069214,0.713267,0.635096,0.397008,-0.662599
-0.637854,0.571466,0.566651,0.840064,-0.296109,0.454546
-0.625179,0.566964,0.561382,-0.692818,0.349460,-0.630778
-0.202279,0.542108,0.319501,0.290347,0.224070,-0.930318
-0.542489,-0.807410,0.535074,0.084391,-0.316250,0.944915
0.697997,-0.143621,0.737105,-0.194759,0.394801,0.897887
-0.167301,0.180720,0.812332,0.781968,0.507807,0.361467
-0.194785,-0.025808,0.559761,0.254708,0.940689,-0.224114
-0.053168,0.201655,0.741691,0.284950,-0.121971,0.950750
0.056275,0.244899,-0.982989,-0.359242,0.143267,0.922182
0.381249,-0.034713,0.872701,0.796698,-0.394000,-0.458297
0.685688,-0.501723,0.649212,-0.772120,-0.387093,-0.503974
-0.015875,0.652446,0.442848,-0.157463,0.429398,0.889282
-0.558636,0.169751,0.509044,0.313928,0.366680,0.875783
0.245238,-0.382160,0.718017,0.167136,-0.621224,0.765602
0.080101,-0.789283,0.616241,0.064841,0.441838,0.894749
-0.065659,0.323813,0.669808,0.711243,0.478320,0.515115
0.258706,-0.799618,0.331395,-0.833449,0.280877,-0.475889
0.255904,-0.285071,0.787962,0.822338,0.373139,-0.429566
-0.751744,-0.339287,0.289722,0.947745,-0.216161,0.234636
0.122696,-0.156233,0.904418,0.828376,-0.553826,0.084083
-0.056824,0.301606,-0.988435,-0.264863,0.127991,0.955754
0.499588,-0.162965,0.590009,-0.460994,-0.431960,-0.775174
-0.492581,-0.398324,0.120522,-0.024610,-0.386794,0.921838
0.095396,0.345275,0.818285,0.380850,-0.724848,0.574063
0.503670,-0.287031,0.632277,-0.004334,-0.237819,0.971300
0.558453,-0.265993,0.651226,0.052486,-0.344004,0.937500
-0.094787,0.242143,-0.985611,-0.239382,0.104954,0.965236
-0.020749,-0.787430,0.473920,0.025058,-0.622236,0.782428
-0.845951,0.078649,0.310673,-0.131565,0.910779,0.391372
-0.169009,-0.161377,0.821338,-0.043340,0.955446,0.291967
0.478686,0.333775,0.669656,-0.233309,-0.153347,0.960235
-0.441882,0.211776,0.570907,-0.373785,-0.148761,-0.915508
-0.665580,-0.254225,0.511552,0.104056,-0.238451,-0.965564
0.126473,0.315386,0.616659,0.894359,0.408053,-0.183345
0.059322,-0.715300,0.735649,0.962013,-0.131434,-0.239281
0.007404,0.019662,0.874373,0.828660,0.093060,-0.551962
-0.662411,-0.596322,0.423063,-0.241620,0.470422,0.848718
-0.006186,0.442208,0.629237,-0.401090,0.596242,-0.695430
-0.221779,0.451906,0.416223,0.429966,0.875511,-0.220478
0.111667,0.348668,0.806784,-0.493143,0.440895,-0.749947
-0.178269,-0.448037,0.625475,0.799158,-0.391092,-0.456503
-0.804515,0.035243,0.546195,0.689797,0.169541,0.703872
0.456324,-0.191585,0.744363,-0.610034,0.787157,-0.090782
0.339202,-0.174729,0.861770,-0.130031,0.801729,0.583371
0.653271,-0.228894,0.624690,0.847837,-0.339342,0.407454
-0.634076,0.670784,0.391397,-0.463163,-0.115032,-0.878776
0.383566,-0.213261,0.862454,0.418351,0.491531,0.763793
-0.113007,0.734167,0.092833,-0.694236,0.567143,0.443153
-0.288505,0.206529,0.463039,-0.169576,0.507693,0.844684
-0.331100,-0.688856,0.235915,0.948885,-0.276367,-0.152443
-0.041224,0.083576,0.846190,0.148321,0.933359,0.326867
-0.214650,-0.112459,-0.064714,-0.200133,-0.976877,0.075223
-0.539136,-0.234988,0.418617,0.969129,0.156570,-0.190462
-0.150118,-0.218187,0.827735,0.299995,0.783583,0.544059
0.081442,0.292967,0.343289,-0.712148,-0.329304,0.620004
0.946863,-0.237003,0.657648,-0.694106,0.416344,0.587261
0.187837,0.578835,0.449498,0.395060,0.275083,0.876503
-0.121842,0.705126,0.094277,-0.553829,0.676286,0.485706
-0.690441,-0.987547,0.570629,0.720771,0.501809,0.478201
-0.880868,0.037310,0.321604,-0.084671,0.751601,0.654161
0.172908,0.135408,0.363606,0.906307,-0.295461,-0.302176
-0.283629,-0.583179,0.305936,0.126753,-0.435751,0.891098
0.013558,0.017860,0.910815,-0.330279,0.933369,-0.140494
0.194357,-0.069638,-0.398832,-0.775542,0.631186,-0.011790
0.064623,0.369072,0.548564,-0.185831,-0.682586,0.706784
0.415618,0.320051,0.087349,-0.322124,-0.946685,-0.004869
-0.489046,0.820766,0.385355,0.910350,-0.232613,-0.342277
-0.154567,0.330861,0.756042,-0.111942,0.818672,-0.563246
0.552542,0.403573,0.547652,-0.298246,0.258689,-0.918765
0.347308,-0.537441,0.676407,0.957492,0.286783,-0.031047
-0.437250,-0.155121,0.513388,-0.408104,-0.152797,-0.900058
-0.410804,0.914093,0.189720,0.977706,-0.142673,-0.154063
-0.807135,-0.640682,0.565866,0.795375,0.422540,0.434556
-0.641449,-0.379404,0.412157,0.771081,-0.617572,0.155045
-0.016178,0.814831,0.598293,0.188862,0.620643,-0.761008
-0.113312,0.965075,0.629642,-0.366928,0.803794,-0.468272
0.666433,-0.359478,0.635596,0.464525,0.650494,0.600895
-0.331282,-0.579204,0.663791,0.856313,-0.488635,0.167224
0.340727,-0.382480,0.407192,0.650946,0.407888,0.640231
-0.305932,0.542002,0.318045,0.375886,0.052826,-0.925159
-0.721763,-0.452381,0.413272,-0.302227,-0.067067,0.950874
-0.051340,-0.186601,0.481013,0.006837,0.308360,0.951245
-0.157246,0.399650,0.739031,0.850817,-0.452699,0.266785
0.069010,-0.701999,0.328431,0.326218,-0.328161,-0.886505
0.179792,0.108166,0.385760,0.895279,-0.260312,-0.361541
-0.826940,-0.490700,0.380466,-0.388883,-0.920510,0.037837
0.500442,-0.283641,0.693000,-0.360741,-0.779907,-0.511479
0.022090,0.403518,0.849306,0.622018,-0.637393,0.454779
-0.567899,-0.391806,0.561787,0.967796,0.057509,-0.245079
-0.162609,-0.544651,0.047474,-0.627568,0.691589,-0.357580
0.409707,0.579841,0.523104,-0.413140,0.801110,0.433057
0.420736,-0.183741,0.796968,-0.680032,0.499825,0.536407
0.546083,0.563570,0.490335,-0.504645,-0.832994,0.226838
0.412145,0.359798,0.706908,-0.509087,-0.333601,0.793436
-0.612747,-0.336373,0.611871,-0.398193,-0.271476,-0.876210
0.006673,-0.014946,0.860959,0.586661,-0.216426,0.780378
0.101124,0.210081,0.337057,0.695665,0.011984,-0.718266
-0.359861,-0.822141,0.526688,0.181215,0.438036,0.880503
0.166083,0.422651,0.755244,0.524518,-0.376144,0.763804
0.439931,-0.507180,0.649187,-0.447908,0.888809,-0.096938
-0.412998,0.328742,0.673215,-0.544165,0.354554,-0.760379
0.667164,-0.376490,0.623296,-0.527357,-0.704075,-0.475576
0.274976,-0.102709,-0.648325,0.434006,-0.873841,0.219181
0.287346,-0.166992,0.135988,0.270205,-0.668935,0.692471
-0.135005,-0.162434,0.751077,-0.866142,0.321673,-0.382525
0.128790,0.635966,0.437313,0.412317,0.327144,0.850277
0.076688,0.155282,0.858780,0.271194,-0.828946,0.489186
-0.326285,-0.492023,0.426192,0.035430,0.200833,0.978985
-0.874532,0.038902,0.333295,-0.004635,0.506734,0.862090
-0.752475,0.255499,0.310432,0.800251,0.464774,0.378924
0.472958,0.584981,0.500975,0.547789,-0.344340,0.762468
-0.577649,0.353649,0.413513,-0.021984,0.715626,0.698138
0.058224,-0.545392,0.681474,0.014680,0.789169,0.614001
0.313305,0.060150,0.726035,-0.182459,0.814607,0.550567
0.346393,0.370715,0.674545,0.196526,0.909871,-0.365393
0.012706,-0.040807,0.856906,0.179322,-0.610644,0.771335
0.243838,0.639728,0.350269,-0.318842,0.310334,0.895563
-0.620549,-0.967514,0.547322,-0.657752,0.744738,0.112814
0.805246,-0.121732,0.578482,0.488220,0.024366,0.872380
-0.386491,-0.806615,0.450879,0.342354,0.509874,0.789191
0.364430,0.540517,0.474869,0.111826,0.965461,-0.235331
0.116358,0.007791,0.936591,-0.879799,0.466678,-0.090362
0.167971,-0.043350,0.480911,0.968631,-0.217085,-0.120950
-0.045428,-0.672479,0.321110,-0.291539,0.090016,0.952314
0.768135,0.462134,0.534301,0.545250,0.123065,0.829191
0.431888,0.143463,0.725275,0.575044,-0.183756,-0.797219
-0.035252,-0.084637,0.735332,0.004903,0.355342,0.934723
0.094117,-0.122583,-0.910663,0.896053,-0.441408,-0.047411
0.325432,-0.235626,0.250076,-0.646437,0.615442,-0.450944
0.448523,0.739893,0.513211,-0.000748,0.188000,0.982169
-0.190091,0.838784,0.597190,0.285540,-0.928224,0.238468
0.160050,-0.276062,0.249544,-0.117400,0.737569,-0.664988
0.154382,0.397000,0.167376,0.310119,-0.408155,0.858624
-0.014047,0.002120,0.926724,-0.585269,-0.765694,-0.266783
0.028000,-0.759181,0.598736,0.002563,0.412086,0.911141
0.719204,0.110288,0.673507,-0.433944,-0.294045,0.851605
-0.703055,-0.079229,-0.069096,-0.610821,-0.194029,0.767626
-0.283021,0.951826,0.377451,-0.629856,-0.531135,-0.566725
-0.382651,0.089143,0.317361,-0.016977,-0.154473,0.987851
-0.456201,0.076421,0.589603,0.821276,0.253232,-0.511253
-0.628043,-0.430017,0.120421,-0.582920,0.516959,-0.626863
-0.194906,-0.227144,0.772762,0.616010,0.543515,0.570196
0.617439,-0.045206,0.731355,0.333196,0.784852,0.522482
-0.318240,-0.132226,0.751786,-0.601108,-0.332607,-0.726665
0.085403,-0.350470,0.483128,-0.412494,0.216435,-0.884876
-0.404649,-0.668769,0.421518,0.820556,-0.189138,0.539365
0.111300,0.255499,0.747682,-0.242256,0.237392,-0.940722
-0.116725,0.011608,-0.080876,0.028539,0.540980,0.840551
-0.645531,-0.595474,0.381479,-0.748100,-0.223482,-0.624822
-0.776667,-0.183528,0.638496,0.718282,0.000137,0.695752
0.298253,-0.012507,-0.947092,-0.131069,0.408785,0.903170
-0.845282,-0.860194,0.574796,0.573082,0.103638,0.812919
-0.499711,-0.707456,0.531413,0.187428,0.239378,0.952664
-0.469243,-0.166410,0.268671,0.021987,0.384190,0.922992
-0.114043,-0.820074,0.472045,0.149679,-0.287532,0.946003
-0.189848,0.452543,0.035618,0.901535,0.178653,-0.394104
-0.126778,0.773016,0.578647,0.395020,-0.373168,-0.839467
0.388866,-0.014522,0.278424,0.135813,-0.648074,0.749369
-0.681973,-0.812657,0.465255,0.396138,0.561211,0.726716
-0.150544,-0.667604,0.600028,0.066152,0.311274,0.948015
0.645287,-0.392126,0.636812,0.307493,0.327907,0.893267
-0.747357,-0.095713,0.617229,0.376410,0.315960,0.870910
-0.304531,-0.318566,0.579546,-0.380683,0.194977,0.903916
0.801712,-0.094707,0.490399,-0.599226,0.577384,-0.554577
0.158648,-0.094865,-0.917731,0.384668,-0.917889,-0.097521
-0.286737,-0.069266,0.718561,0.085588,0.711704,0.697246
0.062977,-0.031850,0.869788,-0.531098,-0.791548,0.302304
-0.072850,0.740792,0.176319,-0.042930,0.717699,0.695029
-0.116602,0.211511,0.801907,0.440048,-0.756851,0.483254
0.182535,-0.214532,0.927319,-0.477281,0.860154,-0.179826
-0.024284,0.159681,0.781578,0.739155,-0.334293,0.584721
-0.584899,0.382215,0.510323,-0.486690,0.816938,-0.309427
0.628591,-0.055593,-0.927877,0.201659,-0.137221,-0.969796
0.225984,0.331974,0.709910,0.913747,0.351537,0.203686
0.691843,-0.481849,0.639624,0.837978,0.347950,0.420384
-0.733280,-0.079759,0.317918,0.327406,-0.172906,-0.928929
0.282167,-0.219090,0.865418,0.194715,0.182402,-0.963751
0.349257,0.616302,0.520216,0.080659,0.804413,0.588569
-0.534018,-0.182522,0.546828,-0.689908,-0.703512,-0.170581
-0.026538,0.041286,0.619560,0.348917,0.004816,0.937141
-0.753816,0.058562,0.517480,0.798935,0.555351,0.230841
0.091251,0.164822,0.859338,0.016654,-0.580394,0.814166
-0.561684,0.182415,0.506992,0.219218,0.642363,0.734379
0.561682,0.421804,0.721956,-0.516973,0.853807,-0.061255
0.136346,-0.159837,-0.813282,0.990926,0.066737,-0.116670
0.018616,-0.248289,0.583802,-0.079727,0.372297,0.924683
0.332562,0.731466,0.510906,0.282894,0.545574,0.788873
0.633953,-0.344427,0.632733,-0.649348,-0.496790,-0.575801
-0.097345,-0.449467,0.255244,-0.084484,-0.020285,0.996218
-0.205997,0.571573,0.508436,0.492159,0.246209,-0.834962
0.060601,0.541099,0.639509,0.491771,-0.535234,0.686794
0.358397,0.140335,0.396704,0.868656,-0.247576,-0.429118
0.147496,-0.352482,-0.951601,0.358122,-0.029507,-0.933208
-0.167424,0.052096,0.648528,0.478404,0.697719,0.533214
-0.109960,0.280885,-0.990145,0.282802,-0.156911,-0.946257
0.370160,0.698343,0.511070,0.105361,0.270094,0.957052
-0.325919,-0.057129,-0.064030,0.070221,0.421983,0.903880
0.335790,0.710532,0.513110,-0.622226,-0.381866,-0.683384
-0.443100,0.337751,0.676319,-0.565542,0.549012,-0.615425
-0.074373,-0.040435,0.733635,-0.254774,0.332250,0.908130
0.171872,-0.161694,0.681753,0.099173,-0.836082,0.539566
-0.303191,-0.738408,0.502812,-0.731387,-0.425822,-0.532680
0.054020,-0.131644,0.298019,-0.573127,-0.016166,-0.819307
0.116725,0.261910,0.634392,0.933135,-0.357332,-0.039660
0.522440,0.068049,0.869876,-0.333181,-0.763714,0.552930
0.141343,-0.788701,0.337779,-0.628791,-0.214461,-0.747415
0.578318,-0.230324,0.646350,0.351395,-0.732986,-0.582454
-0.097591,-0.331388,0.760349,-0.602790,-0.650180,0.462504
0.441941,0.426148,0.714445,-0.632352,-0.222286,0.742105
-0.429389,0.261700,0.420555,0.441069,0.872244,0.211302
0.377167,-0.423709,0.802262,-0.752363,-0.406683,-0.518226
-0.498614,-0.324395,0.591186,0.440114,0.250057,0.862422
-0.391975,0.078701,0.686553,-0.448107,-0.394311,-0.802321
0.383199,0.030844,0.863733,-0.273681,0.687599,0.672537
0.282349,-0.040066,0.711405,0.060338,-0.650824,0.756828
-0.668323,-0.830781,0.474642,-0.715220,-0.277514,-0.641441
-0.656865,-0.613440,0.458808,0.320591,-0.757288,0.568979
-0.395204,-0.828025,0.452196,0.224005,0.435770,0.871738
-0.215442,-0.747365,0.649731,0.969098,0.092457,0.228692
0.413911,0.068897,0.665261,0.019337,-0.334198,0.942305
-0.608604,0.186339,0.517391,0.123050,-0.318544,0.939887
0.098381,0.525783,0.646121,0.491500,-0.619369,0.612217
-0.090277,0.741960,0.561167,0.468253,0.500388,-0.728252
-0.114348,0.874239,0.596342,-0.085281,-0.542554,0.835680
0.108741,0.955164,0.415666,-0.784187,-0.015723,-0.620325
0.640413,-0.125019,0.727568,0.832196,0.166879,-0.528774
-0.264069,-0.565317,0.648604,-0.715365,0.131559,-0.686254
-0.422931,0.640203,0.532439,0.322681,0.237410,-0.916250
0.963742,-0.195399,0.696243,0.748541,-0.330955,-0.574592
-0.546998,0.649690,0.191822,-0.355266,-0.266693,-0.895914
-0.051035,0.268432,-0.986345,-0.259218,0.066152,0.963551
0.197769,-0.177062,0.284504,-0.455576,0.394370,-0.798074
0.289966,-0.298902,0.841225,0.888431,0.177761,-0.423192
-0.149813,-0.693200,0.617280,-0.687538,0.116437,-0.716753
0.458701,0.210505,0.514605,-0.452128,0.874717,-0.174499
-0.064990,0.610738,0.208897,0.091725,0.741077,0.665125
0.021846,0.618951,0.202906,-0.193792,0.568821,0.799304
-0.057678,-0.088027,-0.972843,-0.261319,0.190811,0.946205
-0.701714,-0.186601,0.614214,0.793148,-0.067744,0.605249
0.194052,-0.383538,-0.949131,0.370012,-0.005275,-0.929012
-0.050791,0.891939,0.589401,-0.788979,0.604364,-0.110706
0.169252,0.610049,0.637635,0.281444,-0.710327,0.645155
-0.409220,-0.041548,0.716320,0.312890,0.943728,0.107135
-0.142317,0.269489,-0.992210,0.321602,-0.106294,-0.940890
0.343468,-0.586094,0.700043,0.736138,0.490435,0.466450
-0.757351,-0.137262,0.310419,0.934458,-0.329372,-0.135288
0.151885,0.117123,0.814650,0.111185,0.424150,0.898740
-0.644192,0.001273,-0.073200,-0.357108,-0.195601,0.913353
0.288808,-0.273834,0.829774,0.796667,0.594079,0.111316
0.092043,-0.823678,0.470436,-0.004396,-0.567133,0.823614
-0.316658,-0.119666,0.681335,0.822919,0.488510,-0.290107
0.287772,-0.388361,0.702196,0.366075,-0.379234,0.849806
0.283324,-0.258359,0.424723,0.241181,0.674455,0.697812
-0.049084,-0.117123,0.579901,-0.427489,-0.689823,0.584293
-0.344201,-0.065821,0.725908,0.223686,0.743941,0.629695
-0.568265,-0.595316,0.103853,-0.693452,-0.701269,0.165367
-0.069497,0.680058,0.564004,0.356103,0.541512,-0.761548
-0.274976,-0.504848,0.108793,-0.711586,-0.024666,-0.702166
0.221108,-0.003178,0.117761,0.897437,0.414853,0.150012
-0.340422,0.291644,0.051616,0.858564,-0.065989,-0.508442
-0.790865,-0.027610,0.529513,-0.632159,-0.470070,-0.615962
-0.150421,-0.002279,-0.076886,-0.137709,0.671363,0.728222
0.236768,-0.156819,-0.803440,0.985038,0.013434,-0.171815
-0.333964,-0.546928,0.633202,0.576707,-0.814034,-0.068979
-0.348709,-0.019872,0.719055,0.041199,0.845989,0.531606
0.693671,0.693200,0.712076,0.976990,-0.035870,0.210249
0.236708,-0.105834,-0.303010,0.494539,0.868667,0.029128
-0.148045,-0.317026,0.711240,-0.732367,-0.027989,0.680334
0.582279,-0.465686,0.732989,0.253756,0.967147,-0.015283
0.304165,0.266999,0.656698,-0.372110,-0.346378,0.861137
0.824746,-0.234671,0.658712,-0.482419,0.537029,0.692005
0.656196,0.137634,0.568615,0.029670,0.328978,0.943871
0.670333,-0.451110,0.638091,0.837348,0.345169,0.423919
-0.228543,0.573216,0.430385,-0.528199,-0.078177,0.845514
0.595685,-0.047645,0.757043,-0.207215,-0.252537,0.945139
0.477894,0.392922,0.717637,0.581323,0.274335,-0.766031
0.361018,0.409192,0.696420,0.944986,-0.171525,-0.278533
0.113007,-0.376172,0.811255,0.886690,-0.458717,0.057953
-0.138235,0.235519,0.451892,0.071987,-0.050947,-0.996104
0.323421,0.753618,0.506080,-0.180290,-0.670035,-0.720103
-0.160781,-0.735280,0.331205,0.703143,0.324846,0.632506
-0.691051,-0.441464,0.415362,-0.764891,0.035113,-0.643202
-0.495263,0.599608,0.351408,-0.090003,-0.244099,0.965565
0.625423,-0.475807,0.739157,0.161109,0.861877,0.480845
0.294720,-0.176958,0.641840,0.008704,0.800188,0.599686
-0.269066,0.225928,0.639408,-0.635840,-0.063730,-0.769186
-0.512325,0.582121,0.363910,0.135342,-0.404517,0.904460
0.365527,-0.434788,0.798564,0.057414,0.843353,0.534284
-0.102709,-0.126504,0.322681,-0.019259,-0.275052,0.961236
-0.812619,-0.888546,0.580268,0.548877,0.035438,0.835152
-0.609763,0.024485,0.579014,0.246674,0.178915,0.952440
0.198318,0.651651,0.559596,-0.123006,-0.655243,0.745337
-0.364066,0.044200,0.683868,-0.431760,-0.075997,-0.898781
-0.021480,0.759288,0.575594,-0.170297,0.449993,-0.876644
0.778313,-0.125074,0.582827,0.159884,-0.283120,0.945664
-0.125560,0.594943,0.383506,-0.594368,-0.331782,0.732562
-0.856921,-0.860352,0.585930,0.874461,0.088281,0.476995
-0.225679,0.643014,0.204514,0.157272,0.702765,0.693820
-0.044271,0.825059,0.573947,0.928927,0.155702,0.335935
0.196855,0.606391,0.592808,-0.858714,0.282888,0.427299
-0.178636,-0.162383,0.525903,0.633127,0.267793,-0.726249
-0.602389,-0.642164,0.532325,-0.621746,-0.742764,-0.248462
0.031656,0.050188,-0.971513,-0.226742,0.102088,0.968590
-0.213796,0.408131,0.708264,-0.365716,0.526174,-0.767719
-0.270528,0.529124,0.549210,0.278025,0.773911,-0.569002
0.726821,0.685728,0.384810,-0.320008,0.946896,0.031353
0.119892,-0.012293,0.907103,0.455270,0.349498,-0.818890
0.623228,0.029573,0.767708,0.359232,-0.727526,0.584515
0.043600,-0.669671,0.319818,-0.329324,-0.039410,0.943394
0.017398,0.326992,0.763807,0.005022,-0.609794,0.792544
-0.136590,-0.420850,0.633670,0.932782,-0.358895,-0.033351
-0.726396,0.355716,0.413639,0.755230,0.581292,-0.302866
0.146522,0.916160,0.414868,-0.567666,-0.326016,-0.755955
-0.013681,-0.117440,-0.969208,-0.307890,0.172639,0.935628
0.241583,-0.147332,0.137660,0.957825,0.184681,-0.220143
-0.108803,0.285494,0.750456,-0.021068,-0.405924,0.913664
0.268821,-0.217288,-0.939150,-0.044307,-0.144648,0.988491
-0.325065,-0.715778,0.127198,0.009774,0.784603,0.619921
-0.614211,-0.349832,0.140130,-0.696990,0.590578,0.406721
-0.065721,-0.739307,0.323681,-0.129274,0.292608,0.947454
0.259011,-0.110974,-0.223920,0.982289,-0.116727,-0.146574
-0.620792,-0.300229,0.433678,-0.335464,0.328359,0.882974
-0.266933,0.176693,0.449359,-0.387076,0.357945,0.849734
-0.134457,0.735600,0.586069,-0.545709,0.768464,-0.334164
0.188202,-0.322486,0.779551,-0.297849,-0.260446,0.918397
0.701409,-0.124488,0.732989,-0.306620,0.192490,0.932165
0.643338,-0.018071,0.641865,-0.304174,0.237173,0.922620
-0.106182,0.325242,-0.991159,-0.291851,0.105789,0.950595
0.218914,-0.088344,-0.312940,0.632005,0.756514,0.168096
-0.572165,-0.016059,-0.069248,-0.461209,-0.200422,0.864359
0.440785,0.221157,0.648249,0.336880,-0.714915,-0.612705
0.185338,-0.310085,0.318729,0.673066,-0.719921,0.169400
-0.024892,0.443531,0.556024,0.904823,-0.318212,-0.282906
-0.204656,-0.096136,0.835841,-0.522644,0.439704,-0.730413
-0.336461,-0.059727,0.482495,-0.648128,0.643186,-0.407728
-0.566497,0.200859,0.621143,0.339357,0.909431,0.240358
0.020200,-0.031268,-0.077595,-0.033420,0.250804,0.967461
-0.429938,0.092322,0.676585,0.889848,-0.125768,0.438580
0.165655,-0.024430,0.562674,-0.453125,-0.749156,-0.483159
0.596355,-0.313743,0.630668,-0.486238,-0.635093,-0.600191
0.080711,-0.641846,0.720474,0.729744,-0.229083,-0.644201
0.039334,0.674866,0.392917,0.387008,-0.721057,0.574720
0.267420,-0.349250,0.776841,0.140776,0.516173,0.844836
-0.106488,0.709684,0.572123,-0.065467,-0.777672,0.625253
-0.728406,0.154859,0.317462,-0.302540,0.290437,0.907808
-0.243290,0.392284,0.740779,0.278284,-0.425453,0.861132
0.128362,0.007474,0.435071,-0.515723,-0.851204,-0.097367
0.500745,0.408978,0.656343,-0.610567,0.208901,-0.763916
0.742786,-0.076686,0.513870,0.448947,-0.785732,0.425527
0.278388,0.003447,-0.160941,0.268142,0.955962,0.119321
-0.028122,-0.141661,-0.070895,-0.097889,0.229029,0.968485
0.293745,-0.275584,0.860022,-0.315640,-0.856392,0.408613
-0.223303,0.500293,0.436313,-0.738805,-0.321025,0.592546
-0.545291,-0.772537,0.456110,-0.482791,-0.137705,-0.864841
-0.670272,-0.260322,0.614037,-0.739402,-0.277278,-0.613516
0.025989,0.087021,0.165185,-0.393558,0.871017,0.294009
0.636268,0.407759,0.539874,0.352453,-0.275730,0.894287
0.515310,-0.281836,0.630592,-0.035145,-0.399824,0.915918
0.041162,-0.471780,0.799070,0.652015,-0.751120,-0.103419
-0.144268,0.138058,0.467460,-0.584294,0.474435,0.658417
0.529265,0.208014,0.723818,0.442970,0.185098,0.877221
0.271746,-0.469872,0.678320,-0.065246,0.627141,0.776168
0.597636,-0.434575,0.656001,-0.035558,0.209602,0.977140
0.111482,-0.130689,-0.841098,0.999819,0.018786,-0.002849
0.224887,-0.042399,-0.265048,-0.560421,-0.805660,0.191939
-0.208617,-0.564577,0.067449,-0.676446,0.660828,-0.325156
-0.568630,0.661245,0.375627,0.330181,0.605557,0.724073
0.134213,-0.068101,-0.958428,0.428382,-0.433566,-0.792786
-0.712379,-0.593300,0.384481,0.556057,-0.089979,-0.826259
-0.179428,-0.776141,0.628160,-0.013406,0.956298,0.292088
1.000000,0.018232,0.580027,-0.475760,0.317345,0.820332
0.225618,-0.681594,0.322440,-0.505552,0.157944,-0.848216
-0.151580,0.518152,0.517847,0.950398,0.254027,-0.179485
-0.607873,0.507128,0.545916,-0.031256,-0.736939,0.675236
-0.042382,0.690764,0.566424,-0.199965,-0.523292,0.828359
-0.360348,0.761410,0.368394,0.109337,-0.397793,0.910937
-0.195942,0.025756,0.508753,-0.273320,-0.136692,-0.952162
0.438652,-0.061263,0.775700,0.828198,-0.469352,0.306262
-0.711769,-0.634585,0.516251,0.893417,-0.197728,0.403372
-0.550470,-0.649370,0.522014,0.026842,0.402326,0.915103
0.213978,-0.763953,0.311205,0.320692,-0.175146,0.930849
0.181804,0.187716,0.806227,0.017543,-0.302332,0.953041
-0.107888,-0.325983,0.387951,-0.527372,0.780807,-0.334991
0.013498,0.183634,-0.980063,0.325939,-0.233594,-0.916077
-0.032450,-0.006995,0.889712,0.757894,-0.625354,-0.185823
-0.749429,-0.469131,0.403151,0.780434,-0.598918,0.179496
0.045610,0.699932,0.438491,-0.856625,0.488216,-0.166850
-0.028061,0.352853,0.578786,-0.265598,0.761391,0.591389
-0.156395,-0.283693,0.100509,-0.340267,0.804709,-0.486478
0.384540,-0.136094,0.707073,0.706906,0.212052,-0.674772
-0.785563,-0.198737,0.342859,0.147236,-0.101283,0.983902
-0.396606,-0.286449,0.139712,-0.111457,-0.275294,0.954877
-0.353523,-0.104139,0.671619,0.961638,0.147151,0.231516
0.333110,0.731625,0.515263,-0.303397,-0.577394,-0.758001
-0.106608,0.086439,0.693330,0.921802,-0.028939,-0.386579
0.231771,0.468865,0.661866,-0.020499,0.562884,0.826282
0.386002,-0.393449,0.788329,-0.711719,-0.346551,-0.611031
0.126229,-0.168370,0.826645,-0.195169,0.053845,0.979290
0.162792,-0.042609,-0.779564,0.728051,-0.681730,0.072007
-0.126534,-0.546398,0.490285,0.460636,-0.012147,0.887506
-0.350539,0.372197,0.755257,0.793748,-0.439426,0.420559
0.413850,0.022683,0.627071,-0.575956,0.471776,0.667609
0.086439,0.676930,0.633518,0.877003,-0.051450,-0.477722
0.082416,-0.199057,-0.917249,0.980235,0.084704,-0.178786
-0.830353,-0.470771,0.382733,-0.463904,-0.877152,-0.124089
-0.175893,-0.002331,0.117900,0.062177,-0.098809,0.993162
-0.490753,0.307011,0.418592,0.218192,0.758401,0.614182
0.101611,-0.468015,0.779893,-0.509958,-0.769395,-0.384675
0.136407,-0.267846,0.861744,0.750121,0.407354,-0.520943
-0.236770,0.368755,0.736358,0.441413,-0.630634,0.638322
-0.008561,-0.804124,0.463001,0.165130,-0.345950,0.923607
-0.776057,-0.442842,0.411587,0.154299,-0.720238,0.676350
-0.334085,0.406436,0.589401,0.681126,0.623909,0.383151
-0.523476,0.300442,0.535213,0.611059,0.552174,0.567195
-0.665823,-0.598282,0.434729,0.705880,-0.010551,-0.708253
0.232563,-0.481795,0.683842,0.058001,0.983387,0.172005
-0.657293,0.351052,0.285466,-0.052057,0.376390,0.924997
0.246641,-0.046371,0.936262,-0.267905,0.870039,-0.413835
-0.152190,-0.423286,0.631998,-0.840520,0.503134,0.200957
0.067853,-0.522869,0.690556,0.243214,0.855002,0.458059
0.268151,-0.077589,0.742729,-0.047186,-0.108994,0.992922
0.805856,-0.092640,0.595556,0.525713,0.201825,0.826373
0.276194,0.247283,0.708226,0.726433,0.662004,0.184513
0.545412,0.485346,0.747163,0.186966,0.691133,-0.698125
0.031778,-0.035667,-0.077215,0.024870,0.263908,0.964227
0.185887,0.591977,0.600028,-0.591490,-0.786360,-0.178260
-0.479237,-0.634533,0.110490,-0.061052,0.910073,0.409926
0.203253,-0.057395,-0.069907,0.639918,0.704078,-0.307863
-0.306542,-0.704700,0.240880,0.884844,-0.395017,-0.247006
-0.357910,-0.051407,0.571199,0.668755,-0.051800,0.741676
-0.310380,-0.592611,0.301109,0.024830,-0.757098,0.652830
-0.077299,0.858871,0.077557,0.425126,-0.573176,-0.700526
-0.304044,-0.529014,0.424558,0.492928,0.161883,0.854878
0.099845,0.271663,0.813307,-0.687090,-0.108188,0.718472
0.253283,-0.011818,-0.245567,0.507233,0.858112,-0.079739
0.216477,-0.072394,0.932158,0.206344,-0.967734,0.144616
0.032996,0.246119,-0.981760,-0.320054,0.080673,0.943958
-0.317205,0.405320,0.764706,-0.572667,0.304764,-0.761033
0.266444,-0.379511,0.779842,0.732484,0.396157,-0.553648
-0.339325,-0.119986,-0.063371,-0.203657,0.886223,-0.416092
-0.702019,-0.733744,0.550236,0.620891,0.027134,0.783427
-0.385455,0.809742,0.392435,0.954045,-0.028685,-0.298287
-0.467231,0.205151,0.578596,0.786876,0.311398,0.532783
-0.039457,-0.057395,0.859844,-0.425451,0.496668,-0.756514
-0.489534,-0.273358,0.553731,-0.741089,0.369977,0.560271
-0.054873,-0.783720,0.475262,0.027608,-0.349882,0.936387
0.005271,0.687585,0.571249,-0.127948,0.348613,-0.928492
-0.359069,-0.005035,0.703020,-0.086438,0.849828,0.519924
-0.286798,0.982830,0.381036,0.139026,0.698290,0.702184
-0.157490,-0.569771,0.665083,0.202168,-0.932570,0.299067
0.102526,-0.519317,0.676103,0.292725,0.601019,0.743699
0.561987,-0.201813,0.510374,-0.469482,0.761611,-0.446694
-0.195759,0.611055,0.057000,0.823829,-0.429718,-0.369659
-0.558331,-0.356616,0.575873,-0.143295,0.986157,-0.083435
-0.680814,-0.698977,0.551781,-0.704469,0.042260,-0.708476
-0.018495,0.221846,0.774092,0.893582,0.180308,0.411097
0.041041,-0.428639,0.815245,-0.637021,0.719995,-0.275339
-0.612870,-0.333297,0.390979,-0.188040,0.896170,0.401897
-0.738887,0.024857,0.324429,-0.314322,-0.198603,-0.928309
0.373511,0.292439,-0.029222,0.795942,0.234824,-0.557973
-0.019774,-0.200170,0.392917,0.718627,-0.633780,0.286180
0.240121,0.023903,0.290495,0.411893,-0.790295,0.453627
-0.319156,0.918172,0.390143,-0.124151,0.194379,0.973038
0.165840,-0.077323,0.934995,0.582306,-0.547094,0.601338
0.585143,-0.032064,0.719562,0.430146,0.885643,0.174959
0.235794,0.010175,0.950385,0.880733,-0.341408,0.328254
-0.559551,-0.333562,0.539672,0.876853,-0.479980,0.027360
-0.669785,-0.698075,0.537493,0.777019,-0.615924,0.129923
0.512020,0.535535,0.676382,0.434001,0.279700,-0.856394
0.110874,-0.025226,0.583460,-0.060750,0.217300,0.974213
0.150665,-0.491282,0.603410,0.144239,-0.652297,0.744112
0.119222,-0.601462,0.329153,-0.516383,0.097839,-0.850750
-0.648030,0.324818,0.291382,-0.061990,0.698832,0.712594
-0.765455,-0.658275,0.388015,0.537152,-0.421032,-0.730890
-0.410622,0.459113,0.535846,-0.394370,0.054778,-0.917318
0.088936,-0.358048,0.485598,0.505632,-0.206213,0.837742
0.289600,0.000584,0.228872,0.700693,0.712538,-0.036304
-0.265836,0.854578,0.355753,0.421744,-0.274988,0.864010
-0.119650,-0.764958,0.325835,0.422893,0.013232,0.906083
-0.090521,0.229848,0.708644,0.031889,0.371805,0.927763
-0.753206,-0.715830,0.559254,0.344125,-0.172514,0.922939
0.024223,-0.367533,0.343150,0.976130,-0.211260,0.050401
0.075286,-0.017330,0.947016,0.777720,-0.626683,0.049185
-0.692574,-0.277385,0.617660,0.795190,-0.074417,0.601776
-0.747173,-0.326142,0.606120,0.851127,0.519844,-0.073112
0.257547,0.381632,0.675508,-0.565345,0.646861,0.511816
-0.253284,-0.673275,0.186464,0.243985,-0.904345,0.350186
0.217086,-0.051407,-0.277094,0.555924,0.681258,-0.476274
-0.241705,0.469820,0.057025,0.721652,0.218444,-0.656887
-0.106913,0.201283,0.613112,0.010307,0.440894,0.897500
0.135736,0.158886,0.850294,-0.048644,-0.761559,0.646267
0.352488,0.446394,0.646350,-0.062700,0.240262,0.968681
0.195575,-0.366578,0.717270,0.661909,-0.001352,0.749583
-0.304409,0.327257,0.744832,0.318233,-0.638399,0.700838
-0.705311,0.007791,-0.080521,0.537938,0.060500,-0.840810
0.013070,0.150301,0.324695,-0.637496,0.373541,0.673844
0.411778,-0.392284,0.781945,-0.726623,-0.194175,-0.659026
-0.763140,-0.837936,0.566461,0.677246,0.219552,0.702236
-0.163279,-0.144841,0.806974,-0.549944,0.676301,-0.490080
0.282898,-0.318776,0.413715,0.323523,0.657922,0.680052
-0.471741,-0.498278,0.106830,0.384253,0.225750,0.895202
-0.799336,-0.159203,0.643183,0.604830,0.282918,0.744405
0.023795,0.131540,0.159383,0.242357,-0.908994,-0.339107
0.208617,-0.002489,0.395463,-0.400020,0.154174,0.903446
0.202523,-0.498065,0.668731,-0.435494,0.557263,0.706967
0.256086,-0.103502,-0.225718,0.985509,-0.053521,-0.160959
-0.275220,-0.397424,0.409776,-0.881147,-0.199204,-0.428833
0.074373,0.507235,0.611668,-0.569457,0.723035,-0.391075
0.186679,-0.666809,0.328520,0.322550,0.131592,0.937361
-0.104232,0.276379,0.587019,-0.097164,0.650738,0.753060
0.463393,0.723302,0.507321,-0.046303,0.182984,0.982025
-0.530423,0.234885,0.625678,0.373988,-0.731699,-0.569868
0.583438,0.020668,0.760386,-0.250555,-0.244565,0.936702
-0.272722,-0.566220,0.664817,0.539538,-0.839574,-0.063353
0.629140,-0.383751,0.637394,0.228187,0.262878,0.937457
-0.141648,0.308813,0.737245,-0.196204,-0.413208,0.889249
-0.648700,-0.404366,0.413310,0.746415,-0.519301,0.416162
-0.057860,-0.076528,0.869762,-0.711939,0.453274,-0.536363
-0.163219,0.711007,0.368432,-0.555214,-0.528952,-0.641831
0.817495,-0.144362,0.659548,-0.321162,0.005780,0.947007
0.187653,-0.060523,-0.423532,0.974544,-0.154687,-0.162286
-0.333110,-0.602257,0.303643,0.194029,-0.684975,0.702255
-0.859968,-0.888653,0.581585,0.769493,0.016696,0.638437
-0.565583,0.002861,0.612758,-0.142746,0.829668,-0.539699
-0.622254,-0.912502,0.547791,-0.589394,-0.202713,-0.781998
-0.488010,-0.539669,0.497923,0.794840,-0.068758,-0.602912
0.138966,0.483014,0.593454,-0.655669,0.610450,0.444353
0.134823,-0.399967,0.743426,0.702508,0.709724,-0.052668
-0.223607,-0.772961,0.348521,0.820050,-0.049094,0.570182
0.138051,-0.531505,0.338311,0.277079,-0.195569,0.940734
0.127998,0.122318,-0.963470,0.301085,-0.142234,-0.942930
0.001066,0.084000,0.573770,-0.152617,0.500676,-0.852075
0.341579,0.197097,0.534909,0.217691,0.940053,-0.262508
-0.385820,-0.990247,0.468865,-0.502243,-0.832090,-0.235326
-0.637183,-0.576713,0.481950,-0.514514,0.767633,0.382119
-0.424759,-0.114419,-0.078267,-0.182581,0.249756,-0.950940
0.465159,-0.125973,0.576709,-0.282180,-0.325479,-0.902462
0.290333,0.007739,0.025548,0.936500,-0.163217,0.310368
-0.415314,0.866715,0.184450,0.977706,-0.142673,-0.154063
0.073276,-0.104776,0.812978,0.885919,0.404317,0.227323
-0.559672,0.361176,0.525067,0.877699,0.438754,-0.192715
-0.271746,0.513488,0.534377,-0.618193,0.381372,0.687309
0.667528,-0.191902,0.724160,0.665762,0.644042,-0.376789
0.322140,0.526103,0.652189,0.183990,0.368519,0.911231
-0.249384,-0.634905,0.233685,0.968170,-0.142993,-0.205428
0.584717,-0.312841,0.636786,0.798018,0.389721,0.459658
-0.192286,0.985373,0.227441,0.763949,0.457905,-0.454648
0.022272,-0.003340,0.911068,-0.146188,0.988561,0.037086
0.557356,0.350418,0.657889,-0.280365,0.575776,0.768035
0.174552,0.627484,0.556100,0.104870,-0.565734,0.817892
0.207092,0.079497,0.900491,-0.385222,0.729502,-0.565182
-0.541817,-0.266520,0.579027,-0.687576,-0.468048,0.555131
-0.767771,0.031058,-0.097925,-0.366579,-0.595569,0.714785
-0.254258,0.538450,0.423507,0.459422,0.354961,-0.814208
-0.358094,0.911920,0.304555,-0.038779,0.917221,0.396486
0.229699,-0.598495,0.590237,-0.134164,0.501699,-0.854574
0.490936,0.405482,0.697814,-0.255251,-0.757946,0.600304
-0.221352,-0.121946,0.687820,-0.552445,0.304881,0.775791
-0.519515,0.157191,0.593948,0.921629,0.344715,-0.178246
-0.101855,0.409137,0.560876,0.783092,0.621795,-0.011704
0.295451,-0.001590,0.319299,0.946812,-0.290007,0.139439
0.224399,-0.014360,-0.327101,-0.465691,-0.630668,-0.620798
-0.086621,0.147490,0.157838,0.894868,-0.070231,0.440771
0.112154,-0.318194,0.748569,0.862933,-0.493455,0.108849
0.528229,-0.177647,0.516644,-0.469482,0.761611,-0.446694
0.105390,-0.177220,-0.715433,0.965717,-0.209062,-0.153898
-0.382102,-0.166623,0.130681,0.613407,0.082870,-0.785407
-0.478444,-0.481054,0.377299,-0.445516,0.165663,-0.879813
-0.411048,0.005882,0.702918,0.171913,0.236612,0.956274
0.234088,0.802853,0.518189,-0.037718,0.539660,0.841038
-0.629871,-0.837354,0.475516,-0.346198,-0.435988,-0.830699
0.589652,-0.476496,0.749835,0.187607,0.839072,0.510647
0.345663,-0.379669,0.847545,0.785482,0.215645,-0.580100
0.577405,0.363243,0.545270,-0.395493,0.265469,-0.879268
0.347004,-0.538980,0.633138,0.840127,0.230724,-0.490870
0.047866,-0.626530,0.722792,-0.759684,0.371086,0.534017
-0.524207,0.211724,0.608299,0.806539,-0.252615,0.534490
-0.172724,-0.546876,0.628287,-0.745244,0.629994,-0.218448
-0.712318,0.020086,0.532439,0.763044,0.338730,0.550478
0.213429,-0.556522,0.455211,0.341005,0.490561,0.801913
0.323116,-0.054904,-0.294890,-0.713037,0.646244,0.271931
-0.588617,-0.373999,0.355044,0.353047,0.531160,-0.770213
-0.005453,0.410994,0.780754,0.194952,-0.770774,0.606549
-0.895371,0.004824,0.328634,0.075538,0.404401,0.911457
-0.032571,-0.590493,0.651327,0.963577,0.017898,0.266830
-0.744066,-0.571680,0.422113,0.261320,-0.530833,-0.806181
0.037811,-0.424505,0.493565,-0.097933,0.447764,0.888773
0.005697,-0.747947,0.475820,0.150301,-0.484694,0.861674
0.036227,0.337485,0.157230,0.957164,-0.100497,0.271548
0.352183,-0.050877,0.579166,-0.198383,-0.501953,-0.841836
0.169312,0.912343,0.394602,-0.879344,0.229938,-0.416992
0.901283,-0.058084,-0.914830,0.407275,-0.075451,-0.910184
-0.316535,-0.645874,0.650441,0.689091,-0.069144,0.721368
-0.486975,0.215645,0.513845,0.149846,-0.516607,0.843008
-0.425794,-0.374794,0.131783,0.270048,-0.441876,0.855464
0.217878,0.533944,0.619864,-0.180312,-0.364741,0.913483
0.371073,-0.518628,0.636052,0.843088,0.212126,-0.494171
0.099783,0.308496,0.281223,-0.711024,-0.047178,0.701583
-0.037934,0.299805,0.749481,0.343541,0.603281,-0.719744
0.035009,-0.652498,0.676230,0.651378,0.690001,-0.315604
0.110813,0.530661,0.586247,0.737153,-0.502209,-0.452097
0.408489,-0.361228,0.753965,0.508229,0.857184,0.083300
-0.322507,0.239811,0.048462,0.374241,0.927202,0.015483
-0.117030,0.200646,0.745529,-0.135863,-0.109861,0.984618
0.030194,0.624570,0.569463,0.011286,-0.116426,0.993135
-0.789707,-0.424877,0.431677,-0.137228,0.682090,-0.718277
0.146217,-0.111136,0.934260,0.841280,-0.182004,-0.509041
-0.719630,0.136838,0.649807,0.909975,-0.064525,0.409613
0.449254,0.042026,0.735370,0.075685,0.616296,0.783870
-0.349014,-0.847051,0.540216,0.105361,0.642497,0.759010
-0.508121,-0.011660,0.575860,-0.267710,-0.659403,0.702509
-0.559489,-0.421274,0.094417,0.280732,-0.458416,0.843234
-0.232930,-0.521701,0.600002,0.743942,-0.342572,-0.573754
0.056883,0.194658,0.213571,0.856540,0.240525,0.456604
0.052191,0.562458,0.572807,0.761492,0.614877,-0.205075
-0.218367,0.200966,0.696940,0.965142,0.260996,-0.019553
0.014534,0.193280,0.234027,0.833485,0.390517,0.390894
-0.069620,-0.356405,0.651745,0.011112,0.987333,0.158275
0.177600,-0.634746,0.677167,0.687268,0.051893,0.724548
0.220316,-0.081457,0.982799,-0.644315,-0.571140,-0.508584
-0.112033,-0.138161,0.807139,0.889555,0.065452,0.452115
-0.651625,-0.942180,0.469613,0.869345,-0.354741,0.344091
0.217574,-0.084847,0.934754,0.316155,-0.925507,0.208525
-0.143963,0.644867,0.119142,0.891371,-0.101823,-0.441690
0.885744,-0.180455,-0.907319,0.441873,-0.268944,-0.855814
-0.432194,-0.119032,0.468448,-0.561021,0.298187,-0.772230
0.017032,-0.324605,0.486434,-0.292268,-0.102820,-0.950793
0.367539,-0.374105,0.645970,0.872962,0.040122,0.486135
-0.123914,-0.142030,0.830648,0.236803,0.171547,0.956293
-0.250297,-0.208914,0.237194,-0.122892,0.369613,0.921023
0.040736,0.725107,0.440277,-0.661572,0.635050,0.398791
0.131105,-0.498647,0.258334,0.073366,-0.071961,0.994705
-0.020080,-0.019662,0.935933,0.477762,0.873295,-0.095388
-0.367478,-0.524722,0.429713,0.224090,0.207792,0.952159
-0.704337,-0.287190,0.617951,0.746093,-0.109891,0.656711
-0.255111,-0.805237,0.646945,0.287060,0.946642,0.146512
