0.155091,-0.468081,0.810684,-0.699553,0.676495,0.230176
-0.456153,-0.594830,0.605816,0.003910,0.907437,0.420170
0.816217,0.439527,0.510011,-0.195028,0.523800,0.829215
0.476250,-0.496705,0.743408,0.096971,0.905817,0.412423
-0.207313,0.213943,0.621072,-0.072183,-0.969316,0.234979
0.215466,-0.102003,0.913780,0.818668,-0.132068,-0.558875
0.158079,-0.818848,0.684900,0.677821,-0.508525,0.531000
-0.652851,-0.220138,0.395458,0.183862,0.357427,-0.915664
0.260907,0.148361,0.835610,0.529060,0.749349,-0.398211
0.654223,0.182255,0.723169,-0.379076,-0.902181,-0.205840
0.199162,-0.144443,0.885011,-0.161573,0.979099,0.123529
0.184876,-0.728985,0.702212,0.128274,0.864208,0.486509
0.233546,-0.488376,0.794611,0.204640,0.417728,0.885227
0.407565,-0.328301,0.847038,-0.409815,0.783831,0.466541
-0.608056,-0.758322,0.265030,0.867388,-0.245374,-0.432931
-0.338068,-0.795420,0.510785,-0.170407,0.521846,0.835846
-0.444692,0.092107,-0.061231,-0.196836,-0.319291,-0.926989
-0.187617,-0.125716,0.771599,-0.259010,0.955747,-0.139503
-0.051536,0.333286,0.574148,0.946766,0.057289,-0.316784
-0.918318,-0.786022,0.421890,0.535155,-0.688603,-0.489321
0.550185,0.181472,0.760368,-0.216157,-0.961478,-0.169811
-0.320797,-0.406486,0.702550,0.982654,-0.002061,0.185435
-0.563260,-0.427564,0.393868,-0.487771,0.128116,0.863519
0.090521,0.212945,0.576062,0.559679,0.380728,0.736074
-0.324671,0.427636,0.200864,-0.343104,-0.121256,-0.931438
0.406274,0.565991,0.608391,0.777166,0.321310,-0.541085
0.119980,0.714173,0.186959,-0.559524,0.133328,-0.818020
0.233464,-0.036850,0.730572,0.799001,-0.130543,0.586989
0.934302,-0.060491,0.484254,0.708758,0.457868,0.536675
-0.294968,0.093958,0.779087,-0.634946,0.770794,-0.052157
0.229912,0.963186,0.331799,-0.228787,-0.951590,0.205265
0.951736,0.143163,0.600552,0.546866,-0.618423,0.564350
-0.662135,-0.427990,0.380877,-0.403896,0.552495,0.729121
0.357360,0.447076,0.596752,0.366580,0.752875,-0.546624
-0.490215,0.079147,0.178612,0.602384,0.606631,-0.518780
0.226119,-0.673513,0.676653,-0.739127,0.668399,-0.083269
0.498368,-0.271336,0.461468,0.127134,0.394760,0.909946
-0.141772,-0.239791,0.765758,-0.902778,0.151903,0.402390
-0.222649,0.071315,0.775216,0.832370,0.295926,0.468602
-0.770451,0.010432,0.601804,0.957604,0.105314,0.268148
-0.573428,-0.385765,0.668532,-0.474072,-0.685148,-0.553017
-0.466967,0.543989,0.286620,0.865531,0.490890,-0.099416
0.365351,0.748141,0.534894,0.029241,-0.916273,0.399485
-0.423139,-0.370953,0.629095,-0.455415,-0.451573,-0.767254
0.600713,0.627300,0.367267,0.542221,-0.412292,-0.732129
-0.269703,0.079931,0.785083,0.798780,-0.067445,0.597831
-0.400461,-0.363122,0.704393,0.628765,-0.023832,0.777230
-0.082609,-0.120946,0.801324,-0.386233,-0.278842,-0.879245
0.378829,0.120020,0.760297,0.312624,-0.413096,0.855347
0.584973,0.040766,0.671276,0.702550,-0.436298,-0.562198
-0.303281,0.003667,-0.941506,0.062909,0.671353,0.738463
-0.171880,0.014776,0.700762,0.485719,0.351200,0.800460
-0.626217,0.280665,0.719833,-0.546851,0.361005,0.755400
-0.123288,-0.382632,0.662142,0.443969,0.344677,-0.827097
0.054361,-0.321464,-0.291166,0.885552,-0.439912,-0.149247
-0.669640,-0.356498,0.645956,-0.356281,0.858312,0.369274
-0.514427,0.508670,0.205692,0.261223,-0.090995,0.960980
-0.069049,0.120163,0.795005,-0.256881,-0.966389,0.010232
0.695792,0.164240,0.681832,-0.773988,0.160499,0.612522
-0.219582,-0.689179,-0.086481,0.023479,-0.514018,0.857458
0.682717,0.068110,0.504901,-0.469061,0.333093,-0.817943
0.505954,0.397018,0.380342,0.131117,-0.149942,0.979962
-0.681587,-0.537081,0.549236,-0.137818,-0.920999,-0.364372
0.604748,0.270553,0.539820,0.739468,0.393044,-0.546538
-0.502080,0.142735,0.666097,0.233127,-0.708985,0.665577
0.490700,0.129421,0.660537,0.982035,-0.188620,-0.005488
-0.377213,0.328941,-0.988121,-0.360412,-0.509874,0.781109
0.014891,-0.265140,0.833147,-0.359341,-0.864045,0.352562
0.609024,-0.137607,0.622761,0.091208,0.239250,-0.966665
0.080271,-0.089827,0.889881,0.717815,-0.677958,0.158473
-0.304493,0.083491,0.412854,-0.804352,-0.082555,-0.588389
-0.558336,-0.246697,0.507547,0.868077,0.475628,0.142200
0.279230,-0.168654,0.939649,-0.300497,-0.928870,0.216569
0.826872,-0.177270,0.647645,0.763407,0.532012,-0.366295
-0.303362,0.845410,0.564803,-0.127375,-0.573481,0.809256
0.574642,-0.200270,0.602325,-0.037532,-0.518633,0.854173
-0.620081,-0.366040,0.676399,-0.525047,-0.699532,-0.484747
0.042174,-0.608003,0.750206,0.554844,0.745042,0.370217
0.335406,-0.291915,0.814878,0.756884,-0.268276,-0.595949
0.175754,-0.131414,0.848812,0.536063,0.467393,-0.702980
0.292628,-0.292412,0.811993,0.186575,0.959520,0.210977
0.800802,0.389683,0.520820,-0.083420,0.029147,0.996088
-0.097622,-0.657350,0.611445,0.460312,-0.044894,-0.886622
0.501272,-0.261509,0.775568,0.781663,-0.046344,0.621977
-0.117478,-0.216078,0.841817,-0.212129,-0.942616,-0.257830
-0.480608,0.058852,0.561045,-0.050274,-0.109635,0.992700
-0.466566,0.112045,-0.989810,-0.477972,-0.247541,0.842773
-0.883048,-0.509524,0.617596,-0.549428,0.218046,0.806588
0.649464,0.582868,0.574317,-0.168179,-0.541719,0.823563
-0.138142,-0.805888,0.667110,0.900490,0.169213,-0.400605
0.147021,0.872538,0.339413,-0.100332,-0.691630,0.715249
0.687481,-0.052159,0.628419,0.527575,-0.839262,0.131545
-0.454215,-0.665822,0.597061,0.333343,0.452534,-0.827100
0.391180,0.328159,0.489222,-0.454013,0.890977,0.005723
0.058396,0.939545,0.356542,0.070757,-0.779905,0.621885
-0.272609,-0.297610,-0.055911,0.045063,-0.020538,0.998773
-0.240406,0.671664,0.558145,-0.103294,0.251494,0.962331
0.694742,0.606011,0.577160,-0.078219,-0.424351,0.902113
-0.132087,0.247410,0.657258,0.903405,0.379774,0.199078
0.419913,-0.581727,0.761029,0.944815,-0.105687,-0.310089
0.115138,-0.402285,0.852161,-0.464933,0.715738,0.521111
0.173978,0.101862,0.713035,-0.158616,-0.945674,0.283799
0.053553,-0.115391,-0.613148,0.050084,0.997803,-0.043368
-0.666251,-0.394807,0.679932,-0.078002,-0.991946,-0.099792
0.499173,0.256311,0.639707,0.829363,-0.126195,-0.544273
0.041688,0.550397,0.434627,0.805910,-0.527427,0.268942
-0.713872,-0.307437,0.612079,0.945049,0.319818,0.067819
-0.152105,0.492007,0.519229,0.482872,0.370800,0.793311
0.447922,0.453413,0.322848,-0.250890,0.458259,-0.852674
-0.121030,-0.574392,0.803027,0.188164,0.874933,0.446191
0.136688,-0.080072,-0.524001,-0.642846,0.756291,0.121544
0.623635,0.177485,0.753499,0.215596,-0.898307,0.382835
-0.238307,0.254388,0.423579,0.920081,-0.090513,0.381127
-0.654627,0.420017,0.689109,-0.433305,0.770739,0.467127
0.036523,-0.559724,0.652726,-0.326782,-0.645878,0.689968
0.595708,0.164099,0.719819,0.649745,-0.013358,-0.760035
-0.283506,0.376010,-0.077093,-0.409324,-0.398498,-0.820764
0.710241,0.687827,0.559905,0.118155,-0.992545,-0.029899
-0.537431,-0.861858,0.344537,0.822209,-0.481058,-0.304230
-0.305461,0.698082,0.546280,0.033298,-0.102898,0.994134
0.192947,-0.073236,0.898157,0.718082,0.373370,-0.587327
-0.782880,-0.447715,0.254798,-0.306365,0.316223,-0.897855
0.509102,-0.344323,0.661030,-0.669103,-0.655276,-0.350591
-0.428790,-0.378787,0.712346,-0.693012,0.071643,-0.717357
-0.359700,-0.638124,0.588490,-0.713936,0.697319,-0.063571
0.188105,-0.058639,0.893681,0.773796,0.224716,-0.592235
-0.577626,-0.127426,0.429110,0.112702,-0.385940,0.915614
-0.655758,-0.056573,0.325283,-0.399237,-0.621369,0.674174
0.676017,0.225051,0.696033,-0.459861,0.869866,-0.178495
0.427984,0.679780,0.659679,0.164374,-0.955672,0.244279
-0.318454,0.513086,0.631487,0.641152,-0.677014,0.361354
-0.849310,0.241571,0.570953,0.870689,0.469985,0.144965
-0.650752,-0.088476,0.583648,-0.135767,-0.622118,0.771062
-0.440495,-0.790081,0.603944,0.979707,-0.185585,-0.075712
0.322168,0.353723,0.552150,0.403415,0.824498,-0.396811
-0.025384,0.044112,0.780086,0.991313,-0.131047,-0.011227
0.116833,0.940899,0.193869,0.106413,-0.602351,0.791107
-0.094878,-0.155054,0.813077,0.755878,0.481512,0.443615
0.201743,0.013994,0.918917,0.981820,0.090556,-0.166821
0.801930,0.711327,0.394417,-0.579770,0.015364,0.814635
0.244684,-0.174208,0.794414,0.757849,0.244324,-0.604955
-0.780781,-0.509380,0.618089,-0.577371,-0.227055,0.784276
-0.106662,-0.474562,0.759059,-0.314731,-0.811057,-0.493083
0.082611,0.035711,0.805617,0.405552,0.340591,-0.848248
0.497801,0.301954,0.541566,0.481200,0.850974,0.210449
0.654627,-0.201765,0.270251,-0.112077,-0.571466,0.812936
0.370112,-0.087478,0.861408,0.612186,-0.757251,0.227595
-0.364784,-0.440381,0.673978,0.965080,0.152646,0.212885
0.735262,-0.092176,0.627983,0.952548,0.296223,0.070027
-0.366479,-0.010645,0.433051,0.690621,0.454272,0.562742
0.849066,0.136255,0.530405,-0.086763,0.883568,0.460195
-0.367528,0.790509,0.554964,-0.070949,-0.543946,0.836116
-0.481820,-0.599672,0.319949,0.262565,0.034642,-0.964292
-0.569879,-0.689463,0.578427,0.807788,0.006156,-0.589441
-0.851731,-0.692171,0.403959,0.419512,-0.310573,-0.852968
-0.164939,0.200769,0.288239,0.438455,0.782262,0.442519
-0.029904,0.117671,0.689967,0.312308,-0.159014,0.936578
0.630251,0.358422,0.361356,0.851789,-0.172872,0.494541
-0.297549,0.058639,0.697469,0.791491,0.429095,0.435224
0.306269,-0.141025,0.797159,0.012591,0.625372,0.780225
0.493040,0.287571,0.573022,0.903879,-0.243352,0.351827
0.594821,-0.307937,-0.959480,-0.077260,0.292978,0.952993
-0.562856,0.246769,-0.079500,0.018871,0.838985,0.543828
-0.534283,-0.395094,0.535837,0.136489,0.573816,-0.807531
0.107633,-0.096877,0.929107,0.642353,0.723542,-0.252725
0.213609,0.261368,0.839255,0.799721,0.598540,0.046857
0.760608,0.296543,0.443903,-0.020812,0.462974,0.886127
0.090440,-0.720440,0.665576,-0.136997,-0.403334,0.904739
0.166392,-0.193505,0.594655,-0.275647,-0.168104,0.946446
0.061465,-0.671449,0.751177,0.527629,0.564678,0.634623
-0.162596,0.614840,0.162849,0.899421,-0.273411,-0.341010
0.044595,0.927298,0.209590,0.022854,-0.156366,0.987435
-0.094393,-0.122513,0.352883,0.413001,0.894429,-0.171546
0.235886,-0.101718,0.857862,0.384922,-0.865195,-0.321362
0.990157,0.103287,0.462664,0.518619,-0.045949,-0.853770
0.519999,0.540856,0.369505,-0.445030,0.278601,0.851076
0.605634,0.056931,0.710671,0.915472,0.149843,0.373442
0.505068,-0.150069,0.831810,0.628968,0.763326,-0.147419
-0.186568,-0.493074,0.334333,-0.410304,0.872974,0.263754
0.020138,0.154057,-0.925518,-0.187549,0.514842,0.836518
-0.185277,-0.185886,0.844237,-0.560185,0.817590,-0.133194
-0.175028,0.783388,0.442284,0.927242,0.195762,-0.319218
0.077688,0.753480,0.320807,0.127346,-0.717658,0.684653
-0.146938,-0.329085,0.681213,0.678332,0.734044,0.032337
0.086082,0.698723,0.322806,0.352006,0.759957,-0.546404
-0.307964,0.341689,-0.969641,-0.648607,-0.303365,0.698054
0.509666,-0.309501,0.801972,0.954229,0.287903,-0.080987
-0.181725,-0.483034,0.775920,-0.032253,0.890482,0.453874
-0.020219,-0.253177,0.831036,0.277295,-0.083418,0.957157
-0.182210,-0.642112,0.620158,-0.737448,0.136305,0.661507
-0.632513,0.088904,0.495809,0.569096,0.321104,-0.756982
0.280440,-0.553885,0.746842,-0.480405,0.831870,-0.277854
-0.238630,0.702852,0.549757,0.051484,0.054583,0.997181
-0.322491,-0.919535,0.527927,-0.012697,0.529132,0.848444
-0.264136,0.078151,0.776399,0.544667,0.470109,0.694503
0.055007,0.284083,0.796497,0.611996,-0.549705,0.568582
-0.772308,-0.593833,0.047508,-0.591039,-0.133579,0.795506
0.175673,0.748354,0.502607,0.087294,-0.460222,0.883502
0.892817,-0.147862,0.475063,0.860201,-0.219386,-0.460353
-0.365996,-0.282870,0.621593,-0.116518,0.399669,0.909224
0.346625,0.140743,0.632445,0.945716,-0.312519,0.089184
-0.521127,0.120376,0.668095,-0.385087,0.824440,-0.414737
-0.029660,-0.921315,0.674429,0.093905,0.994682,0.042309
-0.591833,0.421156,0.689854,-0.562517,0.637819,0.526081
-0.813552,-0.445010,0.611502,-0.592090,0.431420,0.680666
0.389322,0.769574,0.328393,-0.469675,-0.773296,-0.425932
-0.044269,-0.082637,0.809079,-0.618849,0.750968,0.230375
-0.534847,0.452772,0.584338,-0.632424,-0.383021,-0.673301
0.547523,-0.001246,0.434529,-0.372785,0.456114,0.808079
0.270191,0.061560,0.805139,0.748825,-0.637934,-0.179725
0.248640,0.327377,0.570531,-0.618043,0.653565,0.436893
-0.229912,-0.366040,0.738538,-0.798780,-0.163492,-0.578983
-0.185762,-0.933563,0.422594,0.740188,-0.038849,-0.671277
-0.313048,-0.373375,0.602607,0.007515,-0.950619,0.310269
0.187297,-0.013920,0.862394,0.654267,0.697799,0.291569
-0.327979,0.228185,0.196966,0.264095,0.274458,0.924622
0.619758,-0.241784,0.693612,0.996899,-0.010108,0.078046
0.825823,0.248479,0.703774,0.755807,0.638245,0.146281
0.558095,-0.395664,0.767532,0.101379,-0.994516,0.025680
0.724202,0.278172,0.670769,-0.630167,0.202989,0.749457
0.422093,0.451418,0.554922,0.711491,0.700744,0.052328
0.049033,-0.180760,-0.482213,0.981563,-0.182918,-0.055451
-0.015618,-0.630647,0.757131,0.693857,0.527816,0.489870
-0.227087,0.051305,0.665857,-0.792451,0.273127,0.545366
0.060093,-0.544984,0.820677,-0.735929,0.633706,0.238381
-0.035878,0.013994,0.869839,-0.595291,0.563629,-0.572670
0.042738,0.372736,0.559567,0.825488,0.046496,0.562501
-0.069534,-0.319258,0.625942,0.942861,0.035998,-0.331236
0.196578,0.102290,0.309829,0.983221,-0.175128,0.051052
0.363819,-0.151564,0.744041,0.923156,0.375347,0.083056
-0.489003,-0.465873,0.315867,0.657986,0.251864,-0.709661
0.802901,-0.155695,0.642972,-0.692895,-0.665500,0.277500
0.441062,-0.239291,0.803534,-0.477763,0.366733,0.798279
0.762303,-0.079929,0.647490,-0.717150,0.313737,0.622307
-0.311675,0.082993,0.757018,-0.417989,-0.860290,0.291868
-0.438315,-0.573610,0.613162,-0.239789,0.631923,0.737004
0.419590,0.709973,0.279104,0.039823,0.189261,0.981119
-0.820978,-0.553957,0.629179,-0.367375,-0.458960,0.808945
0.011987,0.287786,0.436584,-0.231676,0.387419,0.892319
0.211914,-0.401074,0.746265,-0.096022,0.994878,-0.031575
-0.540739,-0.216363,0.584887,-0.083169,0.706248,0.703063
0.690708,0.691317,0.381778,-0.473975,-0.446136,0.759151
0.002785,0.291558,0.594795,0.849533,0.509965,0.135015
0.214498,0.240504,0.806926,0.041113,0.988394,0.146243
0.357924,0.535088,0.526872,-0.547631,0.649166,0.527905
0.421124,-0.285078,0.735723,0.377680,0.705136,0.600117
0.234676,-0.566204,0.789178,-0.290179,0.625885,0.723923
0.675047,-0.358065,0.778299,-0.817143,0.574960,0.041222
-0.467937,-0.625308,0.568800,-0.572045,-0.401926,-0.714996
-0.424029,-0.297754,0.626167,-0.020803,0.388067,0.921397
-0.607893,-0.282229,0.305494,0.557486,0.069362,-0.827284
-0.945197,-0.573397,0.253644,0.886169,0.107841,-0.450638
0.183826,0.803467,0.533782,0.816580,-0.561178,-0.135190
-0.803140,-0.562360,0.532980,0.399937,-0.400321,-0.824496
0.374472,0.808381,0.535851,-0.581968,-0.746771,0.321942
-0.595383,-0.398156,0.626392,-0.386976,0.800841,0.457060
0.735582,0.197138,0.624999,-0.692078,0.609903,-0.386064
-0.615805,-0.375085,0.680326,-0.573835,-0.639654,-0.511426
-0.512893,-0.007298,0.438596,-0.253060,-0.054809,0.965897
0.033698,-0.114891,0.333024,-0.038879,0.999161,0.012852
0.431295,0.728344,0.532713,0.708093,0.468734,-0.528103
0.169862,-0.664327,0.514683,-0.291223,0.490556,0.821306
-0.432906,-0.652223,0.189323,-0.281845,0.695108,0.661353
-0.396182,0.306867,0.436302,-0.352045,0.495638,-0.793982
0.095849,-0.277316,0.883618,-0.589589,-0.483263,-0.647180
0.057268,0.778546,0.333756,0.359270,-0.091531,0.928734
0.056218,-0.579591,0.722887,0.908616,0.082401,0.409422
-0.588926,-0.066686,0.338006,-0.305493,0.636626,-0.708083
-0.281489,0.316481,0.196262,0.233815,-0.004609,0.972270
0.615162,0.663901,0.383776,0.234223,0.077225,-0.969111
0.769323,-0.319543,0.655076,0.522650,0.261763,-0.811368
0.133540,-0.154770,0.964293,0.216485,-0.516960,0.828183
-0.754955,-0.674084,0.559215,0.382873,0.880618,0.279142
-0.011743,0.075018,0.735639,-0.093099,0.968734,0.229974
0.549459,0.839214,0.299780,0.683800,-0.030419,-0.729035
-0.113362,0.133834,0.738552,-0.397232,-0.892584,-0.213308
0.432019,-0.155980,0.804097,-0.480413,-0.041458,0.876062
0.097704,-0.073236,0.227212,0.969872,0.115763,0.214353
-0.175914,-0.361981,0.073420,-0.282554,0.470651,0.835854
0.226764,0.107132,0.788446,0.402814,0.870583,0.282537
0.883531,0.112258,0.284889,0.673088,-0.129998,0.728048
0.740346,0.534019,0.288154,0.360243,-0.073515,0.929957
0.042013,-0.128636,-0.617652,0.115902,0.992058,-0.048871
0.485534,-0.222843,0.588954,-0.075591,0.548022,-0.833041
-0.055733,0.512017,0.517948,-0.540700,0.083200,-0.837091
-0.610962,-0.725495,0.605759,0.602282,0.138516,0.786174
0.769806,0.639763,0.583508,-0.698287,0.682568,0.215628
-0.392066,-0.037632,0.566435,-0.537966,0.036118,0.842193
0.347675,0.693951,0.495669,0.777076,0.626249,0.062963
0.815168,0.113540,0.477836,-0.578511,0.812179,0.075429
0.670288,-0.370882,0.596146,-0.659231,0.699306,-0.276380
0.739863,0.665184,0.583592,0.452120,0.043394,-0.890901
0.570364,0.815645,0.300047,0.432209,0.562080,-0.705168
-0.181324,-0.271264,0.719552,-0.276835,0.211844,0.937275
-0.625813,-0.395948,0.677525,-0.078002,-0.991946,-0.099792
-0.253722,0.450921,0.425324,0.198262,-0.169786,0.965331
-0.136607,0.499910,0.596048,0.918912,-0.371974,0.131286
0.757056,-0.272261,0.629658,0.068426,-0.632726,0.771346
0.607733,0.409193,0.368224,-0.632237,0.011860,-0.774684
-0.205051,-0.529675,0.664844,0.212250,-0.604180,0.768060
-0.329514,0.487094,0.614021,0.605508,-0.760892,0.233243
0.646558,-0.410545,0.758749,-0.689014,0.565473,0.453321
0.343478,-0.416171,0.665463,0.862057,-0.105705,-0.495666
0.498124,0.489730,0.382524,-0.198426,-0.169178,-0.965405
0.129910,0.666679,0.419441,0.934108,-0.010973,0.356823
0.455267,-0.114038,0.532713,-0.101844,0.437970,0.893202
0.364868,0.571048,0.496879,0.392195,-0.715204,0.578503
0.226846,-0.558586,0.798200,0.746415,0.651428,-0.136036
0.589735,0.082280,0.698524,0.703860,0.590375,0.395017
-0.113281,-0.431837,0.725449,0.588956,0.535055,0.605679
-0.312483,-0.261935,0.359104,0.964546,-0.240870,-0.107857
-0.489084,-0.251113,0.477104,0.808051,0.276602,0.520139
0.087050,0.978282,0.196459,-0.157395,0.804361,-0.572914
-0.213446,0.471713,0.529447,0.206150,-0.673990,0.709394
0.133944,-0.793712,0.603634,-0.012491,-0.665101,0.746649
0.370274,-0.071100,0.673092,-0.201094,-0.910797,0.360570
-0.230316,-0.704347,0.652191,0.011387,0.829890,0.557811
0.591833,-0.285222,0.783928,0.359246,0.535275,0.764475
-0.503370,-0.287996,0.654401,-0.517031,0.712426,-0.474478
0.244280,0.334070,0.554120,0.805578,-0.496352,-0.323541
0.216434,0.032934,-0.957270,-0.264714,-0.278954,-0.923098
-0.733323,-0.379783,0.258457,-0.372755,0.870201,-0.322187
0.064450,-0.593620,0.652191,0.557357,0.804514,0.205207
0.414747,0.202905,0.634513,0.405336,-0.494976,-0.768571
0.693373,0.111547,0.704253,-0.735843,0.677105,0.007938
0.266799,0.167089,0.837313,0.792763,0.362785,-0.489811
0.013763,-0.041548,0.754555,0.156757,0.888683,0.430895
-0.309013,-0.398510,0.677821,-0.283144,0.840821,-0.461357
-0.300537,0.123651,0.214010,-0.398619,-0.138878,0.906540
0.515157,0.129490,0.409673,0.892233,-0.297085,-0.340090
-0.305138,0.320328,-0.070872,0.373861,0.312506,0.873251
0.429679,0.265284,0.580622,0.071980,-0.606588,0.791751
-0.189474,-0.047815,0.723619,0.918234,-0.254805,-0.303185
0.095445,0.587140,0.489729,0.253000,-0.449747,0.856574
0.412326,0.207890,0.776441,0.603408,-0.703705,0.375097
0.068970,-0.434614,0.775441,0.999106,0.021017,0.036671
-0.085920,0.742943,0.451869,0.528610,0.645135,-0.551700
-0.102305,-0.650372,0.363959,0.859994,-0.329576,-0.389604
-0.247507,0.500695,0.518891,-0.485658,0.809750,-0.329305
-0.057265,0.203618,-0.956749,0.159347,0.376415,0.912645
0.391098,-0.384627,0.727560,-0.086480,-0.186091,0.978719
0.783043,-0.041548,0.564760,0.527664,0.388250,-0.755535
0.750760,0.345818,0.511094,0.789708,0.421145,-0.446092
0.542032,-0.151208,0.837918,-0.534647,-0.747416,0.394362
0.124904,-0.305729,0.777806,0.498610,-0.242504,-0.832214
-0.715162,0.357142,0.688151,0.456367,-0.564957,-0.687425
0.524196,0.398725,0.311673,0.716759,-0.492535,0.493626
0.083742,0.223128,0.746265,0.151519,-0.987074,0.052226
0.086163,0.093176,0.809952,0.054488,-0.707723,0.704386
0.388517,-0.202975,0.794048,-0.668341,-0.687173,0.284803
0.903305,0.552747,0.505774,0.907896,-0.396694,0.135494
-0.030631,-0.046605,0.858354,0.101688,-0.806346,0.582637
0.299246,-0.092107,0.378133,-0.390136,0.769762,-0.505233
-0.630897,0.265425,0.707138,-0.045020,0.903484,0.426251
0.419509,0.752198,0.546787,-0.211766,0.787954,-0.578173
-0.250332,-0.135116,0.151688,-0.055123,0.763671,0.643248
0.473507,0.198776,0.636174,0.216485,-0.176428,-0.960212
0.106824,-0.094812,-0.373629,0.942402,-0.290228,0.166271
-0.816618,-0.433119,0.286113,0.279383,-0.951141,0.131436
0.092861,-0.080713,-0.868812,0.326832,-0.944300,-0.038447
-0.265104,-0.119663,0.811205,0.801731,0.337732,0.493116
-0.710724,0.233952,-0.056516,-0.056105,-0.126276,0.990407
-0.439928,-0.231601,0.730755,0.463661,-0.650224,0.601853
-0.509504,-0.644817,0.597174,-0.200076,0.447370,-0.871682
0.410550,-0.224410,0.762690,-0.189725,0.981317,-0.031961
-0.365429,0.124008,-0.931176,-0.327624,0.825954,0.458762
0.777717,-0.149641,0.621889,0.603385,0.057533,0.795372
0.462449,-0.350162,0.644760,0.225275,0.799063,0.557450
-0.641471,0.337273,0.031844,-0.049017,0.402733,0.914004
-0.740669,-0.450921,0.375008,0.202541,-0.968976,-0.141642
-0.093344,-0.667035,0.645970,-0.131030,0.290666,0.947810
0.803384,-0.129703,0.648841,-0.459722,0.495894,0.736712
-0.328061,-0.017623,0.130717,0.331816,0.254558,0.908349
0.936804,0.496779,0.502650,-0.506214,0.001317,-0.862407
0.696033,0.686191,0.390054,0.467935,0.387796,-0.794135
0.529522,-0.194574,0.665703,0.918862,0.368785,-0.140323
-0.738489,-0.678783,0.061189,0.618062,0.156326,-0.770430
-0.039267,0.239932,-0.950894,-0.010254,0.487605,0.873004
0.181324,0.340904,0.211645,0.207560,-0.009032,0.978181
0.264377,-0.587709,0.800227,-0.453875,0.750953,0.479653
0.123372,-0.205254,0.882253,-0.600016,-0.201937,0.774081
-0.226683,-0.360842,0.616231,-0.559785,0.199443,-0.804278
0.545343,-0.305372,0.750614,0.424699,-0.313014,-0.849502
0.438074,-0.043756,0.882126,-0.297258,0.953596,-0.047878
-0.082690,0.346033,-0.968797,0.359966,0.418042,0.834066
0.059931,0.479903,0.559665,-0.665009,0.223515,-0.712604
-0.677227,-0.185529,0.520088,-0.781094,-0.623156,-0.039607
0.951332,0.242853,0.527421,-0.596117,0.225926,-0.770455
0.099238,-0.065120,0.863787,-0.653815,0.676345,0.339240
0.681830,0.171574,0.749924,0.141530,-0.930987,0.336499
0.115300,-0.355147,0.787391,-0.371159,0.921004,0.118290
0.393438,-0.032647,0.857834,-0.219689,-0.954758,-0.200434
0.367531,-0.760245,0.637610,0.275651,-0.171955,0.945753
0.822109,-0.131626,0.657962,0.229777,0.702970,0.673080
-0.751241,-0.115889,0.146340,0.001647,0.286995,0.957931
-0.500626,-0.435896,0.411222,0.879554,0.178122,0.441199
0.276082,-0.217930,0.635879,0.651688,0.167425,0.739778
0.342428,0.548474,0.522847,-0.519396,0.645574,0.559877
-0.095846,-0.707196,0.498230,0.114771,0.407614,0.905913
0.465275,0.202621,0.775582,-0.049606,-0.783388,0.619550
0.515881,-0.310783,0.749587,-0.300973,-0.264195,0.916306
-0.626944,0.428918,0.832162,-0.575376,0.817206,0.033428
-0.004479,0.509668,0.567829,0.502263,-0.578232,0.642947
0.071877,-0.456403,0.790374,0.915987,0.312279,-0.251893
0.134912,-0.297113,0.816849,0.791658,0.528053,0.307306
0.316195,-0.186171,0.797215,0.143140,-0.860357,0.489179
0.693048,0.600028,0.387365,-0.514105,0.146953,0.845045
-0.460834,0.543776,0.372052,-0.091345,-0.955835,0.279348
0.043304,-0.542066,0.724956,0.517832,0.815078,0.259802
-0.323863,-0.701713,0.567153,-0.745074,0.473377,0.469872
0.958032,0.008368,0.458695,-0.142631,0.127158,0.981574
-0.873119,-0.768576,0.236093,-0.144062,-0.671528,0.726840
-0.669721,0.285293,0.491277,-0.650223,0.360236,0.668910
-0.262843,-0.442161,0.750938,0.441644,0.767770,0.464198
-0.454215,0.345818,-0.981774,-0.150406,-0.658579,0.737327
0.189396,0.437178,0.543832,-0.289233,0.650879,0.701927
-0.063643,-0.432550,0.728953,0.830469,0.557040,-0.005211
0.441062,-0.466015,0.599116,0.743003,0.461074,0.485136
-0.489810,0.418877,0.280484,0.062449,-0.223161,0.972779
0.297389,0.809306,0.323636,-0.514544,-0.629966,-0.581711
-0.135154,-0.091679,0.367534,0.245474,-0.917478,0.313011
0.895073,0.390038,0.261807,-0.552414,0.241319,0.797875
0.622261,-0.333927,-0.954131,-0.091187,0.153454,0.983939
-0.515800,0.243066,0.730952,-0.731401,0.323640,0.600257
0.060817,-0.286004,0.339484,0.975426,-0.130178,-0.177756
0.235644,-0.542135,0.791627,-0.189193,0.531682,0.825542
0.404981,0.167730,0.693795,-0.533342,0.834204,-0.140180
-0.189797,0.301813,0.417260,-0.820296,0.010693,-0.571839
-0.607733,0.162460,0.680776,0.117912,-0.969197,0.216229
0.069778,0.058355,0.737328,0.103352,0.984596,-0.141029
-0.035311,0.195215,0.697877,-0.436277,0.233197,-0.869069
-0.473507,-0.334924,0.637328,0.775696,0.181618,0.604409
-0.103595,-0.184462,0.837848,0.078490,-0.857432,0.508576
0.261956,0.163742,0.735456,-0.246617,0.923110,-0.295040
0.372533,0.578808,0.568363,0.169584,0.973862,0.151107
-0.629929,-0.075728,0.427056,-0.167076,-0.447484,0.878546
0.366641,0.628939,0.508251,0.111155,-0.238998,0.964637
0.364464,-0.158686,0.804843,0.224159,0.785738,-0.576514
0.104807,0.184178,0.766110,-0.177501,-0.684390,0.707180
-0.348158,-0.332788,0.622761,0.196796,0.242354,0.950019
0.132816,-0.089401,0.841282,0.436989,0.021511,-0.899210
0.243312,0.638766,0.455401,0.424681,-0.060033,-0.903350
0.784417,0.268487,0.696132,0.161899,0.262294,-0.951310
-0.476492,0.244705,0.734105,-0.405582,0.170074,0.898097
-0.884822,-0.652295,0.585013,0.916798,0.137736,0.374846
-0.601518,-0.192010,0.419962,0.227424,-0.393465,0.890766
-0.175511,0.506606,0.582241,-0.331399,0.909768,0.249995
0.423223,0.095027,0.751487,0.212924,-0.390316,0.895722
0.061143,0.411614,0.556921,0.663891,-0.025850,0.747382
0.475122,0.494428,0.615583,0.905498,-0.314894,0.284457
-0.294886,0.558373,0.385705,-0.517164,0.712597,0.474075
-0.729286,-0.406060,0.670446,0.170267,0.982390,-0.076934
-0.404577,-0.586142,0.737905,0.340289,0.750521,0.566499
0.092215,-0.437817,0.786856,0.928599,0.313232,-0.198972
-0.647363,0.219925,0.529349,-0.082685,0.991232,0.103067
-0.611285,0.207249,0.532600,-0.260082,0.883758,0.389010
-0.611041,0.250116,0.520989,-0.554087,0.777946,0.296291
0.089471,-0.839284,0.592867,-0.776108,0.082384,0.625196
-0.479963,0.382562,0.281230,0.062449,-0.223161,0.972779
-0.567859,-0.425641,0.600650,0.855377,-0.177949,0.486482
0.834459,0.322890,0.357696,-0.035088,-0.091245,0.995210
-0.002462,0.186386,-0.935708,-0.459510,0.766517,0.448668
0.302717,0.354790,0.489363,0.752912,0.286618,0.592430
0.172042,-0.173069,0.913484,0.665668,0.073870,0.742582
-0.005043,-0.038558,0.415936,-0.711919,-0.701883,-0.023072
0.263086,-0.147292,0.916580,0.718604,0.617709,-0.319444
-0.478753,-0.357852,0.633500,-0.461639,-0.445019,-0.767364
0.491183,0.278954,0.283988,0.615094,-0.559546,0.555489
-0.752938,-0.568269,0.507308,0.546302,-0.559925,0.622928
0.389404,0.715884,0.282088,-0.013017,0.127978,0.991692
0.057672,-0.582652,0.724435,0.908616,0.082401,0.409422
-0.041203,0.779329,0.196571,-0.743074,0.238830,0.625141
-0.378425,0.404993,-0.072266,-0.395804,-0.421168,-0.816062
-0.368981,0.192081,0.569095,0.507921,-0.662073,-0.551067
-0.393357,0.353439,0.661452,0.537344,0.843340,-0.006273
0.850760,-0.234306,0.654359,0.813689,-0.300665,-0.497505
0.080350,-0.184960,-0.001344,-0.456202,0.886763,-0.074373
0.152105,-0.098015,0.910782,-0.407397,-0.402670,-0.819686
-0.062271,-0.366753,0.831261,0.985975,0.098620,0.134638
0.244847,0.110052,0.209126,0.897344,-0.108450,-0.427800
-0.639131,-0.080855,0.617835,-0.722547,0.155257,0.673663
0.438963,0.246058,0.805589,-0.529212,0.749945,-0.396884
0.642119,-0.205611,-0.950556,0.546363,0.107964,-0.830561
-0.346059,0.041976,0.624774,-0.271181,-0.628882,0.728676
-0.780621,-0.001603,0.167029,-0.417815,0.110824,0.901748
0.081240,-0.120305,0.188071,-0.711610,-0.476993,0.515838
0.484889,0.394810,0.575584,0.746761,-0.141429,0.649881
-0.518787,-0.388399,0.545929,0.612714,0.600670,-0.513592
-0.065741,0.044328,0.751740,0.534609,0.002320,0.845096
0.032247,0.691458,0.452953,-0.398389,0.597445,-0.695949
0.419430,0.308221,0.645815,-0.439273,0.212050,-0.872968
0.249123,0.061132,0.823886,-0.447328,0.321409,-0.834622
-0.087774,-0.946238,0.679087,0.252811,0.850238,-0.461716
0.119820,-0.380139,0.847306,-0.239599,-0.834631,-0.495968
0.320637,0.510237,0.598384,0.254873,0.518605,-0.816143
-0.288995,-0.273472,0.677891,-0.718557,-0.485273,-0.498183
-0.569475,-0.568484,0.622719,-0.061379,0.338186,0.939075
0.309175,0.783744,0.521341,-0.740367,-0.027077,-0.671657
-0.140078,0.414889,0.543423,0.702810,0.619568,-0.349561
0.689983,0.570407,0.568110,0.053472,-0.841303,0.537913
-0.535897,-0.298892,0.596878,-0.539007,-0.842264,-0.007969
0.120707,-0.213943,0.163187,0.956599,0.279224,-0.083381
0.170266,0.114253,0.476752,0.517127,-0.090633,-0.851096
-0.075508,-0.477980,0.688391,0.752022,0.447701,-0.483763
-0.390128,0.384270,0.202905,0.189942,0.009941,0.981745
0.689176,0.723859,0.390983,0.398878,0.394948,-0.827594
-0.592961,-0.504967,0.319076,-0.104049,0.356451,0.928502
0.190282,0.209457,0.833583,-0.719078,-0.132099,0.682258
0.581180,-0.177769,0.735498,0.807881,-0.325942,-0.491010
0.274144,0.119879,0.550334,0.045938,-0.044772,0.997940
0.118448,0.039271,0.809305,0.402912,0.261893,-0.876968
0.424028,-0.313204,0.854582,-0.413609,-0.881180,-0.229016
-0.119739,0.522556,0.567913,-0.156137,0.958250,-0.239537
-0.594496,-0.324526,0.644295,0.371898,-0.903325,-0.213764
0.097704,-0.207960,0.882520,0.735050,0.338947,-0.587211
0.134511,-0.722149,0.688940,0.824967,0.564993,0.014567
-0.465272,-0.976287,0.523846,0.048394,-0.946190,0.319973
0.805157,0.232101,0.449434,-0.159767,0.467599,0.869382
0.334034,0.773846,0.523691,-0.491488,0.870119,0.036506
0.268252,-0.044112,0.768742,-0.782500,-0.426353,-0.453780
0.555755,0.611137,0.285283,0.744896,0.390466,0.540985
0.328464,0.282231,0.460370,-0.047261,0.995912,-0.076978
0.373181,0.855093,0.328689,0.873363,0.461771,-0.154934
0.475364,0.294835,0.579356,-0.427021,0.714530,-0.554166
0.098430,-0.158329,0.845279,0.188947,-0.378702,-0.906026
-0.163244,0.065263,0.636385,0.302813,-0.904251,0.301056
0.322654,0.402572,0.352644,0.086037,0.946844,0.309974
0.437347,-0.240217,-0.946489,-0.576645,-0.187389,-0.795214
-0.255175,0.500551,0.542326,-0.634984,-0.684503,-0.358121
0.495946,-0.337558,0.832697,-0.190567,0.947866,0.255411
-0.655112,-0.720225,0.265931,-0.555093,0.178211,0.812473
0.165746,0.120163,0.345578,0.956331,-0.289530,-0.040048
0.557208,-0.300103,0.736793,0.521176,-0.053679,-0.851760
-0.315469,0.093674,0.795610,-0.283320,-0.826759,0.486003
0.358813,0.463668,0.333122,-0.474670,0.495818,-0.727222
-0.650107,-0.606224,0.569588,0.625484,0.398435,0.670835
0.621615,-0.154270,0.742493,0.289171,0.954958,0.066598
-0.598371,0.365258,0.707293,-0.640677,0.466254,0.610033
-0.820978,0.187240,0.681522,-0.336409,-0.554269,0.761325
-0.342184,-0.411899,-0.042751,-0.523950,0.369492,0.767432
-0.778360,-0.265709,0.632726,0.816606,0.323008,0.478352
0.097704,0.776908,0.208845,0.033579,0.250464,0.967543
-0.169136,-0.202762,0.855047,-0.766287,0.261189,0.587014
0.122242,-0.491081,0.700312,0.807754,0.133304,0.574251
0.277454,0.597182,0.501453,-0.067067,-0.411952,0.908734
0.292950,-0.240004,0.639679,-0.685608,-0.128297,-0.716577
0.219986,-0.163670,0.838805,-0.531575,-0.265507,-0.804322
0.517255,0.243066,0.707335,0.772381,-0.623739,0.119908
-0.310949,-0.433829,0.752852,-0.329982,0.846361,0.418073
0.055814,-0.955139,0.667631,0.080732,-0.995554,-0.048524
-0.409905,-0.822408,0.644450,-0.275329,-0.806984,-0.522466
0.839622,0.178198,0.508054,0.265214,0.698647,-0.664496
0.649543,0.120804,0.489757,-0.423510,0.326218,0.845116
-0.522982,0.167658,0.183356,-0.649203,-0.700689,0.295923
0.851652,-0.205113,0.637596,-0.481803,0.785687,0.388022
-0.041688,0.256311,0.580580,-0.638601,-0.635341,0.434201
0.593446,-0.306939,-0.959184,-0.077260,0.292978,0.952993
-0.465595,0.635419,0.207915,0.424669,-0.306210,0.851993
0.728562,-0.417809,-0.956172,-0.244789,0.011157,0.969512
0.124744,-0.127639,0.916383,0.796243,0.393078,0.459877
-0.076234,-0.952790,0.619721,0.973696,-0.141141,0.178871
0.201421,-0.699220,0.721058,0.849170,0.512693,-0.126715
0.311274,-0.786519,0.618863,-0.359646,0.931435,0.055524
-0.754470,-0.634778,0.556498,0.911459,0.260840,-0.318127
-0.024981,-0.238081,0.795075,0.580486,0.243834,-0.776905
-0.574559,0.273115,0.199330,-0.487793,-0.113611,0.865535
0.533155,0.308934,0.641466,0.353387,-0.262927,-0.897768
0.035314,-0.726280,0.776427,0.093154,0.951253,0.294007
-0.517817,0.152634,0.662522,0.125317,-0.757629,0.640542
-0.993463,-0.712250,0.231279,0.853339,0.254406,-0.455071
0.734213,0.635134,0.579637,-0.607832,0.790951,-0.070260
0.384884,-0.082137,0.858650,0.417487,-0.844793,0.334708
0.357764,0.715099,0.511882,-0.528855,0.081804,-0.844761
-0.656888,-0.776480,0.565352,0.643566,0.728471,-0.234847
-0.024981,-0.223697,0.255684,0.640953,-0.766950,-0.031096
0.731951,0.304234,0.672895,0.757034,0.025373,-0.652882
0.456880,0.161391,0.773541,0.104864,-0.585242,0.804049
-0.689333,0.151067,0.480510,0.764534,0.227290,-0.603181
0.724931,0.247766,0.702324,0.009879,-0.855713,0.517356
-0.658987,0.233311,0.707251,-0.604549,0.571755,0.554632
0.748336,-0.214299,0.362651,0.381453,-0.241257,-0.892350
0.386256,0.151139,0.766575,-0.732583,-0.073212,0.676729
0.924213,0.209742,0.283946,0.851422,0.097159,0.515404
-0.028532,-0.075800,0.904378,-0.412580,0.626643,0.661133
0.544294,0.166804,0.647462,0.415329,-0.808179,-0.417550
0.331775,-0.093674,0.836257,-0.602308,0.794153,-0.080910
0.219663,0.703136,0.520172,-0.420482,-0.807178,0.414317
-0.478591,-0.404280,0.258035,-0.724394,-0.313026,0.614221
0.756086,-0.045323,0.553599,0.805559,0.281776,-0.521226
-0.126922,-0.819630,0.652318,0.855873,-0.169949,0.488466
0.059849,-0.579521,0.703577,0.905855,0.411081,-0.102175
0.269705,0.071102,0.793654,0.977409,-0.112287,-0.179061
-0.015941,-0.087050,0.897200,-0.114767,-0.981116,0.155695
-0.872634,-0.597108,0.411447,-0.576043,0.185751,0.796034
0.308205,-0.145012,0.800297,-0.294250,-0.066192,-0.953433
-0.254448,-0.446933,0.688560,0.844600,0.168208,0.508288
0.380526,0.022538,-0.955637,0.149722,0.258286,0.954396
0.232092,-0.134047,0.363706,-0.013647,-0.987071,0.159700
-0.108519,-0.016840,-0.902534,-0.178618,0.597854,0.781452
0.145649,0.225834,0.452910,-0.625790,0.294300,0.722339
-0.245893,0.290632,0.264945,0.187727,0.978709,0.082993
0.911458,0.167515,0.517878,0.164280,-0.856196,0.489837
0.590380,-0.080713,0.674654,0.922940,-0.379260,-0.065907
-0.610640,-0.753052,0.596752,-0.532899,-0.743201,-0.404562
-0.795795,0.229395,0.686012,0.579666,0.323301,-0.747973
0.269220,-0.105565,0.677680,0.821456,0.348799,-0.451164
-0.586909,-0.150354,0.566323,0.059072,-0.752608,0.655814
0.478108,-0.141240,0.829882,0.475037,0.848238,-0.234161
0.519514,0.553672,0.619440,-0.206065,0.900520,-0.382885
0.324186,-0.589204,0.810473,-0.363848,0.813404,0.453860
0.104566,0.751272,0.448913,-0.600995,0.677221,-0.424472
-0.350416,-0.407057,0.622367,-0.175281,-0.954893,0.239699
-0.058556,0.060988,0.807334,0.923044,0.288460,-0.254519
0.507489,-0.218641,0.758608,-0.590132,0.461304,-0.662527
-0.227329,-0.345676,0.680495,-0.169632,0.013585,0.985414
0.114815,-0.385906,0.786504,-0.212549,0.787367,0.578686
0.153881,0.749777,0.344340,0.389705,0.387438,-0.835477
0.456880,-0.373090,0.747081,0.905180,-0.392665,0.162673
-0.086161,-0.180616,0.843449,0.588044,-0.729910,0.348475
0.004965,-0.252821,0.819818,-0.723973,-0.554103,-0.410893
0.416604,-0.550467,-0.954976,-0.196001,-0.251971,0.947678
0.053474,0.281875,0.772936,0.378063,-0.871896,0.311232
0.159692,0.804108,0.326395,-0.461125,-0.109334,0.880573
0.635015,0.421869,0.369420,-0.667577,0.016442,-0.744359
-0.066872,-0.504254,0.776525,-0.173312,0.712469,0.679964
0.205214,-0.268558,0.897960,-0.463040,0.885876,-0.028583
-0.042656,0.146723,0.605576,0.434437,0.041467,-0.899747
0.683604,0.305159,0.684197,-0.615855,0.785838,0.056408
0.554302,0.048243,0.654499,0.980414,0.195767,-0.021519
0.139031,0.948305,0.201976,-0.197767,-0.595259,0.778816
0.069052,-0.097446,0.890543,0.612767,-0.664727,0.427380
0.450343,0.024390,0.497344,-0.522474,0.742371,0.419412
0.332662,-0.188522,0.931373,0.745733,0.599647,-0.290353
0.140481,0.475059,0.481130,-0.020082,0.098371,0.994947
0.959161,0.657493,0.504676,0.796713,-0.479140,0.368337
-0.206263,-0.217645,-0.968839,0.667308,0.698566,-0.258274
-0.080269,0.681490,0.446309,0.096519,-0.572758,0.814023
-0.523630,-0.514863,0.544183,-0.122547,0.002249,0.992460
0.166714,0.982057,0.207719,-0.244473,-0.953675,0.175318
0.196497,-0.024672,0.897214,0.882388,-0.128567,-0.452616
-0.276242,0.125290,0.729798,0.898716,0.123053,-0.420913
0.190686,-0.725639,0.726167,-0.225344,0.926186,0.302324
0.256064,0.248905,0.827686,0.067165,-0.958002,0.278785
-0.129907,-0.780965,0.664197,0.955134,0.249180,-0.160089
0.920094,0.332290,0.528659,0.718389,0.387253,-0.577886
-0.444288,0.450779,0.429054,0.409854,0.605989,0.681760
0.669721,-0.352795,0.778974,-0.817143,0.574960,0.041222
0.331854,0.584006,0.328731,0.859531,0.468975,0.203147
0.665928,-0.319471,0.609447,-0.660917,-0.267463,0.701180
0.287139,0.512871,0.534303,-0.549058,0.835776,-0.003667
0.496914,0.695589,0.291208,0.933052,0.143904,0.329704
0.499094,0.578524,0.620186,-0.272258,-0.943348,0.189660
0.184794,0.835227,0.339174,0.565085,0.325113,-0.758275
0.469472,0.167373,0.729812,0.223666,-0.973786,-0.041398
-0.076557,-0.049880,0.769319,0.896373,0.326031,0.300366
-0.092053,-0.313276,-0.486914,0.889632,-0.434518,-0.140530
0.447436,-0.540214,-0.947150,0.324512,0.090164,-0.941574
-0.963358,-0.663973,0.539004,0.737296,-0.450798,-0.503166
0.314823,-0.783245,0.752655,-0.299827,-0.953823,0.018060
0.031276,-0.059778,0.849389,0.317594,-0.802325,0.505379
0.305461,0.480329,0.480975,-0.409635,0.908902,-0.078081
-0.820978,0.275751,0.570264,0.825059,-0.565010,0.006438
-0.223779,-0.560863,0.678215,0.220976,0.912267,0.344876
0.780703,0.362837,0.518300,-0.595640,-0.225722,0.770884
0.769401,0.334711,0.516288,-0.602044,-0.450792,0.659037
-0.756409,0.154841,-0.072758,-0.022866,0.156040,0.987486
0.919690,0.191727,0.502537,0.518288,0.843388,-0.141682
0.079545,0.506890,0.483987,-0.038730,0.907190,0.418936
0.439608,0.865135,0.266606,-0.046090,0.866279,0.497430
-0.753339,0.201198,0.605309,-0.750328,0.660763,-0.019994
-0.852455,-0.312278,0.415303,0.774225,-0.275223,0.569936
0.500708,0.551751,0.300090,-0.715547,-0.350995,-0.603982
-0.483029,-0.661622,0.094250,-0.162610,-0.193971,0.967436
-0.667864,0.230462,0.178246,0.712662,0.234039,-0.661316
-0.187216,-0.249331,0.809685,0.173909,0.973449,0.148839
0.764800,0.303165,0.724956,0.799361,0.277269,-0.533051
0.782319,-0.410188,0.441735,0.879156,-0.476088,-0.020625
0.560435,0.814648,0.286128,0.674159,0.518850,-0.525647
0.194561,-0.397159,-0.956341,-0.148550,-0.425497,0.892684
0.500466,0.072738,0.713837,0.707171,0.106225,0.699017
-0.412486,-0.004449,-0.994061,-0.537610,-0.040207,0.842234
0.019088,-0.166448,-0.086185,-0.080705,0.983399,0.162521
0.136528,0.041337,0.842239,0.766281,-0.311330,0.562038
-0.138868,0.110693,0.199147,0.221567,-0.062440,0.973144
-0.506196,-0.268843,0.562185,-0.706446,-0.308932,0.636785
0.597484,0.020543,0.705252,-0.693780,0.449761,-0.562481
0.235482,-0.240645,0.925067,-0.539014,0.745939,-0.391202
-0.017473,0.170720,0.842267,0.866932,0.460647,-0.190351
0.292950,0.200485,0.723816,0.286531,-0.703076,0.650833
-0.401912,0.159042,-0.056812,0.249098,0.326917,0.911633
0.848263,0.065548,0.553149,-0.204078,-0.892805,-0.401561
0.533478,-0.440809,0.561199,0.933963,0.237774,0.266790
0.389322,0.416527,0.595218,-0.021738,-0.628293,0.777673
0.086969,0.018479,0.790318,0.000915,0.979264,0.202588
0.187619,0.583437,0.205396,-0.507711,-0.202053,-0.837498
0.124663,-0.088404,0.937734,0.838522,0.503012,-0.209430
0.527909,-0.113112,0.629348,0.137901,-0.870470,0.472509
-0.027321,0.035355,0.193503,0.498667,0.750747,0.433256
0.283024,0.483034,0.587392,-0.308933,-0.786139,0.535300
0.376812,-0.405206,-0.970767,0.181065,0.382919,-0.905863
-0.536623,0.284580,0.508702,0.446722,-0.754611,-0.480626
0.630655,0.617404,0.573824,0.390929,0.362796,-0.845904
-0.331046,-0.525403,0.713345,0.643263,0.704296,0.300299
0.641631,0.579165,0.376992,0.432342,-0.292108,-0.853085
0.812261,0.615909,0.396767,0.431191,0.449266,-0.782454
0.608378,0.369033,0.248169,0.463739,-0.787599,0.405751
-0.310868,0.533878,0.424818,-0.197163,0.374879,0.905865
-0.133782,-0.208744,0.837637,-0.159361,0.966325,0.202039
-0.446710,0.525333,0.427450,-0.612713,-0.285880,-0.736787
-0.444288,0.410617,0.569996,-0.701920,0.362563,-0.613071
-0.118850,0.225336,0.635724,0.122960,0.981523,0.146609
0.096817,-0.927439,0.628673,0.103010,-0.993254,-0.053245
-0.815973,0.149359,0.641002,-0.314916,0.930517,0.186990
0.272289,0.786734,0.539609,-0.218552,-0.441677,0.870147
0.141935,-0.147648,0.852344,-0.497786,0.098410,0.861698
0.282216,0.443017,0.521594,-0.648543,0.744416,0.158858
0.795634,0.257806,0.356472,0.701064,0.106828,-0.705052
-0.039912,-0.765299,0.660017,0.773315,0.419861,0.475080
0.478916,0.595969,0.340540,0.132416,0.959576,0.248353
0.151864,0.726921,0.330012,-0.493168,-0.495327,0.715148
0.410309,-0.185745,0.799917,0.685010,0.534472,-0.495078
-0.093184,0.013068,0.851950,0.981820,-0.186291,-0.036396
0.257599,-0.074305,0.818523,0.767948,0.628564,0.123140
-0.345896,0.129562,0.769840,-0.216323,0.808416,0.547419
0.441463,0.002031,0.851753,0.973681,0.207008,-0.095360
-0.018199,-0.020899,0.647448,0.552241,0.170337,0.816098
-0.467452,-0.869548,0.565957,-0.510501,-0.659187,0.552143
-0.641390,-0.582583,-0.073293,-0.588832,0.088127,0.803437
-0.070343,-0.890696,0.616048,0.996448,-0.084085,-0.004672
0.319991,0.003739,0.641762,0.953799,-0.247780,0.169917
-0.570847,0.300033,0.206198,0.438639,0.081668,-0.894945
0.548168,-0.300600,0.825012,0.779410,0.546222,-0.306857
0.412166,0.183039,0.723098,0.359449,-0.926413,0.112055
0.049196,0.892976,0.189478,0.308335,0.280696,0.908922
-0.706608,-0.407411,0.404128,0.082980,-0.461559,0.883220
0.054684,-0.586855,0.679974,-0.004874,-0.719615,0.694356
0.521613,-0.215935,0.723521,-0.269266,0.332314,0.903915
0.124017,-0.753480,0.655133,0.666559,0.027588,-0.744942
-0.059527,0.349451,0.209576,0.419386,0.066942,-0.905336
0.687397,-0.389681,0.520074,0.969004,-0.105706,0.223287
0.522339,0.720084,0.291813,0.912713,-0.189617,0.361939
0.033375,0.103644,0.840761,-0.462975,-0.884157,0.062618
0.604989,-0.519776,0.599609,0.994897,-0.016538,0.099532
0.118690,-0.122013,0.921099,-0.083036,-0.628063,0.773720
-0.136607,0.226759,0.276698,0.401493,0.759992,0.511092
-0.110859,0.180049,0.673430,-0.031076,-0.997523,-0.063110
0.096575,0.071315,0.808587,0.185396,0.604219,-0.774950
0.070505,0.674582,0.302651,-0.434005,-0.799444,0.415366
-0.164695,-0.409478,0.777637,-0.181078,0.773560,0.607302
0.937209,-0.171646,0.374769,0.373093,-0.312396,-0.873619
-0.020379,0.803113,0.335093,0.111553,-0.230497,0.966658
0.158805,-0.525972,0.669953,0.229291,0.714765,-0.660709
-0.789420,-0.081639,0.664450,0.993396,-0.016208,0.113584
0.151137,0.431624,0.342834,-0.145313,-0.953189,0.265169
-0.115057,0.444940,0.524972,-0.631935,-0.207599,-0.746700
0.427016,-0.347882,0.775413,0.472128,0.433598,-0.767521
0.260988,0.441735,0.336106,0.153350,-0.934692,-0.320680
0.389968,-0.533022,0.673007,-0.665781,-0.494368,-0.558870
-0.750435,-0.356429,0.399230,0.337097,0.701642,-0.627746
-0.165744,0.464735,0.538103,0.550196,0.770688,0.321441
-0.640341,-0.358919,0.377907,-0.391693,0.920060,-0.008207
0.057832,0.078721,0.164524,0.728171,0.261498,0.633550
-0.495299,0.250046,-0.070042,0.426028,0.710144,0.560531
-0.561644,0.072738,0.566041,0.569594,0.299057,0.765589
-0.478591,0.121800,-0.995172,-0.504632,-0.224270,0.833696
-0.172767,0.127426,0.754822,-0.123353,0.646345,0.753009
0.345091,-0.086694,0.821676,0.305587,-0.869903,0.387149
0.364220,0.759463,0.328731,0.322838,0.531305,0.783257
-0.596998,-0.431195,0.537963,-0.371891,0.172222,-0.912161
0.066227,-0.208601,-0.847404,-0.467199,0.884106,0.009029
0.241213,-0.489727,0.769657,-0.164498,-0.736650,-0.655963
-0.343475,-0.591056,0.744041,0.798179,-0.599776,-0.056385
-0.522822,0.159042,0.189211,0.443843,0.652035,-0.614698
-0.267848,-0.821341,0.214263,0.052628,0.687461,0.724312
-0.733806,-0.650229,0.567378,0.923177,0.125322,-0.363372
0.128537,-0.831167,0.146888,0.854856,-0.061255,0.515238
0.544050,-0.450777,0.587505,0.979969,-0.198091,0.020506
-0.374551,0.161178,0.201216,0.311695,0.178468,0.933271
-0.602891,0.287786,0.509208,-0.678029,0.587478,0.441754
-0.441704,-0.378503,0.475387,0.881169,0.147879,0.449080
0.037654,-0.116886,0.739228,-0.114825,-0.427457,0.896714
0.097140,-0.255883,0.792866,0.700037,0.714079,0.006343
-0.433069,-0.811655,0.638975,0.140840,0.832085,0.536469
-0.796039,-0.175988,0.638046,0.942170,0.292736,0.163163
0.603698,-0.455049,-0.959015,0.155301,0.123897,0.980067
-0.296985,-0.585929,0.687574,-0.376202,-0.903906,-0.203535
-0.724202,-0.041691,0.432995,-0.114534,-0.845761,0.521125
0.376489,0.547407,0.554458,-0.286788,0.931285,0.224633
0.082370,0.720228,0.196839,0.704379,-0.364779,0.608923
0.589089,-0.323600,0.595330,0.429693,0.306443,-0.849386
0.382381,-0.097233,0.848404,0.960922,-0.089514,-0.261946
-0.242423,0.174138,0.742690,0.812406,0.572564,0.110303
0.320232,-0.162173,0.934202,0.746210,0.630537,-0.213528
-0.552604,0.329867,0.038501,-0.181838,-0.382437,-0.905912
0.325075,0.779757,0.333446,0.133720,0.307272,0.942180
0.126680,-0.519776,-0.160498,0.879586,0.183606,0.438882
0.473184,0.256311,0.569039,0.959476,-0.194627,0.203780
0.016990,0.700290,0.207198,-0.368809,-0.039333,0.928673
0.484645,0.707552,0.293474,0.850446,-0.017962,0.525756
-0.224666,-0.244063,0.848347,-0.398362,0.914357,0.072518
0.819931,-0.164240,0.628996,0.850205,0.394841,0.348211
-0.833489,-0.410830,0.301061,-0.675819,-0.624942,0.390789
0.887812,0.294335,0.453403,-0.283073,0.647570,0.707477
-0.611285,0.149215,0.645576,0.429690,0.753876,-0.497029
0.761977,0.346174,0.519792,-0.611880,-0.406286,0.678627
-0.351387,0.284437,0.249393,0.163443,-0.984965,-0.055953
-0.011985,0.107773,-0.925194,0.256220,-0.625009,-0.737370
-0.135558,0.212732,0.245734,0.530309,0.837662,-0.130747
0.097866,-0.663260,-0.401341,0.809683,-0.586467,-0.021678
0.143066,0.368961,0.470700,0.241047,-0.455451,0.857007
0.778767,0.665397,0.583620,-0.804229,0.548170,0.229618
0.260747,-0.335850,0.780748,0.564233,-0.668910,0.483943
-0.056135,-0.604729,0.742380,-0.601520,-0.607642,-0.518598
0.703137,0.334781,0.703591,0.290508,0.942800,0.163503
-0.789176,-0.424074,0.265438,-0.541712,0.716945,-0.438792
0.372373,-0.554739,0.771191,0.781258,0.622363,0.047957
0.651159,-0.376367,-0.953526,-0.024780,0.011699,0.999624
-0.028047,0.499626,0.447534,0.874808,-0.048446,-0.482042
0.724690,-0.110122,0.658454,0.602563,0.596188,-0.530545
0.455508,-0.337914,-0.940465,0.029378,0.019886,0.999371
-0.230558,0.526757,0.188071,0.079831,0.949870,-0.302281
-0.804834,-0.449995,0.263904,-0.549142,0.444873,-0.707482
-0.431211,-0.318974,0.627054,0.330419,0.391177,0.858955
0.100933,-0.067184,0.545802,-0.623873,0.621089,-0.474374
-0.582712,-0.356498,0.745984,-0.738806,0.336795,-0.583725
0.412811,0.093032,0.755385,0.346738,-0.517116,0.782537
-0.268979,-0.515789,0.779509,-0.155446,0.833543,0.530135
0.420398,0.186101,0.785434,-0.499445,0.557665,-0.662996
-0.496670,-0.205824,0.748263,-0.728549,0.211099,-0.651655
0.037654,0.045325,0.862337,-0.048937,0.866449,0.496861
-0.383832,-0.140812,0.695076,-0.563667,0.766614,-0.307542
-0.715081,0.154698,0.052772,-0.603992,-0.077087,0.793254
-0.152184,0.361414,0.416767,-0.088303,-0.000346,0.996094
-0.146777,-0.043258,-0.904688,-0.364521,0.313563,0.876814
-0.611608,-0.829601,0.370884,0.922574,0.008720,-0.385722
-0.539853,-0.311353,0.591685,0.151776,0.860185,-0.486874
-0.906776,-0.518140,0.271392,0.636382,0.426448,-0.642775
-0.643651,0.184037,0.515837,0.906674,-0.383324,-0.176081
0.012147,0.497846,0.442805,0.769574,0.088912,0.632338
0.170993,0.267276,0.569855,0.057059,-0.550088,0.833155
0.537594,0.674226,0.278541,0.852395,0.303906,0.425516
-0.401106,-0.827393,0.525197,0.498156,0.714934,0.490621
0.243393,-0.135186,0.877904,-0.658456,0.751919,-0.032473
0.336778,0.813081,0.331166,0.496132,0.283786,0.820560
0.186570,-0.097661,-0.759776,-0.107428,0.992182,-0.063509
0.127084,0.075944,0.847081,0.317277,-0.629256,0.709487
-0.450099,-0.903229,0.535711,0.804315,-0.451838,0.385902
0.316518,0.892050,0.335923,0.774612,-0.118074,0.621317
-0.016263,-0.889912,0.651895,0.442255,0.816853,-0.370353
0.078252,-0.424644,-0.964237,0.256594,-0.108720,0.960385
0.226846,-0.416384,-0.961464,0.057917,-0.641219,0.765169
0.073813,-0.908498,0.681987,0.204141,-0.846329,0.491990
