0.588419,0.628311,-0.937210,-0.392363,0.180315,0.901963
0.654959,0.595895,0.493943,0.340769,-0.295293,-0.892568
0.120706,0.002238,0.085212,-0.213498,0.470826,0.856003
0.391569,0.576179,0.607280,-0.706970,-0.068473,-0.703921
-0.346842,0.258563,0.655424,0.994041,-0.021602,0.106849
0.449805,0.680446,0.685198,0.792077,-0.608399,-0.049650
-0.588033,-0.246198,0.654557,0.910925,0.379821,0.161093
-0.678818,-0.248405,0.597924,-0.111872,0.514954,0.849886
-0.520164,0.559400,0.468449,-0.604122,0.364897,-0.708440
0.081678,0.000500,-0.244647,0.083865,-0.909819,0.406442
-0.224999,0.167261,0.742087,-0.273778,0.862063,0.426489
0.267181,0.562676,0.730229,0.899285,-0.204008,-0.386868
-0.001467,-0.512213,0.003811,-0.065963,-0.207015,0.976112
0.526916,0.815726,0.491838,0.772920,0.505661,-0.383277
0.125744,0.321191,0.869529,0.380738,0.921795,0.073021
-0.382712,-0.532198,0.671719,0.978914,0.192580,0.068113
0.276316,-0.097081,0.798706,0.218374,0.111053,0.969526
0.842120,0.659727,0.497569,0.456466,-0.149245,-0.877135
-0.631931,0.020820,0.609029,0.540408,-0.650422,0.533769
-0.230757,0.130101,0.786791,0.913918,-0.357167,0.192837
0.208945,-0.562476,0.634907,0.276829,-0.637553,0.718952
-0.281409,-0.191860,0.720774,-0.452889,-0.798551,-0.396495
0.297848,0.508737,0.788426,-0.424832,0.717749,0.551683
0.411995,0.557862,0.650775,-0.394382,0.712220,-0.580693
0.266461,0.503058,0.750803,0.746866,-0.467811,0.472592
0.289047,-0.190921,0.712953,0.067222,0.529687,0.845525
-0.361732,0.214048,0.769799,0.803421,0.454671,-0.384433
0.556311,-0.300672,0.736115,0.772638,0.461472,0.435975
0.081014,-0.126360,0.961410,0.973765,0.146977,0.173722
-0.350494,0.610598,0.450817,0.645408,0.582479,0.494132
-0.686955,-0.121611,0.584615,-0.004952,0.218489,0.975827
-0.134270,0.381144,0.712100,-0.550460,0.401599,0.731923
-0.207175,-0.705911,0.677691,0.545753,0.192923,0.815435
0.073265,0.179495,0.656178,0.964360,0.260305,0.047452
0.090480,-0.064735,0.968036,-0.700838,0.301180,0.646620
-0.099118,0.798482,0.685725,-0.518399,0.196007,0.832372
-0.524925,-0.048825,0.689407,0.499493,0.855097,0.138983
-0.263585,0.340173,0.402858,0.738911,-0.589974,0.325486
0.111462,-0.264511,0.848514,-0.161224,0.984340,-0.071290
-0.551385,-0.225544,0.641362,0.907635,0.281393,0.311474
0.181544,0.020150,0.711659,0.260399,-0.706487,0.658080
0.210939,-0.141128,0.930328,-0.739585,0.508933,-0.440457
-0.253786,-0.202552,0.822423,-0.711862,-0.701646,-0.030737
0.303275,0.489356,0.755140,0.937936,-0.141852,0.316473
-0.357469,-0.822143,0.510138,0.800225,0.575816,0.167560
0.438400,0.653444,-0.964354,-0.306833,0.175457,0.935451
-0.435081,0.036260,0.480819,0.633506,0.649892,0.419893
-0.145562,-0.553652,0.718783,-0.204817,-0.914814,0.348088
0.012926,0.020820,0.324385,0.527221,0.726966,0.439953
0.185529,-0.168264,-0.909853,0.817250,0.547605,0.179528
0.593511,0.547570,0.434551,-0.754646,0.625534,-0.198032
0.818373,0.775690,0.497697,0.019715,-0.593096,0.804890
0.097623,0.018482,0.922465,0.495504,-0.144368,-0.856524
0.359296,-0.294924,0.795379,0.771507,0.109610,-0.626708
0.296742,-0.451192,0.583080,0.540391,-0.046901,0.840106
-0.746520,-0.266114,0.593303,-0.626597,0.204895,0.751927
0.109082,-0.317316,0.228466,0.212490,-0.128390,-0.968692
-0.273604,0.143200,0.752026,-0.592498,-0.464937,0.657860
0.014089,0.418573,0.810337,-0.503515,0.406681,-0.762288
-0.217472,0.384019,0.528224,0.838615,-0.118115,0.531764
0.523651,-0.474119,0.839912,0.120172,-0.962517,0.243147
-0.356473,0.082110,0.655879,-0.633209,0.541801,0.552719
0.183535,0.243592,0.566785,0.742630,0.352842,0.569212
0.006615,0.491159,0.602716,0.776337,0.076851,0.625616
0.064019,-0.252815,0.876923,0.249897,0.904690,-0.345092
-0.842842,-0.567090,0.594255,0.079619,0.334897,0.938885
0.436518,-0.407211,0.594625,0.482810,0.465998,-0.741445
0.131777,0.523374,0.807920,-0.511896,0.341160,-0.788399
0.252955,0.725362,-0.046765,0.159026,-0.585279,0.795085
0.096072,0.032650,-0.138319,-0.311372,-0.670364,-0.673543
0.098342,-0.093071,0.242045,0.917152,0.387464,-0.093295
-0.224834,0.020485,0.757173,-0.267510,-0.132645,0.954381
0.520938,0.238378,0.482241,0.163942,0.253964,0.953218
-0.310084,0.698625,0.467183,-0.185033,0.358916,-0.914846
-0.398102,-0.472781,0.664339,0.792084,0.299227,0.532039
-0.152924,-0.203621,0.497014,0.164498,0.135311,-0.977052
0.299399,0.174412,0.844405,-0.190822,0.040185,0.980802
-0.895930,-0.552318,0.589137,0.495627,0.540406,0.679938
0.261645,0.115329,0.794170,0.199164,-0.120284,0.972556
0.127514,0.244726,0.845073,-0.466613,-0.850420,-0.243019
0.555370,0.727365,0.484786,0.229970,0.369895,-0.900162
0.050347,-0.164054,0.932760,0.826644,0.476650,-0.299106
0.295414,0.566017,0.445201,-0.586874,-0.795809,0.149219
-0.281132,0.171071,0.805815,0.902642,0.255320,-0.346482
-0.364445,-0.327874,0.729987,0.853741,0.402225,0.330669
0.023221,-0.031916,-0.124641,0.950201,0.037192,0.309409
-0.386699,0.301141,0.690601,0.188149,-0.792354,0.580323
-0.003682,0.070145,0.557856,-0.155887,0.313395,0.936741
0.102437,0.001303,0.265861,-0.635586,0.767312,-0.085220
0.717512,0.440965,-0.923788,-0.347892,0.167549,0.922441
-0.076642,0.009189,0.108019,-0.741650,-0.182716,-0.645422
-0.350384,-0.859638,0.534495,-0.184983,-0.752267,0.632357
-0.457113,0.075962,0.674705,-0.027085,0.089186,0.995647
0.270337,0.570497,-0.975217,0.271862,-0.134360,-0.952910
-0.477484,0.618822,0.439784,0.922803,-0.067485,-0.379316
0.177335,-0.314509,0.774549,-0.293051,-0.087313,0.952102
-0.183870,0.365572,0.370183,0.804261,0.558866,-0.202072
0.116332,0.085520,0.900398,0.711699,-0.630275,0.310221
0.187632,0.386422,0.759718,0.347168,0.642894,0.682760
-0.871848,-0.194132,0.563003,0.425487,-0.173543,0.888169
0.363779,-0.213049,0.796730,0.946499,0.322603,-0.008174
-0.187357,0.458808,0.534779,0.422307,-0.905109,0.049347
0.071272,-0.155769,0.918470,-0.446914,-0.876395,-0.179445
0.388856,-0.310095,0.734466,0.306066,0.816677,0.489247
0.038500,-0.107243,-0.245244,0.417976,-0.389932,-0.820518
-0.404800,0.333891,0.669671,0.971323,0.217337,0.096414
-0.288217,0.693276,0.552837,-0.123597,-0.964352,-0.233984
-0.464807,-0.529392,0.663685,-0.173896,-0.983630,-0.047247
-0.165214,-0.228220,0.751756,0.992144,0.116966,0.044368
-0.098731,-0.135849,0.869700,0.668683,0.197463,-0.716848
-0.159180,0.902949,0.572657,0.903859,0.392616,-0.169973
0.609677,0.712862,0.485383,0.674406,0.295493,-0.676654
-0.619696,-0.408749,0.593886,-0.655397,0.723039,-0.218334
0.656675,0.713196,0.493730,-0.430359,-0.423127,0.797342
-0.137259,0.222203,0.815314,0.722372,-0.600747,0.342464
-0.282683,0.186846,0.762719,0.312298,0.842437,-0.439055
0.259874,-0.450658,0.745414,-0.512496,-0.404483,-0.757458
0.135708,-0.043277,0.647661,0.033869,0.940039,0.339382
-0.009992,0.157037,0.816380,0.601989,0.731754,0.319602
0.809792,0.720213,-0.923589,0.369116,-0.296649,-0.880768
-0.265632,0.043343,0.455766,0.190746,-0.613914,0.765981
0.154806,-0.217793,0.799118,-0.295643,0.904850,-0.306335
0.086052,-0.058249,0.901251,0.960564,0.275037,0.040880
0.205568,-0.477125,0.768264,0.186428,-0.576095,-0.795839
-0.339701,0.686729,0.468449,-0.327806,0.392934,-0.859155
-0.092918,-0.211576,0.850462,-0.616974,0.736232,0.278038
-0.134934,-0.577382,0.695507,-0.020973,-0.955223,0.295141
-0.296576,-0.086654,0.426390,0.228428,-0.547450,0.805058
-0.117606,0.080976,0.877435,0.895193,-0.087622,-0.436981
0.584211,0.647227,0.438334,-0.776714,0.545476,-0.314915
0.173683,-0.057849,0.123674,-0.523676,0.851099,-0.037331
0.188186,-0.002841,-0.405659,-0.685943,0.727646,0.003714
-0.121537,-0.929751,0.078843,-0.621062,0.705449,-0.341501
0.141908,-0.064531,-0.001123,0.973509,-0.218224,0.068249
-0.422071,0.511413,0.462818,0.170425,-0.965554,0.196625
-0.004623,-0.206162,0.798265,-0.534917,-0.033860,-0.844226
0.116775,0.030178,-0.328039,-0.001810,-0.953391,0.301731
0.202303,0.064331,0.559733,0.881635,-0.380379,0.279340
0.205901,0.525312,0.765377,-0.600141,0.773204,0.204909
-0.811952,-0.186377,0.566771,-0.129009,-0.593660,0.794308
0.164493,0.207366,0.572999,0.804633,0.308387,0.507409
0.014808,-0.458143,0.826219,-0.174744,0.969984,-0.169103
0.153090,-0.024564,0.807650,-0.041763,-0.985593,-0.163899
0.517064,0.384085,-0.938149,0.368560,-0.267954,-0.890148
-0.360958,0.723289,0.449012,-0.206864,-0.838170,0.504656
0.628000,0.744143,0.430385,0.821289,-0.570511,0.001500
-0.392566,-0.311299,0.761382,0.976897,0.201796,0.070356
0.104929,0.122011,0.939528,-0.348567,0.925793,0.146320
0.180326,-0.088127,-0.875743,-0.703651,0.676907,-0.216036
-0.465195,0.079703,0.645542,-0.484710,0.837348,-0.252793
-0.012262,0.363365,0.516480,0.220521,-0.182464,-0.958163
0.171247,-0.086454,-0.746637,0.842603,-0.534359,0.066932
-0.490161,-0.092471,0.505233,0.352929,-0.778639,-0.518808
0.173516,-0.324333,0.838348,-0.451141,-0.584578,-0.674344
-0.692049,-0.394312,0.620759,0.441417,0.579557,-0.685029
-0.168591,0.031247,0.714404,-0.683336,-0.346145,0.642834
0.188352,0.082244,0.789578,-0.446568,-0.325658,0.833381
0.317114,0.571834,0.731196,0.923090,0.364287,-0.123290
-0.107919,-0.179026,0.816465,-0.601902,0.401416,-0.690347
-0.304437,0.520902,0.458865,-0.476852,-0.433973,-0.764382
0.268066,-0.237909,0.616252,0.612586,0.239830,0.753140
0.197153,0.285965,0.796801,0.704243,0.563890,-0.431359
0.666250,0.763390,0.461609,-0.215402,0.966570,0.139082
0.364776,-0.204559,0.820461,-0.225351,-0.603032,0.765225
0.150377,-0.000969,0.970766,0.989624,-0.106265,-0.096707
-0.012097,0.121277,0.551969,-0.230726,0.402317,0.885949
-0.645106,0.075493,0.545031,-0.536601,0.842642,0.044861
-0.213652,-0.042074,0.823475,0.972683,-0.111986,-0.203339
-0.024884,-0.055911,0.878743,-0.706338,-0.163325,0.688775
0.075534,-0.143469,0.323646,-0.557372,-0.752430,-0.350978
0.127183,-0.062259,0.956278,0.631317,-0.720658,0.286514
-0.606023,-0.617953,0.545500,-0.149373,0.245500,-0.957819
0.233745,-0.022557,-0.510124,-0.783698,0.620569,0.026676
-0.813004,-0.325136,0.574932,-0.404776,0.272263,0.872943
-0.448808,-0.237978,0.685923,0.810846,0.280775,0.513511
-0.241109,0.415631,0.368307,0.202418,-0.962463,-0.180809
0.182983,0.167595,0.486535,-0.013353,0.488024,0.872728
0.050126,-0.290379,0.882966,0.814668,0.157123,0.558237
0.268897,0.217793,0.806228,-0.285819,-0.617203,0.733054
0.176285,-0.322660,0.853690,-0.803602,-0.075134,-0.590406
0.380553,0.646358,0.649069,0.980578,-0.032763,-0.193376
-0.120098,0.709721,0.670809,0.026498,-0.735188,0.677345
0.187301,-0.035657,0.010280,0.807102,0.530622,-0.258894
-0.549116,-0.186781,0.642556,0.022379,-0.023648,0.999470
-0.136096,-0.324467,0.388383,-0.406690,0.501970,-0.763302
-0.210109,0.249540,0.533073,0.666005,-0.036257,-0.745066
-0.222232,0.503389,0.501280,-0.435125,-0.900270,-0.013439
-0.475879,-0.819671,0.329859,0.269289,0.286400,-0.919488
-0.105373,0.236371,0.323845,0.951820,-0.024125,0.305708
0.023997,0.157837,0.890630,-0.554492,0.717594,0.421423
0.381992,-0.517626,0.578686,-0.357634,-0.367953,0.858317
-0.128790,0.441299,0.728921,0.596540,-0.498872,0.628703
0.032521,0.069610,0.336869,-0.413820,-0.337273,0.845577
0.107808,0.093006,0.092265,-0.528160,0.785650,0.322182
0.172521,0.036260,0.934423,0.109877,0.203999,0.972785
-0.186858,-0.036930,0.706768,-0.477764,-0.648737,0.592352
0.294527,-0.401263,0.770141,0.168957,0.442534,-0.880691
-0.095852,0.401998,0.674748,0.955903,0.255578,-0.144668
0.409892,0.626438,0.646410,0.986381,0.152303,-0.062091
0.711755,0.488417,-0.920958,-0.332335,0.128578,0.934356
-0.674555,-0.038533,0.661425,-0.254728,-0.646704,-0.718949
-0.386310,-0.745012,0.551912,0.285217,-0.166477,0.943894
-0.049075,-0.558466,0.650818,-0.543702,-0.014881,-0.839146
0.225498,-0.348193,0.779255,-0.210224,-0.357533,0.909932
0.135154,-0.087058,0.775018,-0.610718,-0.300103,0.732777
0.143236,-0.028106,0.142685,-0.499923,0.811700,-0.302026
-0.123806,-0.156169,-0.257088,0.529775,-0.838055,-0.130394
0.076864,0.118805,0.881587,-0.012985,-0.485367,0.874214
-0.425615,0.201214,0.675203,-0.690962,0.293996,-0.660407
0.573805,-0.265380,0.712527,0.750027,-0.023706,-0.660982
-0.879599,-0.216390,0.570837,-0.329569,-0.255120,-0.909009
-0.661878,-0.267452,0.601592,-0.625486,-0.079569,-0.776167
0.107198,0.032450,-0.304792,-0.189780,-0.963409,0.189278
-0.747904,-0.114195,0.583307,-0.071982,-0.545028,0.835322
-0.064741,-0.165192,0.608019,0.657943,0.161375,0.735574
-0.000748,0.486349,0.512242,0.129813,0.505024,0.853287
0.656785,0.679777,-0.937879,0.364944,-0.269637,-0.891130
-0.763791,-0.417573,0.588398,0.827450,0.292353,-0.479433
0.449417,0.521437,0.475558,0.795336,-0.244695,-0.554586
-0.509646,0.354610,0.470738,0.860907,-0.007528,0.508707
-0.150157,-0.260366,0.773923,0.867346,-0.267220,0.419886
0.044646,-0.020554,0.915541,0.799526,0.581673,0.149717
0.503446,-0.420045,0.609683,-0.549193,-0.824332,0.137344
-0.071106,0.752629,0.683947,0.583965,-0.221731,-0.780910
-0.211437,-0.206432,0.448912,0.873566,-0.262679,-0.409734
-0.021064,-0.207031,0.892052,0.839027,0.469633,-0.274733
0.147886,-0.034857,-0.029475,0.813166,-0.579627,0.052860
-0.294142,0.273600,0.688582,0.269014,0.953195,-0.138023
-0.845278,-0.397853,0.578430,0.161556,0.132175,0.977972
0.357635,0.386092,0.486080,-0.557738,-0.126031,0.820393
0.181322,-0.128762,0.892478,-0.111683,-0.313532,0.942987
0.162555,0.062728,-0.258567,0.316345,-0.890724,-0.326400
0.432866,0.472711,0.481800,-0.219128,0.826719,0.518189
-0.060756,-0.291313,0.777549,0.588907,0.797627,0.130307
-0.233801,-0.613474,0.665107,0.534227,-0.743115,-0.402965
-0.011266,-0.158840,0.827143,-0.675973,-0.106668,0.729165
0.079298,-0.049963,0.218754,0.263999,0.873010,0.410072
-0.574359,-0.225679,0.634210,0.959039,0.283268,-0.001906
0.545295,0.405808,-0.938817,0.347014,-0.299332,-0.888809
-0.446817,0.052101,0.550860,-0.559757,-0.828573,-0.011827
-0.693986,-0.621359,0.358695,-0.733497,0.243438,0.634602
-0.003959,0.373992,0.520276,-0.257060,0.402319,0.878669
0.159290,-0.231561,0.780236,0.005773,-0.813091,0.582108
0.080073,-0.026303,0.962121,-0.602949,0.473529,0.642046
-0.339755,-0.940578,0.342201,0.405004,-0.404371,-0.820034
0.496305,0.726630,0.685212,-0.277385,0.952981,0.122005
-0.455784,0.597768,0.442613,0.982526,-0.183888,0.028786
-0.378838,0.265115,0.667780,-0.317120,-0.474669,-0.821051
-0.536162,-0.339573,0.594910,-0.439071,0.318650,0.840047
0.020398,0.134845,0.360543,0.174888,-0.920948,0.348238
-0.766891,-0.536074,0.583734,-0.379547,-0.111796,-0.918393
-0.125634,0.215186,0.815712,0.699914,-0.459364,0.546905
0.171026,-0.572769,0.762448,0.660461,0.454257,-0.597865
-0.519223,-0.536074,0.535689,-0.169319,0.201109,-0.964825
-0.255004,0.272466,0.539002,-0.400951,-0.069147,0.913486
0.068726,0.311698,0.033755,-0.057715,0.056007,0.996761
-0.160121,0.613005,0.758254,-0.315613,0.713889,-0.625101
0.156909,-0.142466,0.245116,-0.620958,-0.637267,0.456401
-0.409892,-0.623901,0.542727,0.106515,0.397035,0.911602
0.121813,-0.143269,0.924399,0.880342,-0.336594,-0.334220
-0.035236,0.705376,0.673809,-0.629348,0.493951,-0.599945
-0.165934,0.215855,0.783464,-0.064451,0.954239,0.292016
0.361786,0.276142,0.483720,0.820350,0.150202,0.551784
0.117273,0.553253,-0.990246,0.437023,-0.143615,-0.887911
-0.380776,-0.374192,0.770368,0.878503,0.377143,0.293249
-0.450580,-0.679712,0.559064,0.271955,-0.788191,-0.552083
0.224280,0.460416,0.768179,0.110602,-0.486854,0.866453
-0.593790,-0.591086,0.551472,0.306832,-0.195417,0.931486
-0.301670,0.662999,0.557586,-0.275022,-0.737044,-0.617357
0.072324,0.006517,0.898507,-0.565768,-0.714947,0.410801
-0.023002,-0.118939,-0.259519,0.574122,-0.785999,-0.229326
-0.471118,-0.329346,0.611318,0.836256,0.537135,-0.110280
0.486395,0.544029,0.476027,0.740447,-0.277729,-0.612050
0.507321,0.571900,0.646865,-0.182396,0.961356,-0.206222
-0.459548,0.444106,0.452780,0.408295,-0.771137,-0.488510
0.103324,-0.375665,0.763358,0.481771,0.825544,0.293895
0.066124,0.489825,0.692080,-0.105093,-0.734524,-0.670395
-0.940159,-0.152758,0.575160,0.675684,-0.029803,0.736589
0.175288,0.557732,0.746609,0.292627,-0.951303,-0.096911
0.080073,-0.063128,0.090914,-0.128801,0.475697,0.870128
0.236070,-0.192194,0.898919,0.533954,0.094012,-0.840270
-0.720004,-0.026971,0.565463,0.724965,-0.494010,0.479980
-0.129564,-0.051432,0.540935,-0.041318,-0.671372,0.739968
-0.142241,0.978411,0.582824,0.328606,0.793037,0.512943
0.072546,-0.018482,0.949125,-0.027306,0.994168,0.104332
0.526252,-0.466429,0.827527,-0.316075,0.948706,0.007247
-0.029036,0.054973,0.049438,0.120112,-0.986199,-0.113953
-0.652413,-0.546036,0.549751,-0.290555,-0.702709,0.649445
-0.407789,-0.089730,0.628480,0.510273,0.036796,0.859225
-0.265576,-0.827087,0.340196,-0.356754,0.579332,0.732872
0.088377,0.218462,0.712455,0.764751,0.403552,-0.502296
-0.393176,-0.029843,0.491469,-0.720805,-0.435138,-0.539532
-0.414543,0.130969,0.660955,0.767385,-0.637026,0.072922
0.028536,0.419176,0.538945,0.903640,-0.310299,-0.295212
0.234078,-0.485680,0.766998,-0.351819,-0.593999,-0.723456
-0.647375,-0.457340,0.573553,0.577633,-0.526563,0.623756
-0.017079,0.417773,0.655367,0.270006,0.864058,0.424854
0.063798,-0.086723,-0.134040,-0.646810,-0.758677,-0.077752
-0.439786,0.086520,0.671463,-0.177958,0.011707,0.983968
-0.090372,0.248805,0.361268,0.675995,0.701432,0.225883
-0.300784,0.183705,0.721598,0.914275,-0.383800,0.129609
-0.132277,0.896801,0.555751,0.489731,0.601211,-0.631433
-0.141521,-0.251412,0.818712,-0.943305,-0.222512,0.246301
-0.295248,0.171071,0.804067,0.876249,0.343422,-0.338007
0.077859,-0.084251,0.094711,0.309518,-0.394631,-0.865139
-0.352432,0.044880,0.594625,0.584586,0.756843,-0.292314
-0.049462,0.147210,0.835618,0.155672,-0.954742,-0.253443
0.093526,-0.073090,0.625750,0.738689,-0.673745,0.020151
-0.928258,-0.150286,0.575999,-0.648987,0.071175,-0.757463
0.235683,0.386826,0.701479,0.551044,0.313992,-0.773149
0.061751,0.183840,0.463415,-0.299305,-0.198180,0.933350
-0.688450,-0.002442,0.617460,-0.682406,0.669010,-0.294531
0.060975,-0.526719,0.372984,0.479477,0.147407,-0.865085
0.026598,-0.156303,0.894256,-0.422719,0.590080,-0.687833
-0.105483,-0.157037,0.847249,0.718985,0.491947,0.490968
0.067618,-0.057045,0.919920,0.788833,-0.197611,-0.581973
0.030639,0.073555,0.898791,0.859223,0.391426,-0.329425
0.240665,-0.067472,-0.867979,0.323995,-0.931165,0.167209
-0.597388,-0.108712,0.560102,0.108547,0.636199,0.763851
-0.022116,0.344718,0.632376,0.933843,0.353893,-0.051941
0.116001,0.581927,0.627172,0.962928,-0.216566,0.160836
-0.624070,0.110715,0.499829,0.315556,0.793656,0.520130
-0.627447,-0.017878,0.609228,0.427971,-0.725490,0.538985
0.167371,-0.033454,-0.530812,0.999542,-0.017956,0.024356
-0.103380,0.621694,0.621712,0.433047,0.827244,0.357963
-0.291927,-0.419711,0.751329,-0.570150,-0.098935,-0.815562
-0.219630,-0.751964,0.474549,-0.660242,0.506876,-0.554218
0.106923,-0.098085,0.893516,0.119504,0.359487,-0.925466
-0.623905,0.254888,0.508275,0.226879,-0.663653,0.712804
-0.259211,-0.390702,-0.006640,-0.133585,-0.427596,0.894045
-0.304106,0.705911,0.564809,-0.220861,0.874732,0.431351
-0.096737,-0.068007,0.825238,0.853618,-0.287248,0.434540
-0.627778,-0.019082,0.665349,0.300450,-0.555319,0.775468
-0.368928,-0.655447,0.547306,0.310902,0.317255,0.895929
0.481026,0.182436,0.505303,0.155205,0.764269,0.625943
0.146834,0.436286,0.758496,0.944774,0.280901,-0.168812
0.198262,-0.125156,0.194569,0.752100,-0.088439,-0.653088
-0.544079,0.073086,0.624072,0.243009,0.693740,0.677991
-0.216032,-0.930890,0.351031,-0.458094,0.100649,0.883187
-0.382381,-0.542760,0.679027,0.980146,0.028561,0.196208
-0.130395,-0.387895,0.822565,0.804430,0.468336,0.365450
0.318276,0.425190,0.565619,0.934113,-0.114333,-0.338174
0.177780,0.400260,0.447988,0.760761,0.571879,0.306916
0.153034,-0.058249,0.673980,0.020970,-0.998968,-0.040299
-0.218247,-0.544098,0.594597,-0.114101,-0.752089,-0.649109
0.392455,0.169333,0.805019,-0.098843,-0.166549,0.981066
-0.477816,-0.236710,0.707820,-0.765426,0.451150,-0.458898
-0.729968,-0.301271,0.587075,0.604435,-0.492794,-0.625949
-0.531015,-0.142735,0.565662,-0.027769,0.764197,0.644385
-0.628831,-0.357352,0.579696,0.118321,-0.685817,0.718092
0.066733,0.125891,0.893260,0.168420,0.826933,0.536486
-0.179496,-0.235237,0.853633,-0.699604,-0.714527,0.002286
0.437294,0.726230,-0.962434,-0.388027,0.069359,0.919034
-0.017852,0.685994,0.666359,0.354766,-0.307896,0.882803
-0.502505,-0.738061,0.568634,-0.101345,0.829998,0.548482
0.573639,0.634793,-0.935945,0.410524,-0.150366,-0.899366
-0.488167,0.403266,0.511503,0.985898,0.097829,-0.135776
0.282404,0.539684,0.780833,-0.580907,0.124035,0.804464
-0.225111,0.433010,0.532603,-0.459520,0.872247,-0.167411
0.133936,-0.013668,0.015925,0.542802,-0.563272,0.622970
0.049737,0.438827,0.782639,0.900510,-0.264922,0.344816
0.044313,0.458808,0.801379,0.566228,-0.161918,0.808188
-0.870853,-0.414228,0.579582,-0.452321,0.237692,-0.859597
0.123916,-0.067407,-0.334466,-0.594512,-0.798001,0.098739
0.804201,0.787121,0.500953,-0.376712,0.682614,-0.626199
-0.253952,0.114395,0.783577,-0.165155,-0.759006,0.629789
-0.796896,-0.581592,0.592805,0.358722,-0.365840,0.858766
0.153700,0.019682,0.584487,0.952298,-0.188417,-0.240056
-0.258989,-0.567624,0.513394,0.208546,0.218398,0.953316
-0.552437,0.132638,0.505645,-0.347475,0.850974,-0.393833
0.052285,-0.065200,-0.160444,0.922304,0.357332,-0.147208
0.173627,-0.040205,-0.633485,0.869680,-0.477318,-0.125792
0.542805,-0.296062,0.741931,0.080357,0.980153,0.181225
0.107973,-0.081710,0.362320,-0.479129,0.873484,0.086372
-0.295414,-0.386761,0.757742,-0.531243,-0.256851,-0.807347
0.147222,-0.027371,0.282468,0.483259,-0.874902,0.031744
-0.398766,-0.408349,0.785198,0.966812,0.233159,0.104455
0.219740,0.039332,0.838860,0.201525,0.002454,0.979480
-0.540425,-0.288307,0.634480,0.764612,0.443390,-0.467733
-0.428715,-0.143469,0.723432,-0.125602,0.898084,0.421509
-0.628388,0.153093,0.484772,-0.517026,-0.688772,-0.508210
-0.405464,-0.696956,0.553249,0.416268,0.022553,0.908962
0.170140,-0.015741,-0.477662,0.695930,-0.718047,0.009471
0.256330,0.515220,0.742215,-0.643462,0.526423,-0.555730
0.305322,0.362765,0.820276,0.985527,-0.155919,0.066524
0.035346,0.507134,0.812214,-0.628108,0.345058,-0.697434
-0.199591,0.210038,0.832774,0.967770,-0.251127,0.018893
0.036010,0.092537,0.871705,-0.705837,0.613022,0.354962
-0.916633,-0.603381,0.573596,0.930217,0.058180,-0.362369
0.044811,0.120342,0.914062,-0.488601,0.504007,0.712212
-0.329404,-0.521971,0.677364,0.857363,0.496678,-0.135058
-0.056603,0.064062,0.859519,0.991757,-0.109557,0.066446
0.146780,-0.352004,0.224414,-0.262513,0.230528,0.936987
-0.495476,0.261505,0.521072,-0.449415,0.069390,0.890624
0.129065,-0.350266,0.856093,0.113347,0.831737,-0.543476
0.289158,-0.260970,0.709171,0.838381,0.451798,-0.304953
0.002739,-0.101295,0.806981,-0.285973,0.891303,0.351851
-0.681198,-0.049360,0.682482,0.655978,0.747310,-0.105926
0.069113,-0.029978,0.940651,0.821869,0.369739,0.433387
0.067065,-0.121211,0.880648,0.618129,0.763798,-0.185822
0.277533,0.489556,0.735021,0.895485,-0.428347,0.120935
0.142572,0.473650,-0.984317,-0.389386,0.147612,0.909170
-0.056547,0.063262,-0.139628,0.091255,0.298453,0.950052
0.002684,-0.148348,0.860643,0.896468,0.438429,-0.064225
-0.482964,-0.013468,0.626987,0.131555,0.405319,0.904660
-0.281022,-0.256491,0.735575,0.371283,0.533664,0.759836
-0.619198,-0.005048,0.663415,0.660899,-0.215747,0.718795
0.464861,-0.479663,0.606341,0.181091,0.931424,-0.315684
-0.509148,0.582727,0.466487,0.280167,-0.454760,0.845399
0.577901,-0.286504,0.752694,-0.428841,0.890936,0.149430
0.430817,-0.328942,0.812839,-0.606333,-0.076902,0.791484
0.097732,-0.037598,0.897526,0.842991,0.437006,-0.313676
-0.313792,-0.541956,0.603228,0.484170,0.757797,0.437404
0.166652,-0.064666,0.183336,-0.502310,0.590939,0.631250
0.564892,0.667478,0.486620,0.149378,0.454511,0.878127
0.107918,-0.016410,0.215797,0.137733,0.975516,-0.171460
0.172078,-0.143734,-0.838490,0.643609,0.763585,0.052017
0.504275,0.391771,-0.937210,0.382810,-0.270340,-0.883387
0.062082,0.113456,0.650462,0.988754,0.148330,0.019099
-0.911761,-0.450923,0.569515,0.683338,0.440697,-0.582096
0.433917,0.297061,0.590658,-0.123557,0.978801,0.163349
0.139362,0.124418,0.574136,0.710881,-0.445860,-0.543927
0.329292,0.083048,0.774691,-0.680408,0.543061,-0.492067
-0.301947,-0.068945,0.611233,0.476751,0.545023,0.689680
0.121426,-0.347724,0.890530,0.087546,-0.996153,-0.003850
-0.582995,-0.360493,0.586421,0.068554,-0.654316,0.753107
0.322427,0.507134,0.586478,0.928671,-0.311662,-0.201088
-0.506103,0.435951,0.501891,0.930635,-0.156387,-0.330849
0.132941,-0.020954,-0.325651,-0.102654,-0.917315,0.384701
0.254283,0.342915,0.806711,0.301975,-0.708406,0.637943
-0.068560,-0.073555,0.093786,-0.680673,-0.730194,0.059174
0.159401,-0.017209,-0.024342,0.823293,-0.536061,-0.186620
0.224888,-0.026168,0.138447,0.232169,-0.925045,0.300647
-0.008830,0.634928,0.554841,0.793301,0.220656,0.567437
0.418528,-0.351669,0.796033,0.761170,0.003911,-0.648541
0.039885,-0.077765,-0.258951,0.553484,-0.759201,-0.342446
0.269063,-0.082644,0.673951,0.270055,0.959540,-0.079708
-0.722219,-0.658858,0.562491,0.821250,-0.324313,0.469436
-0.630159,0.172743,0.497355,0.953489,0.217045,-0.209167
-0.923164,-0.551046,0.605432,0.954296,0.139155,0.264490
0.025215,0.565483,0.496616,0.594911,0.527764,0.606255
0.499238,0.376130,0.487203,-0.636893,-0.003230,-0.770946
-0.026987,0.721282,0.687857,0.800394,0.522421,0.294018
-0.885743,-0.511413,0.587687,0.503038,0.612804,0.609446
-0.395112,-0.292251,0.766913,0.907709,0.271453,0.319965
-0.271611,0.269525,0.701208,0.789902,-0.612654,-0.026625
0.342743,0.652106,0.607237,0.989784,-0.130898,-0.056508
-0.826899,-0.651172,0.616508,-0.563876,-0.711646,0.419051
0.048687,0.211976,0.644234,0.957881,0.287054,-0.007965
0.248139,0.281890,0.846296,-0.787593,0.560476,-0.256053
0.219573,-0.106909,0.804720,-0.167652,-0.708240,0.685776
-0.767224,-0.431541,0.578629,-0.319439,0.058573,0.945795
-0.643446,-0.310095,0.432845,-0.905095,0.399992,-0.144256
-0.030143,-0.153827,0.398166,-0.250187,-0.399731,0.881828
0.500179,0.641010,0.662107,-0.189511,-0.766453,0.613706
-0.164273,-0.964978,-0.504507,-0.871891,0.458416,-0.172225
0.079023,0.379605,0.605801,0.690991,0.598004,0.406107
0.233635,0.094005,0.902730,0.842384,-0.174401,-0.509877
0.497523,0.525716,0.431566,-0.349715,0.930889,-0.105572
-0.320879,-0.907428,0.344007,-0.502358,0.403730,0.764617
0.164050,-0.002907,-0.568719,-0.490404,0.870032,0.050485
-0.021229,-0.448585,0.720901,0.839218,0.373110,-0.395602
-0.105262,0.629114,0.755993,-0.233939,0.744476,-0.625323
0.302609,-0.366506,0.624470,-0.353722,-0.605062,0.713289
0.169973,-0.138855,-0.929845,0.849727,-0.527185,0.006362
-0.482356,0.608126,0.419622,0.603740,-0.796844,-0.023174
-0.750285,-0.363230,0.588426,-0.472678,-0.236208,-0.848988
0.563729,-0.231831,0.713678,0.839371,0.033099,-0.542550
0.767001,0.613074,0.501024,-0.151537,0.459737,0.875030
0.142240,0.511344,0.774861,-0.396548,0.575603,0.715144
0.174291,0.591551,0.796801,-0.409255,0.568645,-0.713550
0.180880,0.059722,0.184430,0.830794,0.384847,0.402088
-0.340973,-0.703773,0.550007,0.126452,0.245965,0.960995
0.090370,-0.301071,0.834750,-0.472356,0.747501,0.467036
-0.194609,0.526181,0.553363,0.842207,0.523926,-0.127237
-0.028924,-0.164788,0.894611,0.954763,-0.053575,-0.292501
0.072821,0.402467,0.782724,-0.606387,0.420721,-0.674751
0.049737,0.193263,0.831324,0.183269,0.068733,-0.980657
0.121370,-0.158641,0.931125,0.192014,-0.468408,0.862395
0.527415,-0.457140,0.846978,0.136023,-0.841122,0.523461
0.100169,0.516223,0.497682,0.941860,0.176021,0.286211
0.763735,0.803961,0.512299,-0.654040,-0.036307,0.755588
0.081900,0.865789,0.541760,-0.344277,0.024617,0.938545
0.642668,0.721351,0.485924,-0.296328,0.609090,0.735663
0.477428,0.555190,-0.954813,-0.364519,0.217551,0.905427
-0.045698,-0.005179,0.871847,0.602521,-0.343352,-0.720471
0.528190,0.549777,0.450249,-0.551066,0.774087,-0.311632
0.199091,-0.133776,-0.664425,0.976298,0.213195,0.037295
-0.417755,0.103564,0.637466,-0.713691,0.615719,-0.333970
-0.000582,0.135114,0.153690,0.541055,0.522293,-0.659143
-0.398932,-0.183505,0.703796,0.437342,-0.234118,-0.868286
-0.093195,0.730975,0.677776,0.429688,0.516503,-0.740671
-0.202691,0.846873,0.560117,0.937474,-0.223886,-0.266490
-0.296301,0.185243,0.692080,0.779906,-0.534932,-0.324953
-0.106923,-0.161582,0.826504,0.044570,-0.851853,0.521881
-0.007003,-0.298868,0.839627,-0.257126,-0.072110,-0.963684
-0.244430,-1.000000,0.343324,-0.040393,0.481477,0.875527
-0.852973,-0.038867,0.573240,0.168149,-0.899148,0.404053
-0.723491,-0.055308,0.638518,0.970377,-0.047672,0.236846
-0.244043,-0.044550,0.598279,0.430414,0.830947,0.352522
-0.425171,-0.175081,0.670638,0.977716,0.201981,0.057237
0.012261,0.376933,0.795407,-0.112725,-0.986553,0.118350
-0.230258,0.118670,0.737992,-0.105286,-0.950527,-0.292256
-0.798112,-0.277545,0.580648,-0.587960,0.357426,0.725638
0.045918,-0.083448,0.650974,0.970835,0.198305,0.134736
0.222121,-0.042208,-0.175188,0.913222,0.405826,-0.036493
0.213042,-0.202956,0.818129,-0.744486,-0.318173,-0.586946
0.210440,0.346256,0.759462,-0.371095,0.896467,0.242148
-0.381051,-0.467702,-0.153804,-0.219864,-0.118720,0.968280
0.299233,0.052701,0.785056,-0.676414,0.642661,-0.359793
-0.352432,-0.203156,0.726845,0.740956,-0.233444,0.629673
-0.631875,-0.040805,0.664339,-0.335219,-0.390220,-0.857529
0.169642,-0.049494,-0.757372,0.834413,-0.550667,0.022824
0.374574,0.212176,-0.070752,0.338640,0.151654,-0.928614
0.130726,-0.071817,-0.010593,0.983852,-0.171989,0.049553
-0.348114,0.680377,0.407564,0.654143,-0.561071,-0.507244
0.046915,0.421783,0.336258,-0.405024,0.265872,0.874796
-0.154309,-0.051297,0.847661,0.786263,-0.601719,-0.140443
-0.342689,-0.456471,0.753007,-0.036249,-0.228486,0.972872
0.339312,-0.550176,0.785980,0.617767,-0.776000,0.127234
0.712363,0.759450,0.486762,-0.615388,0.684916,0.390113
0.076531,-0.671488,0.708844,-0.325903,-0.935795,-0.134447
-0.331950,0.408815,0.462335,0.464891,-0.028237,0.884917
-0.082677,0.063528,-0.139158,-0.321912,-0.564927,-0.759757
0.661159,0.458808,0.488739,0.028236,-0.621535,0.782877
-0.069834,0.818467,0.536627,0.362772,0.804937,0.469545
0.546236,0.208100,0.492748,-0.667225,-0.467149,-0.580157
-0.643777,-0.057849,0.638277,-0.107691,-0.197884,0.974292
0.122255,-0.072755,0.356477,-0.409160,0.904222,0.122354
-0.114285,-0.190322,-0.246026,-0.243277,0.917690,0.314104
0.163994,-0.105036,0.714204,-0.299428,-0.794570,-0.528206
-0.137370,-0.299668,0.829888,0.253384,-0.169134,0.952465
-0.767389,-0.562411,0.585753,-0.499106,-0.108798,-0.859684
0.128732,-0.012934,0.959704,0.284321,-0.958112,0.034395
0.068947,-0.235571,-0.246083,0.352456,-0.032046,0.935280
-0.572034,0.506999,0.484303,0.943199,0.278632,0.180940
-0.108473,0.224744,0.825594,-0.476842,-0.868706,0.134057
-0.053393,0.284696,0.815825,0.549093,-0.821160,0.155541
-0.196326,0.156099,0.798720,-0.284894,0.934138,0.214994
0.713416,0.549043,0.506071,-0.806546,0.080964,0.585600
0.120595,-0.037998,0.347277,-0.683124,0.668984,0.292918
-0.391625,-0.806571,0.541305,0.979324,-0.178376,0.095432
0.608126,0.671023,-0.942372,0.370419,-0.308362,-0.876187
0.047080,0.036260,0.051301,-0.380975,0.908770,0.170282
0.651859,0.765128,0.487687,-0.194288,0.891157,0.409989
-0.557752,-0.071552,0.649225,-0.364036,-0.377911,0.851271
-0.782833,-0.612136,0.586293,-0.576755,0.477343,-0.662946
0.152980,-0.419311,0.237779,-0.282389,0.409051,0.867717
-0.333887,0.133642,0.754358,0.939352,0.339843,-0.046094
0.218134,0.025633,0.965378,-0.116871,-0.992580,-0.033570
-0.360182,0.557128,0.460216,-0.460532,-0.690405,-0.557898
0.115170,-0.010927,0.642940,-0.650803,0.022707,-0.758907
0.366546,0.689001,-0.969743,-0.322105,0.133739,0.937210
0.220737,-0.041474,-0.713735,-0.575770,-0.799290,-0.172114
0.390628,0.391970,-0.954514,-0.383724,0.252762,0.888182
0.245148,-0.106709,0.427897,0.019035,0.997539,0.067475
0.232693,-0.206766,0.806157,0.474516,0.520665,-0.709748
0.145450,0.088996,0.177577,0.936967,0.234413,0.259119
0.315951,-0.211107,0.740594,0.727916,0.652687,0.210088
0.059813,-0.035657,0.950050,0.805324,0.373297,-0.460546
-0.511972,-0.526050,0.519963,-0.336521,0.062716,0.939585
0.158736,-0.029040,-0.404280,0.758298,-0.647887,0.072295
0.266517,0.705241,0.773980,0.024123,-0.933674,0.357312
0.111904,0.005848,-0.258311,-0.196064,0.915995,0.350018
-0.033629,0.878819,0.560515,-0.122998,-0.464716,0.876876
-0.355145,0.117870,0.371378,-0.741557,0.634884,-0.216831
0.088544,0.451323,0.470013,0.802182,0.547014,0.239333
0.256551,-0.598367,0.784430,0.773396,0.612449,0.163599
-0.094856,-0.568758,0.645443,-0.271519,-0.218371,-0.937332
-0.086054,0.246533,0.364012,0.641517,0.737104,0.212446
0.247419,0.526719,0.781686,0.185003,-0.952720,-0.241036
0.161393,-0.059587,-0.480009,0.985881,-0.139261,0.092979
0.151540,-0.252216,0.853874,0.924205,0.372168,-0.085648
0.438125,-0.511678,0.811929,0.775238,-0.486446,-0.402959
0.437349,0.639138,0.603924,0.181179,-0.667772,0.721979
0.299066,-0.376399,0.788995,-0.118342,-0.828345,0.547577
0.448864,0.400195,0.028779,0.096519,0.118591,-0.988241
0.170140,-0.030113,-0.579994,-0.482657,0.875548,0.021388
-0.433641,0.004914,0.601720,0.008358,0.986190,-0.165408
0.210606,-0.057580,0.961652,0.779095,-0.235033,0.581181
-0.127295,0.661999,0.569231,0.480966,-0.279585,0.830966
-0.034405,0.136918,0.547007,-0.562848,-0.060891,0.824315
-0.188796,-0.755974,0.672501,0.017616,-0.289698,0.956956
-0.704891,-0.142531,0.627499,0.837751,-0.052923,0.543481
-0.036343,-0.366372,0.774051,0.502225,0.862270,-0.065279
-0.041988,0.468367,0.713977,0.518173,0.739353,0.429947
0.054388,0.052501,0.917460,0.122774,-0.823982,0.553154
-0.833265,-0.663337,0.600071,0.742418,-0.366783,0.560612
0.066898,-0.088727,0.479312,0.153409,-0.980351,0.124003
0.176506,-0.253550,0.761624,0.740692,0.022024,-0.671484
0.073210,0.136648,-0.156306,0.885198,-0.195518,-0.422134
-0.519721,0.043412,0.638234,0.229948,-0.972752,0.029637
-0.172190,-0.081510,0.783805,0.890841,0.449937,-0.062915
-0.395389,-0.683588,0.551372,0.416924,0.069463,0.906283
-0.214870,-0.043347,0.761467,0.712111,0.535733,-0.453748
-0.087105,0.405473,0.501052,0.308320,-0.908296,-0.282732
-0.327964,0.208635,0.525437,-0.270259,-0.051831,0.961391
0.210606,0.164723,0.799019,0.980139,0.193300,0.044301
0.003016,0.372054,0.797839,0.923517,0.312322,0.222648
0.388358,-0.397388,0.621029,0.636642,0.769743,-0.046718
0.507543,-0.253350,0.693246,-0.469265,0.719976,0.511297
-0.262311,-0.009658,0.719707,0.286640,0.938904,0.190514
0.021506,-0.041539,0.201720,0.048664,-0.798114,0.600538
0.687785,-0.148413,0.766088,-0.365337,0.504357,-0.782402
0.175786,-0.034253,0.289322,0.576679,-0.718450,0.388936
0.674001,0.549911,-0.929575,-0.282893,-0.063044,0.957077
-0.076144,0.638603,0.612967,-0.436399,-0.882740,-0.174143
0.507764,0.731709,0.471136,0.958758,-0.252641,-0.130212
0.081457,0.023426,-0.100398,-0.324622,0.742664,0.585723
-0.727476,-0.436420,0.574179,0.544529,0.235614,0.804969
0.019070,-0.326605,0.732077,-0.283469,-0.433403,0.855457
-0.600155,0.047891,0.470425,0.254847,-0.239059,0.936965
-0.504997,0.059852,0.672657,0.907070,-0.298685,0.296666
-0.751889,-0.577448,0.551756,0.784145,-0.592256,0.185338
-0.087437,0.619222,0.726233,-0.340095,-0.732593,-0.589613
0.157519,0.008789,-0.153263,0.771351,0.629602,-0.092843
-0.078913,0.056511,0.055865,0.415046,-0.900496,-0.129780
0.174291,-0.571031,0.782895,0.826417,-0.127975,-0.548322
0.199978,-0.032919,0.920731,0.861717,0.399288,0.313069
-0.098177,-0.567624,0.716536,0.053888,-0.997114,-0.053470
0.199757,-0.042143,0.021072,0.989613,-0.082234,0.117915
-0.632264,0.182567,0.494597,0.985592,0.169121,-0.002760
-0.118659,0.734920,0.691142,-0.692338,0.019859,0.721300
-0.486008,0.134045,0.507010,-0.224966,-0.454464,0.861889
0.725594,0.639007,0.496971,-0.041831,0.133752,0.990132
0.046251,-0.031981,-0.267695,0.606096,-0.673942,-0.422433
-0.080185,-0.474584,0.707237,-0.513038,-0.076705,0.854932
0.073319,0.178757,-0.172402,-0.385612,0.537622,-0.749844
0.514129,0.821339,0.500185,0.783220,0.595238,0.179608
-0.302722,-0.054239,0.689052,0.082045,0.912353,0.401099
-0.172467,0.588879,0.567240,0.359153,-0.026909,-0.932891
-0.046916,0.769607,0.540466,-0.463280,-0.623772,-0.629508
0.235185,-0.191325,0.211659,0.625300,0.603857,0.494325
-0.857124,-0.205359,0.566046,0.336371,-0.440425,0.832394
-0.058706,0.052701,0.766529,0.055351,-0.964555,-0.258010
-0.309696,-0.676571,0.541789,0.360266,-0.064433,0.930622
-0.212655,-0.506800,0.652282,0.412860,-0.281362,-0.866246
-0.425725,-0.574441,0.540580,0.016272,0.269424,0.962884
0.351214,0.175150,0.036286,0.119802,0.186190,0.975182
-0.160563,-0.786452,0.358951,0.572960,-0.272333,-0.773015
-0.140524,-0.222672,0.833414,-0.066337,0.124228,0.990034
-0.189572,0.504127,0.585724,0.201965,-0.087611,-0.975466
0.169531,-0.022292,-0.457074,-0.789234,0.610335,0.067824
-0.565834,-0.189653,0.623944,0.844609,0.489754,-0.216280
-0.006505,0.188918,0.747832,0.495858,0.526504,-0.690593
-0.467853,-0.326405,0.619977,0.882680,0.426658,-0.197075
-0.075813,0.009054,0.884487,-0.673984,-0.410075,0.614479
0.223171,-0.041339,-0.230670,-0.721498,-0.678944,-0.135923
-0.525313,0.054638,0.686777,-0.581585,-0.276025,-0.765225
-0.415097,0.356148,0.507977,0.214379,0.391634,0.894798
-0.071549,0.686125,0.673752,0.411597,0.765614,-0.494391
-0.450303,-0.025499,0.657600,0.995012,-0.051778,0.085262
0.034128,0.076831,0.880549,0.950106,-0.281921,0.133487
-0.400150,0.212176,0.479397,-0.244014,-0.771802,0.587178
-0.525202,0.028240,0.681629,0.887129,0.053278,0.458436
-0.182596,-0.140193,0.616622,0.476558,0.402779,0.781449
0.056769,0.005044,0.216607,0.631064,0.770778,-0.087511
0.048242,0.416904,0.512598,0.377650,0.319538,0.869066
-0.068672,0.349997,0.443296,0.833659,-0.275255,0.478799
-0.554818,0.110850,0.490345,0.020706,0.908673,0.416995
-0.774752,-0.546101,0.582113,-0.373220,-0.128971,-0.918735
0.193003,0.584999,0.801152,0.347915,-0.080003,0.934107
0.041821,0.010258,0.884288,0.743212,0.257803,-0.617392
0.920341,0.880157,0.504678,0.364111,-0.732443,0.575283
-0.462317,0.101161,0.495478,0.909178,-0.104963,-0.402962
-0.036231,0.064866,0.870866,0.779721,-0.204943,-0.591637
0.028370,0.364634,0.789194,0.471927,-0.690642,0.547995
-0.099173,0.701231,0.653249,-0.157826,-0.981705,-0.106519
0.054719,0.100626,0.753505,-0.665247,-0.597662,-0.447489
-0.227657,0.193398,0.831935,0.788790,-0.151586,-0.595678
0.201804,-0.008724,-0.599744,0.123384,-0.963058,0.239366
0.310194,0.196205,0.535461,0.807817,-0.393917,0.438475
-0.051677,-0.147614,0.834921,-0.155765,0.983127,0.095909
0.266683,0.580589,0.764197,0.847729,-0.529242,-0.035475
0.286501,0.280752,0.838063,0.743512,-0.367224,0.558871
0.159180,-0.635397,0.642869,0.510958,0.567822,-0.645369
0.635916,-0.246333,0.757571,-0.134150,-0.640245,0.756367
0.656675,0.475253,0.490758,0.028236,-0.621535,0.782877
-0.128623,0.199611,0.402744,0.651625,0.654814,0.382888
0.100446,-0.084586,0.963287,0.809781,-0.585573,-0.036860
-0.110633,-0.358151,0.822935,0.780629,0.221481,0.584436
0.011210,0.218393,-0.158140,-0.599676,0.063071,-0.797753
0.136537,-0.078234,0.121100,-0.646767,0.760321,-0.060043
0.502338,0.281955,0.479326,-0.153509,-0.107807,0.982249
0.272606,-0.252281,0.622494,0.559383,0.253769,0.789108
-0.063910,0.354076,0.425579,0.980656,-0.119315,-0.155170
-0.105206,0.625639,0.717460,-0.706827,-0.441253,-0.552894
0.115724,-0.011062,0.384473,-0.057596,0.997703,-0.035664
-0.336766,-0.434283,0.756164,0.049202,0.459064,0.887040
-0.127073,0.899074,0.594213,-0.049926,0.015576,0.998631
0.491267,0.536608,0.627215,-0.030955,-0.224254,0.974039
-0.393009,-0.482804,0.671605,0.922859,0.317141,0.218526
-0.310361,0.635997,0.564667,-0.367328,-0.081275,-0.926533
-0.644386,0.575645,0.524897,0.616065,0.756396,0.219838
-0.079964,0.648361,0.715228,-0.124551,0.850886,0.510373
0.180934,-0.126690,0.922465,-0.059295,-0.707815,0.703905
-0.390076,-0.344718,0.761012,0.986856,0.152673,0.052968
0.075977,-0.063262,-0.245130,-0.077752,0.169953,0.982380
0.005120,0.682584,0.662548,0.448649,-0.199664,0.871119
0.177834,-0.142665,0.910507,-0.483498,0.806336,-0.340663
0.239337,-0.344987,0.833670,-0.487621,-0.418262,-0.766344
0.109303,-0.026168,0.584374,-0.604739,0.600608,0.523029
-0.009439,0.489286,0.555410,0.703275,-0.167889,0.690809
0.206288,0.014602,0.497241,0.853466,-0.518695,-0.050506
0.751170,0.761387,0.503995,0.815455,-0.439336,0.376852
0.244650,0.477925,0.723546,-0.298017,0.768470,0.566250
0.150986,-0.145741,0.887487,-0.278357,0.565156,-0.776605
-0.520220,-0.000704,0.660486,-0.716898,-0.597934,0.358514
-0.297961,0.161113,0.706356,0.970287,0.193054,0.145851
-0.241939,0.091403,0.699502,0.925741,0.378151,-0.002102
0.622242,0.615346,-0.935149,0.360855,-0.217148,-0.906990
0.137590,-0.093940,0.444832,-0.194136,-0.980774,-0.019830
-0.164993,-0.267118,0.733357,-0.823474,0.555217,-0.116724
0.420741,0.593354,0.479170,0.608829,0.325773,-0.723325
0.118547,0.001772,0.941419,-0.672631,0.659609,-0.335385
0.172022,-0.019351,-0.486179,0.861189,-0.508239,0.006895
-0.827563,-0.385154,0.574406,0.133450,0.207713,0.969044
-0.457833,-0.478929,0.532219,-0.083828,0.345770,0.934567
-0.891058,-0.608195,0.593573,-0.224897,-0.240155,-0.944324
-0.120485,-0.132842,0.405858,0.251103,-0.392376,0.884866
0.291925,0.217389,0.805176,-0.067051,-0.397935,0.914960
0.425669,0.413225,0.539542,0.842562,-0.430478,0.323693
0.719616,-0.242123,0.748543,0.184437,-0.701178,0.688718
0.697252,0.471842,0.483378,0.203347,-0.454281,0.867340
0.861717,0.735050,0.505503,-0.357351,0.430414,0.828881
0.197321,-0.073555,0.414489,0.096602,0.989060,-0.111484
0.153975,-0.056645,-0.684217,0.999999,-0.000334,-0.001080
0.328573,0.479397,0.480165,-0.867435,0.329816,-0.372530
0.018682,0.269659,0.792293,0.191477,0.367192,0.910223
-0.097678,0.234503,0.804806,-0.270208,0.902724,0.334778
0.031857,0.875213,0.526105,-0.566224,0.593643,0.571819
-0.314402,-0.939310,0.345486,-0.232994,0.334486,0.913145
-0.210773,-0.090065,0.788511,0.873371,0.343009,-0.345785
0.339699,-0.132508,0.848628,0.868448,-0.250266,-0.427978
-0.647596,-0.436220,0.572245,0.577633,-0.526563,0.623756
-0.419082,0.561138,0.465136,-0.227588,-0.263789,0.937347
-0.110300,-0.001038,0.857017,0.709162,0.465914,-0.529163
-0.722273,0.086789,0.653832,0.905087,-0.051307,0.422120
-0.210773,-0.859707,0.357088,0.540098,-0.182149,-0.821654
-0.298956,-0.232161,0.706114,-0.185473,-0.968170,0.168070
0.676603,0.476052,-0.927428,-0.323792,0.129512,0.937222
-0.487448,-0.124487,0.559818,0.121528,0.760251,0.638161
0.429156,0.549577,0.651443,0.423762,-0.612429,0.667351
-0.453846,0.069011,0.637679,-0.459607,0.818121,-0.345600
-0.712032,-0.152423,0.645941,-0.692182,-0.687169,0.220641
-0.213042,-0.218262,0.861993,0.937297,-0.015959,-0.348166
0.242824,-0.598033,0.767994,-0.487446,-0.471554,0.734869
-0.162224,-0.279552,0.829248,-0.005909,0.231590,0.972796
0.627944,-0.122349,0.751841,0.671907,0.378184,-0.636803
-0.323812,-0.567425,0.531907,-0.379288,-0.496465,-0.780809
0.292866,0.248736,0.517574,-0.898886,0.268374,-0.346379
0.180603,0.315574,0.759605,0.927527,-0.233898,-0.291522
0.239780,-0.137052,0.823461,-0.488190,0.633144,-0.600665
-0.403250,-0.112657,0.705559,0.177623,0.395813,0.900989
0.230037,-0.634462,0.783791,0.246349,-0.960691,0.128004
-0.535664,0.126625,0.499843,-0.421544,0.713779,0.559304
0.130947,0.375061,0.442912,0.683013,0.514691,0.518254
-0.466523,0.268387,0.505645,-0.607739,-0.216923,0.763936
-0.287222,0.663068,0.528821,0.494271,0.745851,-0.446545
0.287330,0.683119,-0.977748,-0.400403,0.093662,0.911540
-0.158737,-0.139928,-0.228580,-0.139786,0.967399,0.211187
-0.101885,0.588275,0.747334,-0.247218,-0.483560,0.839674
-0.101333,-0.043077,0.075586,0.877889,-0.435889,-0.198272
-0.690332,-0.307488,0.601365,0.613800,-0.276909,-0.739304
-0.128014,0.066938,0.319949,0.675332,-0.523850,-0.519141
-0.097513,0.637065,0.699744,0.764492,-0.237248,0.599387
0.230037,0.183840,0.571662,0.823665,0.375624,0.424833
-0.359850,0.505396,0.466970,0.173411,-0.413029,0.894056
-0.250575,-0.248805,0.413266,-0.563514,0.283912,-0.775787
-0.705776,-0.373123,0.603356,-0.475634,-0.015479,0.879507
0.011652,0.152893,0.833257,0.226328,-0.249071,0.941668
0.163719,-0.070948,-0.648187,0.982683,-0.168449,-0.077193
-0.519777,-0.248071,0.642940,0.411327,-0.185828,-0.892344
-0.344019,-0.434817,0.664112,0.741679,-0.047280,0.669087
-0.593569,0.176419,0.488554,-0.116941,0.927502,-0.355056
-0.257163,0.122949,0.789450,0.526244,0.847222,-0.072676
-0.047690,-0.276946,0.506341,0.606983,-0.183802,-0.773168
-0.343188,0.230158,0.754856,0.638239,-0.098304,0.763536
-0.626837,0.186377,0.496772,0.948133,0.228540,-0.220938
0.186635,0.241919,0.850178,-0.546658,0.693312,-0.469556
-0.148331,-0.489021,0.662164,0.081704,0.442925,0.892828
0.044590,0.295124,0.743850,-0.516315,-0.331443,-0.789661
0.340419,0.295593,0.801635,-0.137980,0.210090,0.967897
0.105814,-0.132308,0.960813,0.974688,0.168315,0.147149
0.192947,-0.296127,0.781715,-0.171967,-0.178862,0.968729
0.003349,0.016675,0.087701,-0.278734,0.731189,0.622632
0.002630,-0.564483,-0.140153,0.087412,0.367996,0.925710
-0.131501,-0.090065,0.845073,-0.570890,0.652435,-0.498411
0.212821,-0.070414,-0.909157,0.284211,-0.934085,0.216124
0.077251,-0.100692,0.877449,0.651408,0.638413,-0.409995
0.536106,0.573703,0.644775,0.435539,0.830800,-0.346520
-0.377620,-0.073824,0.436599,-0.502714,0.686474,0.525388
-0.386145,0.236371,0.677918,0.966518,0.213563,0.142246
0.106478,-0.024564,0.948784,0.525914,0.484793,0.698849
-0.187690,-0.708183,0.670710,0.344983,0.246536,0.905653
0.234963,-0.092137,0.950931,0.958454,-0.195170,0.208027
-0.093195,0.704173,0.567837,-0.629128,0.080759,-0.773095
-0.217306,-0.209238,0.838675,0.860913,-0.272521,0.429605
-0.099505,0.283693,0.561880,-0.262740,0.087880,0.960856
0.120650,0.097416,0.792976,0.832872,0.333993,0.441330
0.198317,-0.033519,-0.771506,0.627305,-0.755077,0.190649
0.027374,-0.075158,-0.245869,-0.262542,0.315002,0.912056
-0.063579,0.016540,0.043523,0.485155,-0.869161,-0.095834
-0.193834,0.862444,0.568136,-0.167962,0.847694,0.503193
0.927371,0.771745,0.489179,-0.449828,-0.887088,0.103582
0.389189,0.642279,0.633002,0.954838,-0.274021,-0.114879
0.029866,-0.646558,0.754941,-0.561796,-0.665149,0.491896
0.305487,0.427062,0.728580,0.998023,0.056950,-0.026593
-0.272994,0.083048,0.724371,0.295634,-0.800947,0.520657
-0.468461,0.734720,0.489962,-0.060188,-0.828811,0.556282
0.175786,-0.078369,-0.699829,0.974253,0.066546,0.215413
-0.016525,0.188719,0.853036,0.866757,-0.315203,0.386495
-0.463866,-0.621029,0.404607,0.753825,-0.014009,0.656926
0.008331,0.780235,0.525366,-0.508032,-0.550559,-0.662411
-0.550223,-0.251212,0.385497,0.844882,-0.518117,-0.133148
-0.181932,0.232965,0.837836,-0.462106,-0.350436,-0.814648
-0.127681,-0.777628,0.355822,0.188602,0.313628,0.930627
-0.117331,0.006448,0.844576,0.891999,0.365695,0.265717
0.179163,0.049894,0.096716,-0.418444,0.003175,0.908237
-0.546571,0.248471,0.496744,0.739903,-0.345975,0.576927
0.100278,-0.026702,-0.139713,0.268100,-0.060075,0.961516
0.838468,0.809643,0.500981,-0.000257,-0.379705,0.925107
-0.163277,-0.164788,0.853846,0.428275,-0.372015,-0.823520
0.248525,0.017878,0.705275,0.751478,0.077883,0.655145
0.574911,0.223941,0.032063,-0.069275,-0.005397,0.997583
0.170194,-0.138121,-0.885881,0.938133,0.314349,-0.145229
0.146724,0.095543,0.576411,0.908654,-0.406221,0.096605
0.370035,0.682384,-0.968605,-0.327398,0.110994,0.938345
-0.066015,-0.556594,0.661268,-0.590542,0.519613,-0.617464
0.213207,-0.012465,-0.549680,-0.256932,-0.945905,-0.198114
-0.672785,-0.181902,0.646381,0.412794,0.853606,-0.317739
-0.914584,-0.708917,0.563885,0.059341,-0.903017,0.425488
0.116498,0.094005,0.023830,-0.677190,0.539062,-0.500826
0.021782,0.219731,0.611076,0.935816,0.280584,-0.213355
0.287996,0.084851,0.790018,0.751200,-0.328097,0.572757
0.126075,-0.080107,0.972515,-0.762519,0.621941,0.178197
-0.398822,-0.420445,0.668904,0.851316,0.256170,-0.457862
0.290598,0.078969,-0.280847,-0.233283,0.943226,-0.236441
-0.402143,-0.359824,0.653348,-0.768127,-0.136393,0.625602
0.113675,0.142131,-0.172046,0.807968,0.335545,-0.484352
-0.163831,-0.267922,0.781914,0.973654,-0.151991,0.169989
0.112955,-0.050763,0.897540,0.744860,0.408140,0.527830
-0.437794,0.330081,0.696275,-0.157151,0.932053,-0.326468
0.042431,0.129232,-0.167852,0.953482,-0.207703,0.218474
-0.068006,0.853959,0.551301,-0.913009,0.396352,0.096537
0.712198,0.544163,-0.930229,-0.313872,0.026346,0.949100
0.185363,-0.110384,-0.166743,0.841047,-0.486886,0.235757
-0.073210,0.197004,0.805616,-0.280842,-0.659773,-0.697014
0.096237,-0.092471,0.330826,0.656561,-0.751915,0.059598
-0.398601,0.696487,0.449680,0.302814,-0.672918,0.674896
