0.419864,-0.357475,0.738020,-0.553389,-0.509634,-0.658812
0.354404,0.431238,0.707469,-0.484094,0.720276,0.496845
-0.066658,-0.579396,0.486278,-0.038121,-0.996457,0.074965
0.815084,-0.184517,0.546346,-0.282015,-0.144945,0.948398
-0.047710,0.497582,0.247762,-0.313330,0.774558,0.549439
0.650689,-0.436104,0.561764,-0.862975,-0.007734,0.505187
0.581713,0.126053,0.607929,0.788372,0.110588,0.605178
0.009961,0.238230,-0.037632,-0.210146,0.561184,0.800570
-0.389378,-0.449661,-0.136631,0.849282,0.171164,-0.499423
0.127922,0.978678,0.176927,0.936097,-0.048254,0.348418
-0.559693,0.025641,0.550001,-0.387838,-0.593905,-0.704882
0.381365,-0.214822,0.481393,-0.235620,0.237571,-0.942360
0.115337,0.779008,0.415061,0.342752,0.062083,0.937372
0.681997,0.078020,0.866525,0.874085,0.452978,0.175460
-0.866312,0.137701,-0.138145,-0.166562,-0.248117,0.954304
0.232027,-0.496422,0.322842,0.487646,-0.294543,0.821855
-0.775465,-0.036068,-0.128375,-0.072089,-0.076320,0.994474
-0.026289,0.075934,0.210075,0.003338,0.718681,0.695332
-0.753596,0.386389,0.394809,0.400524,0.609956,0.683765
0.579615,0.248371,0.802814,0.933989,-0.304958,0.186187
0.256442,-0.210417,0.742314,0.998042,0.062295,-0.005539
-0.008315,-0.538835,0.474380,0.985371,-0.140026,-0.097147
-0.280185,0.610280,-0.070152,-0.318000,0.416708,0.851605
0.216448,0.122635,0.658585,0.634795,0.131839,-0.761350
-0.721840,0.337776,0.405513,-0.457182,-0.792752,-0.403148
0.234349,0.927804,0.165952,0.884825,-0.005876,0.465887
0.469818,0.445549,0.597298,-0.191495,-0.705040,0.682823
-0.012210,0.318598,0.479683,0.072818,-0.534503,0.842024
-0.064486,0.159371,-0.238780,-0.187404,0.967635,0.169003
-0.065085,0.448678,0.482254,0.274931,0.351817,0.894784
-0.713228,0.361243,0.451654,0.820199,0.496798,0.283664
0.361969,-0.137063,0.747605,-0.011073,-0.907382,0.420160
0.820401,0.074834,0.474392,0.486407,0.808880,0.330336
-0.417615,0.139207,0.484986,-0.137704,-0.251238,0.958080
0.583734,0.027204,0.807674,0.912402,0.038856,-0.407446
-0.634589,-0.039488,-0.130479,-0.203805,-0.158767,0.966052
-0.225133,0.260887,0.402437,0.333889,0.627775,-0.703148
0.281607,0.126865,0.599808,0.843543,-0.184199,-0.504486
-0.083356,-0.226873,0.334199,0.855472,-0.334450,-0.395362
-0.065757,0.539069,-0.052053,-0.328409,0.494412,0.804801
0.454166,0.144654,0.156527,0.900333,0.338538,-0.273483
0.296358,0.408871,0.361120,-0.570302,0.132654,0.810653
0.342048,0.069386,0.929633,0.125008,0.655910,0.744416
0.703788,-0.205551,0.543603,-0.746853,0.071223,0.661164
0.522694,0.342179,0.607757,0.198498,0.407249,0.891486
-0.360621,0.530551,0.145133,0.055242,0.559059,0.827286
0.042842,0.024134,0.585880,-0.363301,-0.228725,-0.903160
0.274640,-0.245415,0.751260,0.995771,0.006345,0.091655
-0.202739,0.287308,0.372194,0.504695,-0.854097,0.125705
-0.295238,0.574644,0.071223,0.306905,-0.799394,-0.516506
0.541418,0.262972,0.759922,0.651033,0.608694,0.453483
-0.373950,0.410551,-0.040204,0.986728,0.088810,0.135944
0.104329,-0.697714,-0.005358,-0.747402,0.300417,0.592570
0.398740,0.555756,0.422309,0.240926,0.970275,0.022815
-0.243336,0.840948,0.094588,0.867844,-0.025272,0.496193
-0.030856,0.209781,0.440986,0.871670,-0.155605,-0.464735
-0.158777,-0.135383,0.588008,0.424829,0.342586,0.837947
0.364364,0.026219,0.863375,0.313964,0.512532,-0.799211
0.233449,0.401223,0.587861,-0.390508,0.819790,0.418864
-0.080362,0.290958,0.680240,0.990081,0.027951,-0.137689
-0.138033,0.581597,0.482673,-0.152816,-0.509365,0.846873
-0.014678,-0.843671,0.173310,0.422293,0.490248,-0.762447
-0.648819,0.147957,0.105760,-0.191875,0.826367,0.529435
0.332837,0.141236,0.680203,0.767896,0.417527,-0.485806
0.304225,-0.012370,0.609147,0.964775,-0.058065,-0.256587
0.701919,-0.128140,0.714692,-0.663861,0.502272,0.554087
0.442405,-0.449778,0.486647,-0.479170,0.759729,-0.439555
0.295087,0.361126,0.728620,-0.466779,-0.883225,0.045067
0.664544,-0.509169,0.538767,0.633547,-0.259764,0.728794
0.191357,-0.409334,0.413191,0.908431,-0.207870,-0.362689
-0.305720,-0.156704,0.314512,0.592965,0.246730,-0.766496
0.665367,0.162267,0.768067,0.856908,0.436549,0.274105
0.728208,0.083525,0.676229,0.973081,-0.017399,-0.229806
0.318154,-0.033113,-0.008508,0.630143,-0.186691,0.753702
0.562313,0.189849,0.233133,-0.222964,-0.185736,0.956969
0.137581,-0.105832,0.819695,0.940396,0.339910,-0.010807
-0.080289,0.161168,0.486389,-0.030888,0.143432,0.989178
-0.395673,-0.037460,0.303303,0.376476,0.310538,-0.872830
-0.604629,0.119797,0.098156,0.116048,0.848039,0.517072
-0.097664,0.738391,0.485183,-0.536800,0.387107,-0.749663
0.044190,-0.473187,0.177506,0.505599,0.820195,-0.267675
0.265054,0.572501,0.346527,-0.620940,0.494025,0.608583
-0.127921,0.106875,-0.972143,-0.089297,0.111314,0.989765
-0.249549,-0.463452,0.335577,-0.463892,-0.766275,0.444552
0.452219,-0.519598,0.490387,0.392010,-0.133795,0.910180
0.270969,-0.567343,0.506173,0.301255,0.557785,0.773383
-0.189633,0.598054,-0.094699,-0.620335,0.533237,-0.575189
0.550181,-0.128430,0.812842,-0.808268,0.397468,-0.434421
0.310739,0.250921,0.518724,0.387277,0.151219,-0.909478
0.108224,-0.476258,-0.019594,0.712326,0.474884,-0.516794
0.204316,-0.134688,0.769027,-0.377832,0.086096,0.921862
-0.189112,0.371962,0.666853,-0.247544,0.319255,0.914767
0.533404,0.545036,0.428399,-0.740705,-0.009393,-0.671765
0.315832,0.739317,0.198029,0.589367,0.791562,-0.161483
-0.294488,-0.048642,-0.762813,0.951340,-0.308137,-0.001681
-0.303923,-0.051019,-0.745661,-0.823126,0.558679,0.101693
0.845419,0.480894,0.390822,0.823449,0.150826,0.546976
0.293963,0.374569,0.731413,0.117010,0.953992,0.276058
-0.140204,0.384825,0.669868,0.122761,0.465996,0.876229
0.350061,0.099574,0.965795,0.892589,0.140324,-0.428480
0.596090,-0.383145,0.570746,0.894307,0.238477,0.378607
0.279957,0.253179,0.563782,0.871484,-0.372509,-0.318986
0.062388,-0.131385,-0.005112,-0.280100,0.311424,0.908052
0.041868,0.502274,-0.033141,0.529052,-0.304598,-0.792038
0.649642,-0.104615,0.656973,-0.114762,-0.979904,0.163151
0.369233,0.032014,0.866119,0.313964,0.512532,-0.799211
0.165291,-0.200914,0.502876,-0.029579,0.270069,0.962387
0.539022,-0.699683,0.330864,0.413094,-0.585467,-0.697554
0.389607,0.234290,0.815253,0.963024,0.266846,-0.037131
0.521044,0.544632,0.432054,0.803582,0.250951,0.539703
-0.452891,-0.426427,-0.151101,0.757037,0.296639,-0.582152
-0.283476,-0.075412,0.585646,0.069003,0.253396,0.964898
0.594069,-0.337311,0.561382,0.954798,-0.192332,0.226649
0.076395,0.745575,0.206260,-0.694605,0.240341,0.678056
-0.124100,0.535417,0.149009,-0.628073,0.718181,0.299567
-0.629720,-0.248313,-0.987277,0.401330,-0.098161,-0.910658
0.092271,-0.556334,-0.019398,0.971065,0.122857,-0.204788
0.664544,-0.338123,0.570278,0.907517,-0.413951,0.071116
0.057817,0.150680,-0.002762,0.273827,-0.560285,-0.781729
0.392976,0.144132,0.120242,0.893664,0.436631,-0.103529
0.268423,-0.106005,0.493586,0.541289,0.151069,0.827154
0.341824,-0.304805,-0.013295,0.171803,0.093663,0.980669
-0.323923,0.243620,0.432890,-0.225507,0.590736,0.774711
0.357851,0.268071,0.914695,0.229988,0.247541,-0.941185
0.452516,0.425153,0.715590,-0.099563,-0.674949,0.731116
0.616610,0.303591,0.814737,-0.581462,0.727590,0.364027
0.794715,-0.519135,0.521517,-0.860125,0.351086,-0.370033
0.775392,-0.349422,0.523658,0.621623,-0.025093,0.782914
0.359720,-0.262798,0.540379,-0.175828,-0.086040,0.980654
0.279061,0.120955,0.897962,0.051100,0.994038,0.096322
0.135711,0.207406,0.707814,0.811058,0.583360,-0.043313
-0.148666,-0.273169,0.380647,0.857737,0.374418,0.352277
-0.236443,0.219168,0.236947,0.843747,0.395404,0.362970
0.496332,0.134225,0.958375,0.797700,0.603001,0.008072
0.457910,0.112438,0.976499,0.138622,-0.604299,0.784606
0.182297,0.136194,-0.154091,0.690963,0.691015,0.212293
-0.743409,0.232379,0.499345,-0.347077,-0.335063,-0.875940
-0.668066,0.346119,0.403902,-0.247434,-0.649163,-0.719280
0.532879,0.747372,0.157462,-0.141260,0.340310,0.929642
0.447799,0.283079,0.569171,0.153441,-0.988083,0.012170
-0.112192,-0.228033,-0.043612,0.921934,-0.291572,0.254997
-0.617437,-0.106585,-0.135672,-0.027595,-0.574313,0.818171
0.167691,0.807574,0.192160,-0.516813,-0.495252,-0.698305
0.203489,0.819858,0.182907,0.569794,0.750219,0.335419
0.387285,-0.345307,0.540428,-0.594597,-0.332484,-0.732058
-0.338752,0.113886,0.488259,0.000665,-0.317069,0.948402
-0.196527,-0.371556,0.483042,0.138578,0.393159,0.908968
0.390430,0.096041,0.045519,0.942665,0.326728,-0.068062
0.431845,0.327347,0.235101,0.263764,0.961672,0.074943
0.208133,0.087581,0.668157,0.465254,0.232373,-0.854132
-0.215324,-0.440739,0.555464,-0.528706,0.527807,-0.664748
-0.035651,-0.513108,-0.032095,0.092682,0.876090,-0.473155
0.718544,-0.078657,0.542889,0.852664,-0.066628,-0.518194
0.532957,0.577947,0.413548,-0.526177,0.847538,-0.069402
-0.453938,-0.396646,0.147459,-0.219299,0.592729,-0.774971
-0.209258,0.347742,0.229810,-0.124657,0.176732,0.976333
-0.369082,-0.201090,0.238066,-0.397332,0.165525,-0.902623
0.791044,0.204451,0.407814,-0.672697,-0.447223,-0.589466
-0.263258,0.214707,0.488862,0.058909,0.247666,0.967053
0.301976,0.162326,0.872763,-0.668567,0.716858,-0.197820
0.630543,0.161921,0.812756,0.953923,0.178863,0.240911
-0.415068,0.209781,0.163344,0.672799,-0.621213,-0.401791
0.509063,0.276936,0.307905,0.965269,0.029313,0.259608
0.044337,0.166904,0.642479,0.330222,-0.002098,0.943901
0.398370,-0.016890,0.849754,0.950525,0.131899,0.281257
0.539169,0.305560,0.812030,-0.184004,-0.202279,-0.961887
-0.495358,0.388766,0.116465,0.132187,0.967572,-0.215248
-0.372305,0.089029,-0.378666,0.284388,-0.910460,-0.300309
0.514754,0.113654,0.658634,0.635074,-0.769399,-0.068595
0.032131,-0.124954,-0.966890,-0.076081,0.061385,0.995210
-0.584556,0.381002,-0.105969,0.014378,0.507756,0.861381
-0.367135,-0.346351,-0.121485,0.767768,0.349941,-0.536725
-0.930499,-0.024191,-0.140532,0.352088,-0.433749,-0.829395
-0.205290,-0.162962,0.231902,-0.324817,-0.627649,0.707496
0.571899,-0.380885,0.409672,-0.031099,0.665155,0.746058
-0.179298,0.481184,-0.047156,-0.185499,0.006943,0.982620
0.196449,-0.325607,0.329769,-0.548637,0.155931,-0.821391
0.494759,-0.168930,0.747261,-0.234370,0.918955,-0.317164
-0.007113,-0.141987,-0.277551,-0.119988,0.418583,0.900217
-0.400089,-0.372714,-0.068872,0.151708,-0.742331,0.652632
-0.624998,0.006692,0.006023,0.572006,0.756672,-0.316633
0.382192,0.091289,0.044633,0.942665,0.326728,-0.068062
-0.298081,-0.308920,0.429100,-0.113978,0.374440,0.920219
-0.335680,-0.397109,-0.110141,-0.261550,0.793321,0.549757
-0.380016,-0.346177,-0.976905,-0.091612,-0.206535,0.974141
0.295613,0.109366,0.716513,-0.052104,0.747249,0.662498
-0.050855,-0.015731,-0.659151,0.811232,-0.530286,-0.246371
0.515353,0.567577,0.410411,0.998523,-0.002137,-0.054293
-0.451017,0.493815,0.134896,0.493964,-0.296071,-0.817522
0.269397,-0.390502,0.644226,0.470580,0.375624,0.798411
0.682893,-0.652345,0.101564,-0.682641,0.710664,0.170170
0.211955,0.642959,0.218798,-0.286808,-0.508203,0.812078
0.632116,0.016485,0.875101,0.905721,-0.397534,0.147092
0.057671,0.731958,0.427021,-0.331999,0.819515,0.467089
0.308568,0.087465,-0.113819,0.583792,-0.788719,-0.192637
0.241910,0.339688,0.463097,0.050574,-0.989435,0.135869
0.763708,0.089029,0.264865,-0.546781,0.615843,0.567245
-0.942930,-0.203060,-0.136730,-0.115014,0.500406,-0.858118
0.597438,-0.643711,0.089063,0.033695,-0.171206,0.984659
-0.436338,-0.260595,0.423490,-0.070981,0.130977,0.988841
-0.858824,-0.100212,0.178638,-0.241457,-0.318721,-0.916578
0.701096,0.101138,0.720081,0.673015,0.729745,0.120516
0.523366,0.132428,0.928082,0.872380,-0.050366,0.486227
-0.195928,-0.764637,0.355485,-0.400728,0.317599,-0.859388
-0.463825,-0.290205,0.181320,0.989947,-0.122740,-0.070285
0.484122,0.425617,0.299083,0.839337,0.543562,0.007365
0.474385,0.177796,0.901210,-0.389119,-0.087644,0.917009
0.699446,0.487499,0.582201,-0.186634,-0.213687,-0.958908
0.248653,0.190892,0.667899,0.708026,0.483962,-0.514276
0.138330,-0.514325,0.505608,-0.056517,0.997835,-0.033636
0.297259,0.268130,0.795825,0.449011,-0.281123,0.848151
-0.569353,0.496248,0.108122,-0.564907,0.589051,0.577840
-0.911025,-0.123679,0.193157,-0.593121,-0.446103,-0.670223
0.534977,0.485877,0.394673,0.782219,-0.079758,-0.617877
0.592195,0.030855,0.894197,-0.208127,-0.959581,0.189441
0.374851,0.649449,0.381360,0.584952,0.315736,-0.747089
-0.143875,0.365646,0.667961,-0.155187,-0.120267,-0.980537
0.612194,-0.584437,0.031972,-0.411980,0.816022,0.405439
0.302429,0.162906,-0.062154,0.953190,-0.253270,0.165177
0.468996,-0.420690,0.291528,0.728579,-0.041287,0.683717
0.619906,-0.327984,0.289572,0.930827,0.344863,-0.120961
-0.107625,-0.532984,-0.074471,0.801691,0.487239,-0.346250
-0.152186,0.496711,0.149760,-0.489655,0.711594,0.503858
-0.046435,-0.018918,-0.574326,-0.237671,0.936530,-0.257730
-0.160574,-0.737462,0.353393,-0.444896,-0.036614,-0.894833
-0.535649,0.346119,0.394846,0.235514,0.528417,0.815664
0.480977,-0.034910,0.646404,0.656661,0.750514,-0.074332
0.060066,0.127850,-0.968329,-0.226667,0.119883,0.966566
0.344292,0.342818,0.739374,0.547708,0.669995,0.501122
-0.278238,-0.250108,0.035910,0.105290,-0.819732,0.562986
-0.037447,-0.516412,0.490621,-0.707141,-0.088571,-0.701503
-0.652110,-0.234637,-0.159554,-0.379267,-0.689772,0.616742
0.043216,-0.319291,-0.255624,-0.251058,0.526244,0.812427
-0.204316,-0.080105,-0.020357,0.262545,-0.078861,-0.961692
-0.109723,-0.412521,0.571385,-0.515939,-0.079174,-0.852959
0.633313,-0.084335,0.693689,-0.629300,-0.643407,-0.435901
-0.179750,-0.696439,0.347081,-0.288540,-0.378566,-0.879450
0.356653,0.093432,0.701858,-0.122791,-0.612256,0.781066
0.130765,0.783817,0.404554,0.062869,-0.620561,0.781634
0.629643,-0.236782,0.157930,0.994255,-0.022281,-0.104688
-0.448845,-0.267028,-0.969867,0.250032,-0.001065,-0.968237
0.116238,-0.493350,-0.002418,0.639643,0.256242,-0.724705
0.068980,-0.312223,0.708109,0.676583,0.682826,0.275652
-0.139980,0.081612,0.528739,-0.775304,0.618550,-0.127668
-0.288422,-0.409276,0.570032,-0.329675,-0.119536,-0.936496
0.565760,0.446187,0.683292,-0.035052,0.384674,0.922387
0.322501,-0.367847,0.125041,0.787536,-0.120546,0.604363
0.553175,0.303069,0.754249,0.782209,0.438233,0.442833
-0.752021,0.232379,-0.072600,0.035369,0.928618,-0.369348
0.151066,-0.749978,0.451506,0.086765,0.429165,0.899049
0.200646,0.599386,0.523879,-0.788517,0.484522,-0.378787
0.569129,0.043659,0.127194,0.775428,0.619679,-0.121281
0.501497,0.254166,-0.163245,-0.035977,-0.687200,0.725577
-0.499700,0.216097,0.494275,0.195309,0.251148,0.948040
0.081638,-0.226236,0.366669,0.022308,0.313591,0.949296
-0.411101,0.152128,0.373744,-0.465336,-0.631830,0.619882
0.533628,-0.566648,0.277194,0.981937,-0.181862,0.052211
-0.362042,0.050614,0.541339,-0.528405,0.679163,-0.509437
0.695702,0.170439,0.794226,-0.606916,0.377715,0.699274
0.485845,0.251441,0.280196,0.963979,0.239467,-0.115758
-0.133014,-0.446648,0.343513,-0.488429,-0.486618,0.724321
-0.572575,0.453603,0.123158,-0.759137,0.130725,0.637669
-0.274791,0.181331,-0.069192,0.054462,-0.798559,0.599447
0.542917,0.224035,0.836060,-0.662100,-0.653153,0.367443
-0.149342,0.746792,0.109919,-0.622609,-0.172372,0.763312
0.597740,0.546136,0.396261,-0.135374,0.492632,0.859644
0.370956,-0.463047,-0.001335,-0.027670,0.302047,0.952891
0.645971,-0.273574,0.548364,-0.697118,0.550178,0.459706
-0.416266,0.651882,0.058340,-0.333440,0.788881,0.516221
0.357700,0.121129,0.431967,-0.717396,-0.599775,0.354419
0.577069,0.016948,0.148948,0.852624,0.426894,0.301318
-0.547932,-0.135788,-0.133691,-0.189936,-0.506592,0.841005
-0.071599,-0.042964,0.292168,-0.542144,-0.297603,-0.785820
0.074223,0.101370,0.634666,0.100629,0.380633,0.919235
-0.504418,0.116553,0.318757,0.536155,0.246377,-0.807364
0.708135,0.113654,0.419872,0.060301,-0.025845,0.997846
0.151962,0.585653,0.517899,-0.784721,-0.071400,0.615723
-0.480602,0.147609,0.490104,-0.048316,-0.754294,0.654757
-0.376949,-0.222818,0.238657,-0.399871,-0.030280,-0.916071
-0.344141,0.275373,0.388165,0.111822,-0.170875,0.978927
0.094145,0.107050,0.042369,-0.320858,0.096092,-0.942240
0.401213,-0.393111,0.511526,-0.588400,0.798939,-0.124428
-0.426826,0.647826,0.127083,-0.790655,0.606220,0.085799
0.318904,0.080163,0.859376,-0.422399,-0.204864,0.882955
0.635636,-0.028072,0.566735,0.920378,-0.391031,0.000328
-0.104105,-0.026856,-0.971676,0.041790,-0.196548,-0.979603
0.567483,0.407018,0.675626,-0.757321,0.472690,-0.450587
0.824972,-0.489352,0.510062,0.593075,-0.445440,0.670705
-0.469818,-0.283252,-0.972746,-0.332103,-0.013163,0.943151
0.688438,-0.009588,0.739411,0.819404,-0.296091,-0.490822
0.474161,0.568618,0.286213,-0.221074,-0.644424,0.732013
0.116909,0.478693,0.125705,-0.052251,0.070273,0.996158
0.308193,0.304112,0.776569,0.664102,0.572909,-0.480359
0.298383,0.073442,0.830830,0.872328,-0.150092,-0.465313
-0.281159,0.042618,-0.754286,-0.658295,0.575593,0.485119
-0.221540,0.409103,0.156982,0.604639,0.238977,-0.759804
-0.348264,-0.561433,-0.100802,-0.368297,-0.440430,0.818767
-0.306323,0.210997,-0.986133,0.287123,-0.223860,-0.931368
0.572873,-0.197265,0.711640,-0.066199,0.895601,0.439906
0.343470,0.611321,0.538718,0.671564,0.643537,0.367235
0.158851,0.382740,-0.231459,0.620708,0.465345,-0.631012
-0.101408,0.803344,0.092139,0.806712,-0.523959,-0.273280
0.288272,-0.490512,0.626274,-0.575543,0.744749,-0.337784
-0.381443,-0.529622,0.138194,0.117516,-0.921270,0.370745
0.440681,-0.458006,0.302134,0.697112,0.286117,0.657398
0.356502,0.200221,0.976228,0.535125,0.788925,0.302058
-0.593169,0.313382,0.398365,0.503381,0.536788,0.677101
-0.174132,0.381002,0.155026,0.846396,-0.081116,0.526340
0.135633,0.843325,0.405255,0.955144,0.295918,0.011490
0.442629,-0.374220,0.738402,-0.108336,0.530959,0.840444
-0.410424,0.329085,0.152774,0.450326,-0.338037,-0.826400
0.103653,0.101024,-0.966225,0.273722,-0.130678,-0.952890
0.233074,-0.630327,0.443250,-0.079425,0.035480,0.996209
0.516477,-0.034330,0.721028,0.984106,0.174876,0.030888
0.684617,0.023381,0.594603,-0.139088,0.815905,-0.561208
0.250673,-0.581134,0.296745,0.281622,0.084679,-0.955782
0.409826,0.468725,0.365833,0.440571,-0.054705,-0.896049
0.728583,-0.182896,0.549250,0.381124,0.157082,0.911082
0.347812,-0.477070,0.117425,-0.596480,-0.608086,0.523873
-0.570774,-0.298028,-0.166715,0.683697,0.603971,-0.409606
0.763855,0.266102,0.762370,-0.725982,0.686863,-0.034195
0.653386,-0.493640,0.009923,0.033420,0.970265,0.239725
-0.217344,-0.576382,0.097799,-0.672306,0.544478,-0.501545
0.013033,0.167657,0.648274,-0.165070,0.251453,0.953689
-0.708209,0.232204,-0.097381,-0.105297,0.363377,0.925673
0.162000,0.349481,0.739078,-0.736033,0.639830,0.221071
0.465398,0.171423,0.979428,-0.040344,0.499996,0.865088
0.774268,0.171945,0.419405,-0.399873,-0.466097,-0.789211
0.688813,0.314542,0.414692,0.243747,-0.538754,-0.806431
0.237718,0.548396,0.188555,0.259317,-0.914033,-0.311926
0.010637,0.060636,0.571669,-0.724945,0.143994,0.673588
0.586056,0.084856,0.756612,0.211164,0.278391,-0.936967
-0.394772,0.137006,-0.026349,-0.380704,0.316261,0.868932
0.248351,-0.496595,0.497179,-0.287026,0.592297,0.752861
0.663570,0.327347,0.540933,-0.141086,-0.632947,-0.761231
0.489667,0.338645,0.693000,-0.917553,0.374087,-0.134745
0.200568,0.123157,0.701711,0.514963,0.739934,-0.432794
0.410502,0.360780,0.166986,0.814619,-0.229997,0.532444
-0.143048,0.868645,0.066670,0.998639,0.051986,-0.004192
0.598037,-0.340151,0.402536,0.232556,0.763199,0.602865
0.323548,0.392243,0.238879,0.636270,0.623471,0.454361
0.150463,-0.041863,0.823768,0.827235,0.400908,-0.393644
0.285725,0.296348,0.753142,0.718458,0.426306,-0.549620
0.257416,-0.154388,0.616049,-0.712986,0.354637,0.604882
-0.412371,0.181041,-0.986330,0.347003,-0.258296,-0.901594
0.774419,0.251384,0.774047,-0.478832,0.871685,0.104330
0.694728,-0.412116,0.531446,0.245775,-0.073575,0.966531
0.163495,0.482574,0.449857,0.904085,-0.294203,-0.309959
0.822124,0.149810,0.550395,0.480875,0.514907,0.709669
-0.594366,-0.045398,-0.120587,0.160385,0.101857,0.981785
0.516326,0.301736,0.918153,-0.649223,0.281164,-0.706722
0.305199,-0.083118,-0.005703,0.587784,-0.221673,0.778056
0.017225,-0.837007,0.178859,0.389935,0.283127,-0.876236
0.378970,0.147028,0.928181,0.918643,0.292801,0.265259
0.491911,-0.629690,0.409205,0.244967,-0.921233,0.302195
0.644472,-0.653562,0.082173,-0.542817,-0.375568,0.751198
0.746557,0.391489,0.516214,0.891740,-0.404721,0.202485
-0.184916,-0.530086,0.490523,0.513032,0.591760,0.621786
0.799208,-0.370687,0.517223,0.003890,-0.114103,0.993461
0.184093,-0.134281,0.331000,-0.375229,0.318137,0.870627
-0.180495,0.674712,0.103189,-0.635957,-0.050599,0.770064
0.081112,0.232089,-0.027555,-0.227365,0.880425,0.416122
-0.525240,-0.216329,0.244194,-0.504001,-0.191355,-0.842239
0.463300,0.119507,0.454472,0.312906,0.945571,-0.089365
0.194429,-0.142451,0.685236,0.153583,0.291197,0.944254
0.335383,-0.017816,0.005469,0.850633,-0.272501,0.449630
-0.494160,-0.275546,-0.134244,-0.647438,-0.136482,0.749798
0.715847,0.012545,0.753794,0.988123,-0.004152,0.153610
-0.127323,-0.792219,0.172129,-0.367812,-0.154217,0.917023
-0.197048,-0.332387,0.466234,0.051144,0.778823,0.625156
-0.165218,0.095344,-0.207848,-0.253038,-0.630305,-0.733953
0.710755,0.045919,0.413130,-0.691815,0.546766,-0.471634
0.851860,-0.406205,0.520803,-0.164134,-0.304060,0.938407
0.091896,0.618276,0.166198,-0.470486,0.684733,0.556582
0.672036,0.229829,0.779215,0.306312,-0.850971,0.426639
0.342720,-0.218472,-0.006306,-0.398236,0.041968,-0.916322
0.404134,0.162789,0.977040,-0.173476,0.329279,0.928160
0.378220,-0.203118,0.422936,0.645941,-0.554701,-0.524468
0.328942,0.623027,0.468794,0.476163,0.798254,-0.368861
0.416490,0.288408,0.172350,0.612398,-0.009575,0.790492
0.132790,-0.318306,0.686675,-0.701211,-0.422725,-0.574113
0.674807,0.429383,0.642220,-0.046112,-0.271481,0.961339
0.655635,-0.343686,0.297348,0.731807,0.413081,-0.542054
-0.008612,-0.306660,-0.465607,0.969405,0.163977,0.182661
0.682596,0.058262,0.801091,0.839872,-0.206825,0.501834
-0.440910,0.029870,0.483042,-0.296433,-0.149453,0.943287
0.063284,0.808559,0.411998,0.288692,-0.469153,-0.834598
0.295613,0.329085,0.551711,-0.197470,-0.967244,0.159514
-0.133987,0.064461,0.181307,-0.023703,0.798403,0.601656
-0.287970,0.052062,-0.828665,-0.751043,0.659157,0.038032
0.307668,-0.812267,0.463355,0.581979,-0.424843,-0.693404
-0.360918,-0.412231,0.560841,0.964045,0.260535,-0.052328
0.173831,0.259902,0.742622,-0.075771,0.731238,0.677901
0.164094,-0.419242,0.515894,0.418822,-0.170603,-0.891898
0.147843,0.304690,0.120464,-0.766124,-0.341380,0.544531
0.265278,0.639020,0.499382,0.810808,-0.535628,-0.235993
-0.331488,-0.036996,-0.028626,-0.020073,0.298364,0.954241
-0.441883,0.011908,-0.967726,-0.577295,0.489762,0.653348
-0.336727,0.521048,0.090220,0.725824,-0.672098,0.146507
0.899940,-0.261929,0.558860,0.035584,0.871693,0.488759
0.430273,0.481994,0.457092,0.022511,-0.984859,0.171892
0.652563,0.522728,0.586126,0.043272,0.049887,0.997817
-0.108375,0.036533,0.568691,-0.783285,0.452925,-0.425821
-0.019025,-0.829822,0.176903,0.317807,0.388250,-0.865021
0.862493,0.068576,0.503171,0.435876,0.720608,0.539200
-0.007488,-0.466002,0.150080,-0.659129,-0.171953,0.732107
0.047856,-0.631080,0.189194,0.650546,0.290708,-0.701626
0.412971,-0.070022,0.852547,0.521185,0.164078,0.837523
-0.704014,-0.150042,-0.137160,0.098301,-0.415883,0.904090
0.346390,0.359330,0.520274,-0.376196,-0.232972,0.896772
-0.125151,-0.514383,-0.075061,0.694921,0.630363,-0.346017
0.265205,-0.346582,0.405427,-0.642398,0.748200,0.165899
0.480154,0.476143,0.452700,0.303119,0.715827,0.629055
-0.123725,-0.554654,0.506210,0.088516,0.962152,0.257739
-0.309541,-0.426485,-0.088387,-0.068395,0.188328,0.979722
0.286027,-0.658718,0.429753,0.827214,0.539430,0.157266
0.210528,-0.735144,0.445686,-0.145897,0.585344,0.797550
0.451767,0.095577,0.877032,0.673974,0.379016,-0.634119
0.176304,-0.542255,0.433813,0.927009,0.075792,-0.367302
-0.228356,0.380422,0.321058,-0.665247,0.431493,0.609311
0.302054,-0.711446,0.322854,0.878695,-0.466913,-0.099431
0.181021,-0.645739,0.019533,0.973545,0.051115,-0.222703
-0.066580,-0.235449,-0.119319,0.091249,0.505324,0.858092
0.413798,0.508474,0.723588,-0.185197,-0.374610,0.908498
-0.699896,0.387143,0.460857,0.612449,0.593735,0.521905
-0.023441,0.160763,-0.973669,0.214871,-0.087356,-0.972728
-0.083955,0.532172,-0.046934,-0.380380,0.444544,0.810982
-0.506214,-0.293971,-0.977004,-0.363504,-0.047164,0.930398
0.370133,0.240027,0.833599,0.302105,-0.548322,-0.779792
0.231200,-0.821248,0.441072,0.481670,0.876258,0.012912
0.583208,-0.531651,0.091623,0.078319,-0.250012,0.965070
-0.060290,0.211056,0.192221,0.235806,0.632875,0.737472
0.732701,-0.258279,0.545448,-0.214488,-0.421310,0.881188
-0.232251,0.208216,0.488492,0.051254,0.318228,0.946628
-0.412371,0.019324,-0.073917,-0.605772,0.765719,0.216136
0.367363,0.287308,0.176927,0.917095,-0.354827,-0.181752
-0.286173,0.049861,0.129409,0.110205,-0.548165,0.829078
0.551753,0.064230,0.942577,0.985686,-0.166118,-0.028766
0.421811,0.268245,0.727586,-0.205527,-0.935118,0.288639
0.163047,-0.012080,0.412564,-0.119148,-0.141075,0.982803
-0.321299,0.017645,0.319544,0.047712,0.438384,0.897521
0.058869,-0.534895,-0.465361,0.312303,-0.025707,0.949635
-0.264529,-0.305385,0.454422,-0.751774,0.572766,0.326763
0.152264,-0.171133,0.578288,0.518650,-0.685896,-0.510440
-0.204165,0.352784,0.315607,0.559715,0.262261,-0.786090
-0.804374,-0.065851,-0.122149,-0.469957,0.678416,-0.564705
0.331036,-0.594866,0.501633,0.439906,0.623521,0.646301
0.302950,-0.523308,0.407617,0.149364,-0.986034,0.073669
0.798011,0.442304,0.418150,-0.450365,0.218710,-0.865642
-0.483075,0.112264,0.474823,-0.318262,-0.259814,0.911705
0.103955,-0.151548,0.286656,-0.609623,-0.719146,-0.333451
0.343168,-0.057102,0.042086,-0.729352,0.664469,-0.162873
-0.705738,0.391952,0.223462,0.262543,-0.929717,-0.258257
0.688813,-0.328910,0.553889,-0.664309,0.698533,-0.265981
0.138554,0.625402,0.315558,-0.377052,0.908202,0.181660
-0.511010,0.074080,0.474835,0.432241,0.107104,-0.895375
-0.037521,0.132950,0.678308,-0.237882,-0.184413,0.953627
-0.317404,0.307589,0.119258,0.945628,0.065334,-0.318620
0.279212,0.597764,0.328207,0.997005,0.035594,0.068662
0.257192,0.588203,0.199788,-0.224686,0.956852,-0.184257
0.337403,-0.486746,0.645272,0.940366,-0.236987,0.244028
0.309615,0.503666,0.363766,0.798067,0.278856,-0.534162
0.087480,-0.554481,0.171723,0.266155,0.055442,0.962335
0.407206,0.474347,0.606637,-0.356005,-0.642268,0.678788
0.019922,0.119159,-0.355780,0.999863,0.015700,-0.005224
-0.665593,0.415246,0.436704,-0.733573,-0.425847,-0.529647
-0.002770,-0.181621,0.693061,0.927433,-0.373650,0.015897
0.299732,0.468552,0.689628,-0.292436,0.954489,0.058577
0.664622,0.097430,0.714999,0.797943,0.602724,0.003205
0.442405,0.317786,0.924686,0.005023,-0.110946,0.993814
-0.163948,-0.498101,0.316099,0.802219,0.268503,-0.533246
-0.084330,0.582409,0.480384,-0.704520,-0.014082,-0.709545
-0.352758,0.230873,0.482427,0.088044,0.567194,0.818865
-0.400989,0.270273,-0.048177,-0.131511,-0.069376,0.988884
0.517899,-0.522555,0.126431,-0.543068,0.127014,-0.830027
0.370358,-0.387084,0.635478,0.266127,-0.792000,0.549466
-0.109271,-0.362284,0.357958,-0.773595,0.074843,0.629245
-0.682744,0.322538,0.401145,0.466402,0.873625,0.138736
-0.493036,-0.423647,0.169508,0.508635,0.157771,0.846403
-0.269246,-0.721992,0.333362,-0.483023,-0.469877,0.738854
0.749999,-0.479271,0.516915,0.871439,-0.193368,0.450780
0.482399,-0.588725,0.414655,0.914841,-0.345970,0.208255
-0.692556,0.030275,-0.216707,-0.688461,-0.104897,-0.717648
-0.602755,0.264363,0.487176,0.020670,0.915519,0.401744
0.410950,-0.426485,0.133223,-0.564457,-0.629111,0.534422
-0.083210,-0.289683,0.550026,-0.511937,-0.006027,-0.859002
-0.676827,0.294841,-0.059767,-0.691427,-0.707817,-0.144654
-0.168363,-0.485412,0.491015,0.248180,0.155590,0.956137
0.450793,0.639539,0.176620,0.152059,0.151665,0.976666
0.740939,0.088508,0.730552,0.990468,0.134820,-0.028227
-0.316284,-0.353362,0.106831,0.935005,0.242431,-0.258829
-0.292541,-0.257004,-0.104764,0.863505,-0.300295,-0.405193
0.352082,0.306719,0.816410,0.961707,0.090456,-0.258722
-0.095640,-0.397920,0.561382,0.282515,0.727051,0.625765
-0.593845,-0.437494,0.181443,-0.592966,0.805220,0.003521
0.004942,-0.004605,-0.541007,0.133295,-0.991076,-0.001216
0.375377,0.147087,0.233379,0.753797,-0.516329,0.406441
0.336804,0.688676,0.350366,-0.795584,0.424973,0.431793
0.917242,-0.328099,0.525799,-0.379908,-0.113393,0.918048
0.146495,0.423530,0.524162,-0.773757,0.593163,0.222391
-0.460831,0.069966,0.521824,0.457588,0.857646,-0.234641
-0.539621,-0.116029,0.190659,-0.180135,-0.458858,0.870058
0.292765,0.153461,0.742376,0.670494,0.331390,0.663791
-0.508463,-0.085261,0.191815,0.295965,0.479330,0.826225
0.023592,-0.294608,0.194104,0.494300,-0.867486,0.055996
0.347515,0.137469,0.700320,0.461643,0.830790,0.310925
0.533779,0.297623,0.900558,0.918597,-0.041931,0.392964
0.080066,0.741346,0.254542,0.988876,-0.143260,-0.040016
0.520445,0.126112,0.973029,0.880665,-0.035612,0.472400
0.340850,-0.043542,-0.009837,0.611993,-0.194997,0.766447
-0.123126,-0.315468,0.473248,-0.203059,0.165388,0.965098
0.400765,0.241997,0.919186,-0.008856,-0.066898,0.997721
-0.288870,0.095287,-0.253890,-0.129051,0.989511,0.064917
0.271422,-0.077904,0.760377,-0.802739,0.535774,0.261832
-0.553627,0.314483,0.235089,0.293632,0.395222,-0.870391
0.155559,0.373352,0.308323,0.270487,-0.188141,-0.944161
0.391852,-0.337253,0.532295,-0.115634,-0.940930,-0.318245
-0.722139,0.193557,0.090355,-0.294751,0.556777,0.776609
0.320924,-0.420922,0.641531,-0.773471,-0.091481,-0.627195
0.422858,0.620824,0.188653,-0.192367,0.448541,0.872815
0.443003,-0.305965,0.734354,0.366677,0.397231,0.841282
-0.160126,-0.282962,0.336660,-0.701522,0.326039,0.633692
0.300029,0.349539,0.548180,-0.381387,-0.150398,-0.912099
-0.241910,0.331460,0.479572,0.013332,0.147041,0.989041
0.430200,-0.403018,-0.128240,0.280150,-0.040171,0.959115
-0.094894,-0.218820,0.583640,-0.288178,0.820275,-0.494067
0.226034,0.154968,0.786941,0.331677,0.941640,0.057485
-0.108823,0.520527,0.479597,0.354465,0.166773,0.920077
0.703715,-0.527594,0.535790,0.480994,-0.169698,0.860144
0.465398,0.424052,0.453044,-0.816872,0.266797,-0.511409
-0.558944,0.173973,0.497105,-0.384821,0.301590,-0.872328
-0.080362,-0.721587,0.158422,0.666346,-0.392575,-0.633930
-0.435365,0.481879,0.135019,0.493964,-0.296071,-0.817522
-0.239515,-0.391141,0.565676,0.646188,-0.378635,0.662629
0.594444,0.048991,0.841547,-0.218366,-0.487557,0.845343
0.247231,0.321726,0.806923,0.024977,-0.623547,0.781387
0.139903,-0.628472,-0.008373,0.673419,0.175273,-0.718182
0.334034,-0.376192,0.634666,-0.652845,0.298142,-0.696351
0.109797,0.359795,0.498040,-0.085308,0.846801,0.525024
0.545761,0.556392,0.424462,-0.266946,0.948620,0.169880
-0.619531,0.329549,0.402351,0.314338,0.745012,0.588344
-0.646346,-0.181331,-0.145946,-0.218375,-0.624572,0.749814
0.891104,0.524293,0.411136,-0.733177,0.134583,0.666587
0.415595,-0.322421,0.731425,0.284951,0.313149,0.905947
-0.027263,-0.269520,-0.269159,-0.251058,0.526244,0.812427
0.721465,-0.185676,0.763133,0.641952,0.577212,-0.504702
-0.159975,-0.255381,-0.970815,-0.107818,-0.140132,0.984245
0.870959,-0.291826,0.563228,0.069935,0.773827,0.629525
0.850511,0.011733,0.519536,0.527456,0.848129,0.049676
0.422108,-0.362401,0.284035,-0.663513,-0.176886,-0.726953
0.140429,0.866848,0.181123,-0.408584,-0.907805,0.094600
0.617584,0.503433,0.680154,-0.146481,0.768903,0.622360
0.278836,0.367501,0.714925,-0.062604,0.858314,0.509291
0.175856,-0.515427,0.181246,-0.347173,-0.187484,-0.918869
0.340475,0.127908,-0.007204,0.883643,0.468152,0.002960
-0.065085,-0.047021,0.225405,-0.105237,0.329934,0.938120
0.534904,0.435931,0.689788,-0.600486,0.353221,-0.717392
0.322049,-0.029869,0.730564,0.569373,-0.488153,0.661454
0.703564,0.288988,0.723514,0.188937,0.501258,0.844419
-0.557892,0.359157,0.234326,0.664011,-0.220352,-0.714517
-0.190086,0.413043,0.163110,-0.822355,0.500039,-0.271465
0.561938,-0.653679,0.328194,0.604733,-0.483363,-0.632976
0.454912,0.417562,0.423773,-0.485964,0.613666,-0.622297
0.002770,-0.155429,-0.962829,-0.063083,-0.013240,0.997920
0.739517,-0.131268,0.382665,-0.727137,0.442236,-0.525070
0.372753,0.318944,0.172522,0.522641,-0.236049,-0.819224
-0.175929,0.413739,-0.051708,0.011869,0.063451,0.997914
0.338601,-0.213952,0.630987,-0.211052,-0.651383,-0.728806
0.116462,0.016195,-0.009111,-0.174556,0.121413,0.977133
-0.456484,0.106065,0.320627,-0.226163,0.020127,0.973882
0.532431,0.103515,-0.182956,-0.401330,-0.563145,0.722358
0.044789,0.529159,0.473518,0.933903,0.107491,0.340986
-0.145297,-0.416229,0.563757,0.249275,0.855125,0.454559
0.066205,0.587160,0.463331,0.395577,0.708713,0.584161
0.288422,-0.390156,0.643685,0.584361,0.256553,0.769872
-0.494457,0.030855,-0.985309,-0.554947,0.223611,0.801269
0.511010,0.198947,0.886507,0.709583,-0.632451,-0.310640
0.824670,0.133993,0.551219,0.461789,0.541980,0.702146
0.277337,0.551931,0.558466,0.540248,0.478679,0.692098
0.262581,0.166962,0.005063,0.475970,0.877375,0.060552
0.234948,-0.504649,0.445305,0.913797,-0.032015,-0.404908
-0.478280,0.274966,0.405218,0.127666,0.967682,-0.217469
-0.419640,0.015326,0.324158,-0.152825,-0.103679,0.982800
-0.007789,0.119101,-0.511797,-0.396675,0.847285,-0.353209
0.114066,-0.158791,-0.121842,0.283010,-0.161377,0.945443
0.589951,0.186952,0.447434,0.301744,-0.953206,0.018681
-0.209783,-0.244835,0.583887,0.096738,-0.737468,0.668419
0.092947,-0.703798,0.179683,0.689098,0.067384,-0.721529
0.285725,0.224266,0.710754,-0.588535,-0.192217,0.785289
-0.130394,0.875424,0.057479,0.992025,-0.125732,0.008884
-0.358001,-0.097082,0.469913,0.958810,0.111609,-0.261203
0.389456,0.579859,0.237131,0.988346,0.015353,0.151450
-0.362568,0.376075,-0.048165,0.743507,0.668186,-0.026926
-0.328114,0.113481,0.151089,-0.107678,-0.954109,0.279430
0.703939,0.243040,0.233329,-0.312532,-0.306659,-0.899046
0.838750,-0.497870,0.509742,0.729279,-0.421261,0.539158
0.438963,-0.018745,0.750029,0.908030,-0.062296,-0.414246
-0.545838,0.244547,0.487311,-0.192084,-0.819155,-0.540452
0.455287,0.068518,0.156625,0.734314,0.678199,-0.028793
0.315384,-0.633630,0.065206,-0.487064,-0.231279,0.842187
0.290443,0.625519,0.381164,-0.017014,-0.935024,0.354175
0.217495,-0.730046,0.251257,0.047149,0.740431,0.670477
-0.772768,0.130516,0.095609,-0.602497,0.369546,0.707413
-0.758689,0.366053,0.240921,0.238833,-0.951334,-0.194739
-0.041639,0.381175,0.477062,-0.193956,-0.270080,0.943100
0.369681,0.474810,0.692409,0.326588,-0.945167,0.000579
0.081034,0.026277,0.820483,0.981237,0.139344,-0.133259
-0.002171,-0.627024,0.172067,0.727446,0.250501,-0.638805
-0.295535,-0.029985,0.212671,-0.764077,0.499063,0.408806
-0.065684,0.298839,0.475106,0.234547,-0.267992,0.934435
0.805571,-0.164991,0.514909,0.404075,0.217471,0.888499
-0.445700,-0.355448,-0.142463,-0.689098,-0.423006,0.588396
0.445180,-0.177738,0.612703,0.891463,-0.172591,0.418935
0.386759,-0.570529,0.496589,-0.565830,-0.127075,-0.814670
-0.659678,-0.106875,-0.093284,0.000947,0.995884,0.090636
0.007716,0.685200,0.429039,0.948666,-0.278503,0.149898
0.126646,-0.292116,0.513039,-0.212440,-0.202557,0.955950
0.775314,-0.442419,0.528862,0.762750,-0.358566,0.538185
-0.047934,-0.391546,0.222773,0.980046,0.154735,-0.124771
-0.527635,0.463164,-0.098882,0.905928,-0.298760,-0.300061
-0.259363,-0.117362,0.503036,-0.122523,-0.423862,-0.897401
0.137809,-0.367036,0.245880,-0.533255,0.330260,0.778824
0.172185,0.159834,0.572198,0.322536,-0.613470,-0.720850
0.459556,0.491265,0.151888,0.939060,-0.126904,0.319472
0.464502,0.155836,0.886273,-0.339565,0.934012,-0.110981
0.212627,0.821421,0.171870,0.862437,0.158808,-0.480607
0.043216,0.630212,0.311670,-0.078405,0.815191,0.573861
0.621255,-0.295941,0.249989,-0.691950,-0.583766,-0.424761
0.411997,0.595678,0.190954,-0.092052,0.628279,0.772523
0.274942,0.561144,0.289485,0.805064,0.575366,-0.144309
0.304897,0.488715,0.514811,-0.664694,0.555830,0.499234
-0.795462,-0.045746,0.185196,-0.214736,0.511988,0.831719
0.663123,-0.365356,0.557531,0.948280,0.048677,0.313682
0.842123,-0.378508,0.522833,-0.172755,-0.459490,0.871220
-0.008690,-0.217370,0.570450,0.534577,-0.643122,0.548290
0.632715,0.546890,0.214935,-0.243763,0.622964,0.743300
0.380391,0.116841,0.924871,0.885223,0.045566,0.462931
0.021645,-0.503606,0.173974,0.353098,-0.150453,-0.923410
0.496707,-0.540342,0.095523,0.122047,-0.360643,0.924684
0.236667,0.081902,-0.241770,0.964994,0.188208,-0.182659
0.016777,-0.380595,0.197389,-0.700882,0.298861,-0.647647
0.380167,0.151260,0.114754,0.869853,0.460092,-0.177965
0.164094,0.051714,0.103730,0.109974,-0.966139,0.233412
0.009289,0.555814,0.487176,0.868253,0.447053,-0.215128
0.028835,-0.511950,0.354894,-0.464731,0.539779,0.701899
0.436713,0.052757,0.898146,-0.383636,0.528258,0.757474
0.533702,0.063071,0.976807,0.869525,-0.275524,-0.409893
0.265429,-0.665093,0.442820,-0.083227,0.548319,0.832117
0.435589,0.444564,0.208340,-0.431989,0.400446,0.808102
0.080139,0.398035,0.496884,0.950409,-0.229280,-0.210129
0.259212,0.644929,0.219069,0.160921,-0.099493,0.981940
-0.329915,-0.126227,0.486438,-0.730353,0.603335,0.320266
0.042842,-0.029579,-0.008976,-0.113107,-0.139186,0.983786
-0.144849,-0.552279,0.333288,-0.636782,0.259700,0.725992
0.487491,-0.791117,0.078568,0.375285,-0.356933,-0.855430
-0.645747,0.085146,0.115985,-0.368299,-0.372600,0.851777
0.636760,0.252543,0.737959,0.479381,0.488047,0.729386
0.106277,0.217777,0.636450,-0.194491,0.872132,0.448953
-0.615339,0.402267,0.431180,0.394466,0.611100,0.686260
-0.158626,0.001131,-0.584932,0.541146,0.840427,0.029055
-0.060816,-0.291421,-0.541240,0.889814,0.000107,-0.456323
0.417464,0.595619,0.179302,0.095819,0.077908,0.992345
-0.272620,-0.431585,0.568125,0.712126,-0.360750,0.602276
-0.746031,0.174262,-0.085606,-0.285373,0.362028,0.887411
0.443977,0.446129,0.454275,-0.228338,0.972461,0.046701
0.185442,-0.304864,0.748590,-0.286436,-0.922537,0.258613
0.148369,0.271143,0.698463,0.145413,0.077473,0.986333
-0.747978,0.016485,-0.126850,0.279060,-0.357063,-0.891421
0.634662,0.045863,0.757695,0.877915,0.439737,-0.189464
0.220567,0.610337,0.405526,0.988237,0.152908,-0.002722
0.797782,0.348379,0.409955,-0.665941,0.745964,0.007703
0.526589,0.139322,0.754914,-0.228887,0.812854,-0.535612
0.513629,0.241475,0.903523,0.804849,0.339799,0.486575
-0.345568,-0.433786,0.577353,0.120151,0.329033,0.936644
-0.050553,0.721645,0.111014,-0.071491,0.094495,0.992955
0.299732,-0.010573,0.601494,0.981882,0.144761,0.122278
-0.178850,-0.767245,0.334334,0.870620,0.485577,0.078965
-0.099987,-0.644001,0.140593,0.828725,0.067689,-0.555548
-0.122528,0.923169,0.078396,0.964134,0.261140,-0.047447
-0.606050,0.190485,-0.071493,0.133253,-0.544663,0.828001
-0.408554,-0.241938,-0.009185,0.790911,0.173374,-0.586857
-0.688662,0.056407,-0.128843,-0.124886,0.465105,0.876402
0.570774,0.257062,0.413179,0.177004,0.262721,0.948497
0.556023,0.282615,0.238005,0.352422,0.329676,0.875849
0.051751,0.217718,0.606895,-0.419801,-0.877862,-0.230489
0.128744,0.200453,0.718026,0.955813,0.195315,-0.219715
-0.694952,0.357998,0.227657,-0.025618,0.967228,0.252612
0.173232,-0.768172,0.453586,-0.170802,0.439161,0.882023
0.175330,0.199641,0.667419,-0.636252,-0.703200,0.317323
0.785952,-0.294724,0.541093,0.722773,-0.522012,0.452882
-0.254495,-0.633803,-0.083293,-0.205063,0.427806,0.880302
0.333957,0.109251,0.702289,-0.422153,-0.811873,0.403298
0.429976,0.520643,0.199259,0.899711,0.268824,0.343879
-0.428773,-0.122750,-0.120685,0.243609,0.465097,-0.851081
0.207461,-0.671524,0.366731,0.751148,0.127336,-0.647736
-0.109797,0.182026,0.417325,0.983216,-0.121636,0.135978
0.593320,-0.302952,0.591367,0.925388,-0.099950,0.365606
0.007565,0.557145,-0.041754,-0.511942,0.243315,0.823841
-0.667316,0.399079,0.450768,-0.681565,-0.576614,-0.450538
0.567108,0.120839,0.578780,-0.768657,-0.353727,-0.532957
0.039921,0.088450,-0.507453,-0.446259,0.886807,0.120111
0.595340,0.204276,0.238288,-0.236215,-0.616628,-0.750981
0.731650,-0.400644,0.273576,0.826111,0.348024,0.443192
0.687240,0.025697,0.594862,-0.139088,0.815905,-0.561208
0.511385,0.181794,0.533157,0.608033,0.311727,-0.730152
0.295161,0.226004,0.451137,-0.773669,-0.520793,0.360847
-0.201020,-0.075702,-0.957735,0.490089,0.123018,0.862948
0.309391,0.261119,0.169409,0.708611,0.187674,-0.680183
-0.149717,0.623027,0.488825,0.130101,-0.062443,0.989532
0.056172,0.539880,-0.029167,0.529052,-0.304598,-0.792038
-0.226107,0.211404,-0.978800,-0.166139,0.271631,0.947953
0.631517,0.226816,0.843688,0.672358,-0.600803,0.432402
0.152561,0.657850,0.411973,0.251048,-0.085265,0.964212
0.240338,-0.377582,0.524273,-0.534167,0.156354,0.830794
-0.526365,0.439639,-0.119024,-0.887018,0.290914,0.358564
0.123652,0.192282,0.400038,0.325813,0.858410,-0.396204
0.225212,-0.366863,0.156822,-0.295232,-0.249912,-0.922162
-0.294936,-0.229771,-0.969744,-0.006282,-0.306814,0.951749
0.310817,0.261697,0.195211,0.962336,0.116990,0.245404
0.168738,0.595156,0.569220,0.131762,-0.501035,0.855338
0.224462,0.883825,0.188813,0.805472,0.396621,0.440348
-0.143724,-0.695744,0.342024,-0.459729,-0.174373,-0.870772
-0.064185,-0.536750,0.493119,0.526811,0.020194,0.849743
-0.350061,0.514269,-0.051499,-0.043547,0.746905,0.663504
-0.018724,-0.458238,0.163528,0.791228,0.307130,-0.528800
0.357476,0.391258,0.236405,0.662251,0.486147,0.570162
0.159454,0.674364,0.252216,0.950492,-0.100479,-0.294056
0.262206,-0.545500,0.447495,0.872542,0.035548,-0.487245
0.492135,0.292175,0.314118,0.681652,-0.194811,0.705265
0.102007,-0.545731,0.377399,0.803748,0.391788,-0.447763
0.253745,-0.078018,-0.279790,-0.347889,0.445293,-0.825038
0.260561,-0.462119,0.646096,0.506987,0.019200,0.861740
0.751800,-0.455166,0.293509,0.520945,0.817940,-0.244112
0.395897,-0.251846,0.643156,-0.489964,-0.460483,-0.740196
0.285127,-0.501290,0.498656,-0.258026,0.578009,0.774163
0.266476,0.545673,0.508241,0.958276,0.086259,-0.272518
-0.223561,-0.219573,0.422346,-0.117128,0.258392,0.958913
0.451767,-0.446592,0.496945,-0.680100,0.718115,0.147562
-0.370805,-0.130631,0.484383,0.947856,0.137705,-0.287414
-0.731426,-0.174552,-0.996395,0.304193,-0.144441,-0.941596
0.356278,0.441319,0.541782,-0.445591,0.889325,-0.102711
0.637807,0.085726,0.548893,-0.301756,-0.836000,0.458309
0.160652,0.029405,0.089297,-0.307822,0.871000,-0.382891
-0.284902,0.049861,0.375024,0.802653,0.211378,-0.557735
0.059467,0.502623,0.509299,-0.225014,0.867670,0.443302
0.428175,-0.355622,0.735289,0.886273,-0.012140,-0.463003
0.417094,-0.093374,0.800993,0.991109,-0.071757,-0.112047
-0.084330,0.484429,0.477197,0.879177,0.413039,0.237587
0.297108,-0.070834,0.375233,0.711862,0.610171,-0.347770
0.466299,-0.130341,-0.025107,0.669744,0.385481,0.634703
0.707313,0.308864,0.720204,-0.280015,-0.482837,-0.829735
0.419187,0.207521,-0.121657,0.287803,-0.888520,-0.357355
0.718919,-0.549786,0.053812,-0.467765,0.824047,0.319596
0.376798,0.359563,0.720388,-0.658743,-0.457647,-0.597174
0.415069,-0.104730,0.800759,0.952251,0.120018,-0.280737
0.232324,0.545848,0.219512,0.843492,-0.119550,-0.523670
0.251350,0.578352,0.561837,-0.557955,-0.525633,0.642181
0.387733,0.338181,0.803712,-0.201345,0.898447,-0.390196
0.690235,0.435583,0.401170,-0.311104,0.371164,-0.874901
0.167915,-0.581192,0.390072,0.983566,-0.086301,-0.158587
0.602531,-0.461134,0.553901,0.898390,-0.342430,-0.275023
0.506891,0.187416,0.467908,0.863112,0.494883,-0.100646
0.692479,0.374164,0.666681,0.520187,-0.568468,0.637377
0.288871,-0.553031,0.075689,0.321337,0.663441,-0.675713
0.777340,0.426312,0.536823,0.826911,-0.558101,0.068852
0.031158,0.177450,-0.235803,-0.071317,0.995107,0.068377
-0.630017,0.156648,0.493796,-0.206970,-0.214666,-0.954506
0.009435,0.182433,0.533710,-0.711826,0.693210,-0.112975
0.344969,0.438191,0.379392,0.923112,0.011181,-0.384370
0.562313,-0.304864,-0.134564,0.393070,0.182845,0.901146
0.514004,-0.603442,0.313872,0.477499,-0.322156,-0.817441
0.221015,0.011792,-0.208463,0.405631,0.369433,-0.836052
0.404660,0.195702,0.162335,0.454713,-0.629836,0.629716
-0.141850,-0.061853,-0.968342,0.327222,0.318230,0.889750
-0.423832,0.158618,0.484223,-0.040086,-0.343769,0.938198
-0.240561,-0.400468,0.565073,0.659239,-0.398985,0.637350
-0.118335,0.646146,0.105760,0.008592,0.312472,0.949888
-0.279659,-0.376307,0.569405,0.225247,0.171761,0.959042
-0.326094,-0.246110,0.243013,-0.704400,0.306414,-0.640259
0.311713,0.533854,0.534768,-0.731362,0.520209,-0.441013
0.253521,0.139381,0.825183,-0.055827,0.426953,0.902549
-0.091973,0.590290,-0.049789,0.152255,0.985294,0.077553
-0.562162,-0.324854,-0.983808,0.475820,0.121238,-0.871147
0.667767,0.193557,0.564729,0.758120,-0.159012,0.632431
-0.364588,-0.099227,0.018290,0.797402,0.375614,-0.472297
0.514155,0.590347,0.407864,0.914376,0.314283,-0.255229
0.314410,-0.748240,0.334396,0.163115,0.968504,0.188129
0.511311,-0.195990,0.832787,0.664163,-0.680104,0.310397
0.312536,0.086363,-0.959323,0.212675,-0.064880,-0.974967
-0.597214,0.310602,0.411456,0.230184,0.959552,-0.162094
0.583359,0.195933,0.883603,0.928952,0.044298,0.367540
0.431621,0.101314,0.144469,0.792296,0.607784,0.053537
0.353805,0.403193,0.235360,-0.436979,-0.692436,-0.574091
0.460306,0.418142,0.227423,0.536392,0.523763,0.661782
0.016251,0.078079,-0.552253,0.947962,0.113187,-0.297584
0.455588,0.225715,0.678198,0.872988,0.052987,0.484854
0.599984,0.013935,0.318228,0.254278,0.484830,0.836829
0.862118,0.121592,0.413277,0.380499,0.861160,0.337082
-0.450793,0.355100,0.243628,-0.236635,-0.155248,0.959115
-0.306621,-0.372136,0.572111,-0.039632,0.430229,0.901850
-0.251798,0.134571,0.130418,-0.246826,0.141943,0.958608
0.337476,0.102067,0.931884,0.119204,-0.842985,0.524564
-0.011908,-0.605180,-0.058439,-0.586474,0.649598,0.483809
0.236521,-0.338760,0.501141,0.478881,0.854627,-0.200712
-0.346916,0.548513,0.069500,-0.332461,0.780594,0.529285
-0.146197,-0.487094,0.340929,-0.588350,-0.465671,0.661056
0.280482,-0.434654,0.432570,-0.753784,0.033692,0.656258
-0.458285,0.316743,0.419799,0.214622,0.972624,0.089105
-0.238015,0.268998,0.480138,-0.006739,0.294039,0.955770
0.457760,-0.203349,0.004485,-0.584319,0.084314,-0.807133
-0.090474,-0.326534,0.192763,0.198802,-0.956052,0.215507
-0.388706,0.031087,0.068909,0.332973,0.881323,-0.335258
0.590024,0.045977,0.891527,-0.465312,-0.824663,-0.321583
-0.521044,0.063766,0.538570,0.061600,0.582716,0.810338
0.396121,-0.089491,-0.444604,0.713967,0.594247,-0.370299
0.814636,0.295536,0.221542,0.345988,0.237594,0.907657
0.611518,-0.402207,0.580847,0.768822,-0.434611,0.469070
-0.446825,0.020714,0.181443,-0.190451,0.275940,0.942118
0.262659,-0.148825,-0.004473,0.399191,0.004253,0.916858
0.634136,0.057972,0.845509,0.472493,0.880375,-0.041116
0.120132,0.483327,0.556128,-0.827549,0.515697,0.221856
0.039619,-0.575456,-0.034261,0.733781,0.317945,-0.600397
0.710005,-0.479329,0.536183,-0.469893,0.342371,-0.813623
0.457311,0.316975,0.298160,0.957673,0.266117,0.109750
0.554075,0.129415,0.892819,0.972639,0.125260,-0.195663
0.068678,0.258800,0.523658,0.962626,-0.210975,-0.169826
-0.502923,0.388301,-0.110940,0.238213,0.195785,0.951274
0.292541,-0.163426,0.678665,-0.012789,0.582614,0.812649
-0.481502,-0.302721,0.259402,0.056936,-0.843430,0.534214
-0.719593,0.375149,0.237697,0.061094,0.948895,0.309622
0.439936,0.179710,0.957366,0.945003,0.197977,0.260334
-0.163870,-0.009878,-0.596301,0.526087,0.846801,-0.078489
0.308344,0.278849,0.600362,0.131738,0.144073,0.980759
-0.132040,0.639598,0.106154,0.008592,0.312472,0.949888
0.665596,-0.361473,0.289572,0.965402,0.227613,-0.127246
-0.017375,0.801953,0.188308,-0.514976,0.308733,0.799677
-0.131441,0.870210,0.045101,0.992025,-0.125732,0.008884
0.405181,0.007040,0.850505,0.720374,-0.395569,0.569725
-0.173081,0.385810,-0.051068,0.203493,0.161701,0.965631
-0.068902,-0.483906,0.355546,-0.512114,0.435005,0.740614
-0.577293,0.501521,0.065919,0.026706,0.956898,0.289193
-0.359199,-0.533042,-0.086246,-0.174594,-0.521936,0.834925
-0.740938,0.217487,-0.089839,0.981548,-0.175014,-0.077034
-0.065981,0.168120,-0.232591,-0.061111,0.871368,0.486809
-0.422186,0.041343,0.318019,-0.033920,-0.108651,0.993501
0.096540,0.866675,0.417141,0.367524,-0.084569,0.926161
-0.019249,0.837067,0.189994,-0.470361,0.465062,0.749985
-0.071901,0.050729,0.043563,0.253642,-0.487431,-0.835510
0.229627,-0.612133,0.057614,-0.438013,-0.610764,0.659630
0.255094,0.325319,0.561813,-0.609563,-0.785171,0.109269
-0.456635,-0.079003,-0.115517,0.182410,0.708962,-0.681249
0.443154,0.222586,0.956480,-0.619651,-0.771511,0.144238
0.130166,-0.176753,0.020579,-0.772568,0.426186,-0.470642
0.606051,0.114234,0.875544,0.923462,0.314138,0.220308
