0.246151,-0.417678,0.783615,-0.216884,0.576065,0.788106
0.635032,0.232652,0.536756,-0.225629,0.281428,0.932679
0.209442,-0.392948,0.777287,0.323028,-0.342162,-0.882371
0.074476,0.502576,0.633541,0.083240,0.252003,0.964140
-0.398941,0.197014,0.566494,0.631138,0.746538,0.210585
0.294948,0.439242,0.394181,0.013778,-0.048918,0.998708
0.701566,0.575159,0.323912,-0.592853,-0.504795,0.627461
0.041342,0.278042,0.677887,-0.218784,0.889709,-0.400688
0.139378,0.364498,0.557333,0.009381,0.852771,0.522201
0.112376,-0.222649,-0.214239,0.967132,-0.252031,-0.033718
-0.115244,-0.531127,0.794626,-0.389182,0.755146,0.527534
0.180763,0.709115,0.533563,0.166410,-0.916296,0.364294
0.004765,0.370932,0.087963,-0.368304,-0.406255,0.836247
0.010809,0.147453,0.890688,0.312238,-0.787317,0.531638
-0.108979,-0.895649,0.325531,-0.093650,-0.974708,-0.202915
0.331789,-0.079796,0.796490,0.555976,0.207158,-0.804970
-0.029031,-0.760185,0.678898,-0.538591,0.594235,-0.597331
-0.472402,-0.604715,0.169430,0.315949,0.710039,-0.629301
-0.372248,-0.230592,0.576999,-0.705019,-0.095382,0.702745
0.035561,0.174043,0.611953,0.024039,0.985722,0.166655
0.408647,0.703838,0.181395,-0.586145,0.380069,0.715529
-0.501522,-0.453718,0.421737,-0.778542,-0.444780,0.442768
-0.770439,-0.189876,0.451951,-0.484767,0.869569,0.094080
-0.138099,0.110458,0.825028,0.399311,0.811583,-0.426478
-0.451136,0.110156,0.658076,-0.380590,0.421986,0.822848
-0.469005,-0.154540,0.334981,-0.515680,0.784971,-0.343357
-0.117935,-0.752444,0.431245,0.216455,0.383063,0.898003
0.422061,0.334992,0.295851,-0.322893,0.002092,0.946433
-0.354291,-0.616829,0.383488,0.134648,0.776896,-0.615063
0.427708,0.311719,0.435941,-0.608359,0.430608,0.666691
-0.353672,-0.030134,0.453107,0.077060,-0.306014,0.948903
0.485285,0.116841,0.711222,0.668093,0.333713,-0.665047
0.094022,-0.105230,0.308841,-0.457736,0.753820,-0.471415
0.689476,0.620749,0.331614,-0.668093,-0.379177,0.640216
0.014340,-0.179170,0.952027,0.665886,0.737974,0.109499
0.432737,0.358818,0.639248,0.531388,0.635896,-0.559699
-0.117670,0.146096,0.778630,0.309316,0.637868,0.705300
0.284006,0.419840,0.680314,0.511668,0.344364,0.787152
-0.118509,-0.648998,0.417777,0.489196,-0.103223,-0.866044
-0.381998,0.141723,0.652744,0.367797,-0.387287,0.845419
0.187558,-0.327955,0.767013,0.463507,0.874209,0.144637
-0.083829,-0.763553,0.169401,0.421452,0.597471,-0.682207
0.054843,-0.431954,0.234627,0.966406,-0.208808,-0.149865
0.625589,0.360929,0.547883,0.363687,0.909467,0.201499
0.617913,0.200281,0.345095,-0.391247,0.362115,-0.846049
-0.233576,-0.244414,0.726929,0.747861,0.082762,0.658676
-0.304478,-0.213350,0.794467,0.414886,-0.438100,0.797457
-0.160159,-0.257232,0.221016,0.533182,0.387591,-0.751991
-0.336466,-0.357310,-0.368937,-0.549039,0.835776,0.005887
0.066005,-0.142426,0.680127,0.440354,0.382990,-0.812039
-0.362585,-0.368971,0.235523,-0.705909,0.380688,0.597302
0.227399,0.052351,-0.989928,-0.149719,0.247758,0.957183
0.150584,-0.019026,0.742506,-0.175169,0.948951,-0.262313
-0.281050,-0.619845,0.613224,0.106714,0.865593,0.489245
-0.333730,-0.489960,-0.016306,-0.233669,-0.085972,-0.968508
-0.262475,-0.622659,0.403732,0.172077,0.499931,0.848798
-0.180278,0.126140,0.817081,-0.411588,0.803886,-0.429374
-0.182749,-0.215662,0.425176,-0.300300,0.826412,0.476301
0.501169,0.201689,0.549024,-0.417046,0.863577,-0.283388
0.105229,-0.231245,-0.475432,-0.392637,0.919598,0.013267
0.540392,0.249340,0.558055,0.532052,-0.051855,-0.845122
-0.815310,-0.184649,0.440868,-0.751415,0.484158,0.448293
0.315376,0.301717,0.446923,-0.024297,0.963946,0.264987
0.101301,-0.128955,-0.794106,0.425582,0.887071,-0.178847
-0.137349,-0.307447,0.833958,-0.002059,0.862573,0.505928
0.315288,0.519717,0.161902,0.271880,-0.038361,-0.961566
-0.213986,-0.121566,0.869302,0.121119,0.918456,0.376521
-0.063579,-0.504687,0.632486,-0.374204,0.579993,0.723588
-0.401897,-0.163990,0.114030,-0.502800,0.696949,0.511327
-0.050694,-0.371836,0.168867,0.423507,-0.242053,-0.872956
-0.709728,-0.113876,0.458006,0.718547,0.518911,0.463056
-0.383542,-0.082058,0.257834,0.130994,-0.613224,0.778972
-0.293272,-0.583352,-0.019644,0.137818,-0.639511,0.756328
0.006750,0.290909,0.300374,0.952252,0.039907,0.302695
0.154644,0.212999,0.806518,0.447772,0.522870,-0.725333
-0.180983,0.175501,0.352840,-0.391510,0.182551,0.901884
-0.135142,-0.413607,-0.301818,0.024191,-0.278834,0.960034
0.281755,0.228882,0.387448,0.689449,-0.218246,-0.690673
0.167571,0.362789,0.641401,-0.507385,0.726967,-0.462686
-0.139290,-0.038579,-0.172262,-0.458234,-0.882260,-0.107880
-0.376395,-0.215814,0.069770,0.345803,-0.917906,0.194599
0.391660,0.748222,0.147149,-0.531131,0.271255,-0.802696
-0.040724,0.215914,0.075652,-0.801543,-0.365452,0.473259
-0.048710,-0.493478,0.190772,-0.224449,0.341872,0.912549
-0.638121,-0.430395,0.275910,0.826256,0.295118,-0.479798
-0.212177,0.033150,0.578921,0.921742,0.346503,-0.174148
-0.527069,-0.179170,0.206840,0.120750,0.127809,-0.984421
-0.429473,0.022343,0.273093,0.869476,0.418057,-0.263136
-0.675182,-0.406871,0.497916,-0.532595,-0.371652,-0.760406
0.498168,0.053658,0.333550,-0.111701,-0.759894,0.640378
-0.944099,-0.195557,0.277196,0.785576,-0.111866,0.608570
0.005339,0.423861,0.300012,0.840267,0.359156,-0.406151
-0.164969,-0.717711,0.385757,-0.555221,0.413562,0.721593
-0.111229,-0.156400,0.232417,0.494248,-0.190631,-0.848162
0.122567,0.368971,0.712480,-0.365065,-0.546659,0.753586
-0.041826,0.400186,0.583270,-0.086965,-0.194085,0.977122
-0.041650,-0.143381,0.947981,0.511427,0.822273,-0.249618
0.241826,-0.278142,0.867366,0.983483,-0.173908,-0.050175
0.088903,0.447737,0.340630,0.648730,0.488275,0.583727
-0.361968,-0.043052,0.589816,0.788551,0.499026,0.359390
-0.259739,-0.182739,0.579109,0.481583,0.083910,0.872374
-0.477962,-0.093870,0.585813,-0.179758,0.980574,0.078500
0.575953,0.046118,0.530428,-0.287764,-0.383667,-0.877491
-0.018355,-0.439544,0.378041,0.377370,-0.228133,-0.897523
0.265078,-0.552942,0.664333,0.473280,-0.272546,-0.837690
-0.094065,-0.532836,0.040683,0.870603,-0.144185,0.470384
0.130289,0.066626,0.682467,0.367543,0.106433,-0.923896
0.214692,0.522632,0.121717,-0.641904,0.362291,0.675799
0.220207,0.376913,0.622443,0.323505,0.609826,-0.723503
-0.574410,-0.645078,0.370599,0.807420,-0.003817,-0.589965
0.487579,0.625273,0.297093,0.030009,0.209902,0.977262
0.215928,-0.062102,0.843163,0.545522,0.801016,-0.246535
-0.223781,0.126794,0.400842,-0.099818,0.836099,0.539421
0.463930,-0.434618,0.522350,0.532218,-0.100597,0.840609
-0.929538,-0.275579,0.273309,0.592739,0.052537,0.803679
-0.232826,-0.012893,-0.190743,0.305398,0.865595,-0.396834
-0.431105,-0.307798,0.126731,-0.233329,0.496984,0.835802
-0.786587,-0.352183,0.225524,0.153116,-0.937639,0.312072
-0.292036,-0.376863,0.296747,0.108882,-0.959076,0.261378
-0.175557,0.198975,0.236275,0.972052,-0.225528,-0.065211
-0.511008,-0.032999,0.641170,-0.399474,-0.861725,0.312812
-0.154731,-0.371183,0.862612,0.206027,0.801844,0.560891
-0.488242,-0.008419,0.688132,-0.259096,-0.964709,-0.046960
-0.839576,-0.310714,0.240465,0.099494,-0.580916,0.807860
-0.157467,-0.208676,-0.023286,-0.477400,0.155556,-0.864807
-0.646812,-0.690819,0.320401,0.741948,-0.141884,0.655272
-0.180146,0.271759,0.242893,0.442709,0.462756,0.768027
0.045136,0.056071,0.913865,-0.181142,0.944689,0.273403
-0.638385,-0.383297,0.474319,-0.183532,0.783154,0.594126
0.745069,0.866496,0.358852,0.355427,-0.433274,-0.828218
0.480256,0.654427,0.297007,0.115943,-0.059301,0.991484
0.026031,0.301214,0.689244,-0.291085,0.706600,-0.644970
-0.512376,-0.018472,0.631142,0.031805,-0.891364,0.452172
-0.691286,-0.447586,0.178490,0.742786,0.664492,0.081973
-0.074564,0.124833,0.852035,0.594435,-0.276802,-0.755001
0.649504,0.595466,0.324591,0.402879,0.578995,-0.708839
0.043679,0.451506,0.655230,-0.685360,-0.725379,-0.064078
0.007897,-0.760939,0.516845,-0.623044,-0.524463,-0.580305
-0.117185,0.107391,0.846934,0.876117,0.479524,-0.049757
0.266491,0.587675,0.146007,0.787124,-0.391530,-0.476593
0.205691,-0.347207,0.765958,-0.212992,0.836133,0.505486
-0.431060,-0.172686,0.087211,0.382824,-0.887415,0.256790
-0.115730,-0.517706,0.629740,0.554827,-0.696972,-0.454310
0.711757,0.774058,0.341700,0.886621,0.169208,-0.430432
-0.340040,0.133127,0.645765,-0.025960,-0.558279,0.829247
-0.065034,0.260147,0.397013,-0.583501,-0.371297,0.722264
-0.211648,-0.127297,-0.077039,0.121190,0.970807,0.206995
-0.439400,-0.066074,0.664420,-0.009906,-0.246104,0.969193
-0.298213,-0.258690,0.744110,0.839507,-0.273656,0.469405
-0.725436,-0.550127,0.521526,0.323665,0.572614,0.753229
-0.081227,-0.783156,0.659131,-0.683663,0.034021,0.729004
-0.427708,-0.126744,0.513175,0.393958,-0.841858,0.368880
0.272446,0.425972,0.388806,-0.094936,-0.168978,0.981037
-0.569292,-0.229536,0.577317,0.833833,-0.116598,0.539562
-0.365189,-0.572545,0.394181,0.419448,-0.888888,-0.184232
-0.031635,-0.369474,0.745367,0.239851,-0.943035,-0.230558
0.056959,-0.254467,0.661328,0.671584,0.167952,-0.721642
0.165232,0.141019,0.851731,-0.076124,0.872250,0.483098
-0.284933,0.136143,0.680025,0.890772,-0.403692,0.208705
-0.377190,-0.815225,-0.029109,-0.276803,-0.508365,0.815441
-0.358482,-0.507804,-0.010021,-0.175572,-0.379934,0.908199
0.052989,-0.634824,0.325111,0.634391,0.475394,-0.609548
0.038738,-0.069944,0.819017,-0.040582,-0.802829,0.594826
0.548864,0.163035,0.518348,0.223812,-0.872461,0.434419
0.388616,0.193294,0.571942,0.935121,-0.315551,-0.161171
0.322347,-0.005856,-0.986316,-0.061430,0.086272,0.994376
-0.365629,-0.427782,0.139201,0.780830,0.622690,-0.050616
-0.092610,0.026515,0.851284,0.829220,0.429470,-0.357702
0.101477,-0.189223,0.905773,0.604765,-0.179145,0.775994
0.131039,0.415718,0.725166,0.347611,-0.834768,0.427000
0.169116,-0.169921,0.872814,-0.754366,0.480188,0.447607
0.055151,-0.105884,0.794381,-0.443230,0.100780,0.890725
0.328171,0.107844,0.675026,-0.643329,0.263558,0.718794
-0.562320,0.066425,0.687684,-0.765146,0.463730,0.446661
0.125479,0.645178,0.374226,-0.530307,0.150023,-0.834427
-0.346173,-0.557566,0.123740,-0.606978,0.370149,-0.703255
-0.124598,-0.284677,0.850041,-0.535914,0.791585,0.293579
0.050562,-0.750484,0.465548,0.507305,0.069997,-0.858919
-0.610192,-0.565558,0.538736,0.044484,-0.855649,0.515641
-0.046194,-0.207318,0.714474,-0.620956,0.617005,0.483444
0.163821,0.315037,0.598341,0.409488,0.812598,-0.414735
-0.486300,-0.170726,0.638699,-0.732635,-0.622473,0.275271
-0.100243,-0.181684,0.228775,0.173886,-0.773427,0.609569
-0.800353,-0.074217,0.390280,0.906631,0.412798,-0.087279
-0.431810,-0.304280,0.578415,0.044152,-0.892731,0.448422
-0.499890,-0.234612,0.622776,0.891894,0.298457,-0.339777
0.122480,-0.004599,-0.987197,-0.067670,0.488582,0.869890
-0.124112,0.010732,0.701021,0.049899,0.996149,-0.072088
-0.036974,0.392998,0.632052,0.957456,0.054931,-0.283303
-0.456033,-0.181231,0.086576,0.346282,-0.870770,0.349068
-0.044342,-0.721782,0.626807,-0.009786,-0.768713,0.639519
-0.395235,-0.520370,0.489116,-0.591698,0.728349,-0.345545
-0.581910,-0.135138,0.067025,0.432765,0.896171,0.097935
0.404500,0.231144,0.488234,0.608684,0.576024,0.545619
0.174100,0.046420,0.811850,0.568839,0.377932,-0.730472
-0.546878,-0.358566,0.317381,0.946108,-0.048680,-0.320171
-0.075006,-0.057780,-0.188027,0.461125,0.663095,-0.589634
-0.460578,0.110407,0.247126,0.714287,-0.560357,-0.419278
-0.044960,0.252658,0.768458,-0.088330,0.894827,-0.437588
0.485285,0.253613,0.742145,-0.647750,-0.627551,0.431971
-0.054225,0.028274,0.839160,-0.546231,-0.830898,-0.106021
0.062122,-0.196210,-0.644363,-0.606559,0.629978,0.484990
-0.398103,-0.296891,-0.499505,-0.070702,-0.348935,0.934476
0.414294,0.410138,0.401608,-0.504371,0.693095,0.515004
0.075225,-0.149715,0.277890,-0.689860,0.708269,0.149828
0.000705,-0.793410,0.583400,0.136772,0.376264,0.916362
0.135363,0.233004,0.482960,-0.226217,-0.432737,-0.872677
0.218575,0.735203,0.375050,-0.025041,0.548696,0.835647
0.496757,0.375908,0.642427,-0.205957,-0.738318,0.642236
-0.188043,0.171781,0.619308,0.445449,-0.075419,-0.892125
-0.550232,-0.481264,0.610884,0.815882,0.174727,0.551186
-0.594485,-0.391440,0.230683,0.902153,0.429108,-0.044575
-0.087624,-0.791149,0.677237,-0.494040,-0.766341,0.410666
-0.871653,-0.293473,0.265463,0.107483,-0.257486,0.960286
0.369600,0.197165,0.497641,0.434666,0.486168,0.758094
0.041032,-0.212446,0.848943,-0.300456,0.892098,0.337473
-0.079638,-0.339013,0.884894,0.245904,-0.950615,-0.189376
0.180367,0.036719,0.149128,-0.509669,-0.074587,0.857131
0.064240,0.019126,0.679101,-0.129651,-0.507294,0.851964
0.201236,0.132675,0.343983,0.474752,-0.491309,0.730223
0.465564,0.332278,0.631908,0.056936,-0.416762,0.907231
0.309552,0.741738,0.574629,0.392944,0.715957,-0.577062
-0.350320,0.014150,0.635087,0.067171,-0.709151,0.701849
0.335054,0.507603,0.717840,0.225772,0.841934,-0.490077
0.096360,-0.287492,0.652860,0.808076,-0.123877,-0.575906
-0.599955,-0.399734,0.504736,-0.722712,0.641900,0.256226
0.070460,-0.756214,0.572505,0.049016,-0.110933,0.992618
-0.156806,-0.644374,0.246895,-0.730326,0.010462,0.683019
0.343658,0.668451,0.410740,-0.369541,-0.411975,0.832896
0.392896,0.346905,0.407749,0.606773,-0.588843,-0.533939
0.384822,0.683933,0.414165,-0.490113,0.454398,-0.743849
-0.066049,-0.615472,0.682684,-0.779041,-0.542396,0.314486
0.495168,0.353239,0.408299,-0.288680,0.709766,-0.642569
-0.478006,-0.631808,0.348578,0.042517,0.959586,0.278186
0.525788,0.340169,0.623469,0.556079,0.404652,-0.725970
0.061108,0.392445,0.455101,0.798440,0.184590,-0.573080
0.716170,0.727965,0.350254,0.556296,0.067135,-0.828268
0.236841,0.442358,0.393271,0.903951,0.026259,-0.426829
0.286256,0.475935,0.686846,0.914451,-0.328250,0.236709
-0.190955,-0.860414,0.346382,-0.329321,-0.846015,0.419293
0.099096,-0.694438,0.516368,0.929657,-0.311743,0.196350
-0.701390,-0.445022,0.511917,0.303285,0.371443,0.877524
-0.640018,-0.368720,0.512004,-0.276185,0.691183,0.667823
-0.627752,-0.211239,0.320401,0.195325,0.628992,0.752474
-0.128084,-0.441755,0.594902,0.753232,-0.513058,-0.411599
0.145908,-0.082912,0.514489,-0.613924,0.788200,-0.042880
-0.253695,-0.423358,-0.025280,-0.532760,-0.082182,-0.842267
-0.779086,-0.085677,0.437256,0.933201,0.246035,0.261922
-0.428766,-0.393300,-0.311139,-0.374920,0.922769,-0.089067
-0.257887,0.199276,0.648525,0.081955,-0.781534,0.618456
-0.916787,-0.191385,0.260940,0.864566,0.307446,-0.397495
-0.766732,-0.156098,0.462442,-0.341825,0.868666,0.358574
-0.134525,0.110206,0.177175,0.870874,0.474161,-0.129425
-0.211692,-0.526150,0.618484,0.888024,-0.066969,-0.454894
0.393028,-0.404157,0.727883,0.853842,0.384441,0.350939
-0.482682,-0.335193,0.568156,-0.037741,-0.296823,0.954187
0.339598,0.009224,-0.985521,-0.056824,0.131583,0.989675
-0.124950,-0.044409,0.433369,-0.618313,-0.737226,-0.272372
0.390691,0.623715,0.182030,0.467405,0.201191,-0.860846
0.671255,0.608133,0.332683,0.558735,0.397665,-0.727790
0.205030,-0.287743,0.837383,0.983742,0.040680,-0.174921
-0.409928,-0.857800,0.142742,-0.166829,0.876835,-0.450920
-0.714802,-0.393300,0.427228,-0.576896,-0.592787,0.561956
0.035296,-0.773153,0.332235,0.565598,-0.076254,-0.821148
0.279991,-0.116238,0.853971,-0.497771,-0.726909,0.473103
-0.741230,0.001634,0.426361,-0.698513,0.208831,-0.684448
0.495565,0.190832,0.548808,0.029382,0.995854,-0.086089
-0.155702,-0.237679,0.699822,0.081549,-0.934657,-0.346073
-0.461548,0.195557,0.483842,-0.545392,-0.830090,-0.116185
0.185351,0.255020,0.845619,0.976480,-0.161257,0.143121
-0.246988,0.221946,0.649927,-0.657192,0.424165,-0.623043
0.125303,-0.113172,-0.089552,-0.810864,0.553432,0.190297
-0.461548,-0.437181,0.001524,0.115382,-0.572160,0.811985
-0.060401,-0.726910,0.192463,0.620471,0.071708,-0.780944
-0.038695,-0.127548,0.940366,0.908347,0.415967,0.043326
0.240988,0.531981,0.374761,-0.665278,0.332387,0.668523
-0.121288,0.166906,0.635549,0.245168,0.257402,0.934686
-0.141187,-0.414310,0.367579,0.052885,0.611200,0.789707
-0.009575,-0.349770,0.787156,0.205777,0.538613,0.817039
-0.088331,-0.397422,0.865748,0.803872,-0.516562,0.294879
-0.206001,-0.032547,0.797892,0.551634,0.240804,0.798570
0.098390,0.556058,0.372882,0.326374,-0.613084,-0.719450
-0.166866,-0.169469,0.896468,-0.656528,0.727370,-0.199761
0.428326,0.910880,0.190903,0.127343,0.832378,-0.539379
0.134613,0.316746,0.706801,0.182242,0.965726,0.184825
-0.181117,-0.474025,-0.457427,0.266512,-0.820562,-0.505618
-0.238252,-0.070045,-0.235653,0.325797,0.734090,-0.595792
-0.317892,0.006811,0.727912,0.877807,-0.444815,-0.177751
-0.044739,0.388273,0.643367,0.936854,0.218418,-0.273128
0.500860,0.216115,0.600870,-0.147542,-0.712165,0.686332
0.068344,-0.653070,0.685589,0.176546,0.381315,0.907431
0.441474,0.608434,0.384702,-0.274933,0.503460,-0.819109
0.253606,-0.296338,0.523737,0.184990,-0.667371,-0.721384
-0.466048,-0.482269,0.003042,0.156841,-0.506913,0.847609
-0.184955,-0.387620,0.616114,0.528478,-0.726029,0.439993
-0.134878,-0.791600,0.135300,-0.424964,-0.698442,0.575833
-0.459783,-0.286386,0.459508,0.295971,0.331730,0.895744
-0.235032,-0.319812,0.466574,-0.286705,0.332899,0.898320
-0.555747,-0.465681,0.286198,0.943538,0.331152,-0.008628
-0.290404,-0.425771,0.357146,-0.627205,-0.551104,-0.550362
0.281491,-0.510970,0.746220,-0.188419,-0.915677,0.355013
0.552437,0.304833,0.635867,-0.412615,-0.485520,0.770726
-0.099758,0.108497,0.827051,0.801791,0.551396,0.230420
-0.388794,-0.597376,0.469739,0.892053,-0.371973,0.256668
-0.130863,0.246676,0.190108,-0.726975,-0.659774,0.190276
-0.075799,-0.377366,0.796895,0.741628,-0.421124,-0.522152
0.206971,0.724195,0.366857,-0.025041,0.548696,0.835647
0.101257,-0.240343,0.213141,-0.485064,-0.379010,0.788076
0.011957,-0.371887,0.070999,-0.763131,0.548710,-0.341392
0.133554,0.242102,0.481082,0.886100,0.088312,-0.455003
-0.126098,-0.314182,0.731770,0.443295,0.751401,0.488759
-0.745598,-0.385358,0.205034,-0.256047,-0.799362,0.543562
-0.468697,-0.003896,0.633815,-0.435916,0.709158,0.554141
-0.395103,-0.048079,0.588992,-0.100922,-0.991089,0.086935
-0.147055,-0.721229,0.578921,0.499414,0.662802,0.557923
0.313303,0.475181,0.509894,0.022057,-0.887718,0.459858
-0.493802,-0.496695,0.002348,-0.038104,-0.603146,0.796720
-0.049857,-0.851215,0.658886,0.269897,0.504919,0.819886
0.529185,0.566764,0.313465,-0.171288,0.089132,0.981181
-0.085639,-0.324889,0.874157,-0.321839,0.873765,0.364628
-0.012398,-0.841816,0.172046,0.646432,0.757363,-0.092346
0.180322,-0.200834,0.882061,0.649688,-0.579359,-0.492187
0.517449,0.626279,0.318956,-0.509804,0.288969,0.810307
0.013325,-0.227676,-0.719314,-0.481899,0.874902,0.048160
0.422280,0.852874,0.186755,-0.117241,-0.670856,0.732261
-0.150850,-0.677599,0.667888,0.946743,-0.148385,-0.285760
-0.408647,-0.637437,0.384673,-0.470757,0.866929,0.163773
0.700727,0.681218,0.348361,0.303902,0.172728,-0.936914
-0.339952,-0.105431,-0.327828,-0.107369,0.646136,0.755632
0.603265,0.716404,0.321051,0.505565,-0.699941,-0.504467
-0.149526,-0.158461,0.114507,-0.126301,-0.957569,0.259056
0.332804,-0.043052,0.310777,-0.205643,-0.309525,0.928389
0.111626,-0.310815,0.211797,-0.725136,-0.280288,0.628980
0.330686,-0.024856,0.674058,-0.198288,-0.274350,0.940964
0.427045,0.181030,0.712219,0.372168,-0.175012,-0.911516
-0.373836,-0.195858,0.668639,0.914328,0.180065,-0.362741
0.572601,0.174847,0.341006,-0.428690,0.349901,-0.832943
-0.740083,-0.157053,0.407489,0.191526,-0.115905,0.974620
-0.157291,-0.844982,0.365180,-0.546703,-0.594459,0.589690
-0.746172,-0.181834,0.457601,-0.139908,-0.453570,0.880170
0.423119,0.131519,0.341628,-0.053256,0.120943,0.991230
0.375557,0.295936,-0.997283,-0.063771,0.106095,0.992309
0.140304,0.178768,0.494679,-0.684667,0.520412,0.510296
0.299492,0.640253,0.382246,0.389771,-0.727880,-0.564153
0.228987,0.246073,0.375555,-0.431180,0.079541,0.898753
-0.573484,-0.757772,0.144606,-0.250896,-0.933898,0.254727
0.302889,-0.483526,0.721814,0.597225,-0.754786,0.271330
-0.466711,-0.764407,0.388921,0.163591,-0.975196,0.149098
-0.159409,-0.411244,0.873449,0.087277,0.894459,0.438551
-0.584117,-0.222700,0.571465,0.756179,-0.003871,0.654353
-0.816722,-0.154691,0.442891,-0.318708,0.088997,-0.943665
0.732760,0.883837,0.357609,-0.203976,0.351130,0.913839
1.000000,0.717409,0.318609,0.515949,0.442299,0.733600
-0.389015,-0.225213,0.568922,-0.617739,0.239332,0.749079
0.091904,0.003142,0.598832,0.972721,-0.145860,0.180385
-0.124332,-0.556963,0.525746,-0.461390,-0.848990,-0.257556
-0.805692,-0.032597,0.411969,-0.665504,0.224973,0.711682
0.279461,0.517203,0.664940,0.879327,-0.451143,-0.152491
0.558747,0.538817,0.443975,-0.338280,-0.463131,0.819193
0.122524,-0.251300,0.689230,0.878151,-0.241344,-0.413042
-0.230443,-0.303275,0.714820,0.342164,0.845171,0.410622
-0.894287,-0.000880,0.384283,0.921960,-0.387272,0.003180
-0.156541,-0.148257,-0.045697,-0.030800,0.988893,0.145404
-0.208956,-0.492523,0.598298,-0.379489,0.803229,0.459142
-0.600044,-0.413305,0.235437,0.879244,0.331443,0.342162
-0.212839,-0.254417,0.564399,0.044093,-0.246597,0.968115
-0.750805,-0.323230,0.227576,-0.302939,0.951958,-0.044759
-0.154158,-0.339064,0.647860,0.343708,-0.167697,0.923982
-0.512818,-0.584156,0.164850,-0.205513,-0.448635,0.869765
0.024179,0.024504,0.209022,0.845341,0.064857,-0.530276
-0.238738,0.160069,0.711959,-0.679409,0.089829,-0.728241
0.243415,0.313277,0.378966,-0.306963,-0.252361,0.917653
-0.334922,-0.709166,-0.180932,-0.597896,-0.779240,-0.187898
0.063137,-0.158159,0.923041,0.834319,-0.441310,0.330390
-0.115596,-0.269547,0.845836,0.878533,-0.431319,0.205288
0.412178,-0.309156,0.539271,-0.174021,-0.505821,-0.844903
0.240326,0.550328,0.533361,-0.173931,-0.551396,0.815911
-0.393028,-0.482520,0.562650,0.223456,-0.105391,0.969000
0.071608,-0.546257,0.643598,-0.209870,-0.795194,0.568877
0.235032,0.014753,0.498985,-0.619472,0.780547,-0.083667
0.212839,-0.263515,0.861832,-0.721464,-0.663796,0.197141
0.137746,0.106587,0.811619,0.874859,0.362850,-0.320875
0.112199,-0.676242,0.370671,0.690907,0.453064,-0.563366
-0.245004,-0.512730,0.622862,0.937586,0.039357,-0.345520
-0.099096,-0.156149,0.822370,0.143995,0.520525,0.841617
0.007500,0.285330,0.291689,0.936441,0.287584,0.200934
0.028810,-0.309005,0.829045,-0.505391,0.765411,-0.398403
0.229164,0.699917,0.377578,-0.284592,0.455541,0.843498
-0.502183,-0.258639,0.218834,0.306390,0.141674,0.941304
-0.133421,-0.757571,0.637847,0.772781,-0.129988,-0.621219
-0.197529,-0.052653,0.773168,-0.243675,0.713316,-0.657117
0.167792,-0.087587,0.307020,-0.281279,0.596915,-0.751382
-0.094199,-0.792003,0.617603,0.105382,-0.883912,0.455624
0.527906,0.292468,0.554905,0.844336,-0.023973,-0.535278
-0.073682,-0.621604,-0.004140,0.990574,0.032836,0.132985
0.054312,0.210435,0.663047,0.786503,0.617080,-0.024999
0.089742,0.185956,0.804640,0.882256,-0.308205,0.355857
-0.523714,-0.355752,0.333435,0.809648,0.104423,-0.577552
-0.419237,-0.355349,0.552362,-0.331339,-0.937026,-0.110440
0.301169,0.468697,0.492280,0.410674,-0.836627,0.362494
-0.134128,-0.262459,-0.989321,-0.112990,0.040075,0.992788
0.236179,0.171630,0.704604,-0.405441,-0.591903,0.696612
-0.140966,0.269999,0.635463,-0.218580,-0.520792,-0.825226
0.549879,0.635125,0.305503,0.293397,0.535163,0.792161
0.209971,0.451506,0.156917,-0.329644,0.740052,0.586224
-0.561349,0.039483,0.656964,-0.686884,0.672882,-0.274626
-0.138717,-0.536153,0.812053,-0.472026,0.880447,0.044773
-0.103640,-0.427430,0.782243,-0.441409,0.821225,0.361590
-0.641605,-0.416623,0.497034,-0.391374,-0.503906,-0.770003
-0.725215,-0.350072,0.229469,-0.025733,-0.983833,0.177231
0.091815,0.526954,0.363172,0.373320,0.031372,-0.927172
0.016766,-0.152228,0.974236,0.924610,0.282503,-0.255516
-0.184778,0.321220,0.389976,0.431382,0.321839,-0.842810
0.460666,0.531076,0.423601,-0.685030,-0.115349,0.719325
0.439664,0.270251,0.332972,0.278846,-0.721647,-0.633616
-0.907788,-0.263565,0.271387,0.308699,-0.274795,0.910600
0.137260,0.300209,0.591203,0.744083,0.637361,0.200279
-0.052019,-0.695795,0.554602,-0.311984,-0.834198,0.454729
-0.375777,-0.479203,0.366871,-0.446958,-0.258863,0.856282
0.025723,-0.855488,0.200815,-0.324389,0.340792,0.882402
0.214339,-0.335998,-0.975406,0.056806,0.402062,0.913849
-0.351467,-0.048682,0.559645,-0.060379,0.963630,0.260332
-0.417075,-0.021237,0.528202,0.230932,0.543860,0.806775
0.378601,0.480560,0.392115,-0.195896,0.042938,-0.979684
0.099359,0.312423,0.472426,0.885007,0.234755,-0.402061
-0.006928,-0.848048,0.538924,0.986174,0.061237,0.153983
-0.087889,0.277087,0.390424,-0.703346,-0.370108,0.606897
0.520494,0.195958,0.610912,0.178751,0.805429,-0.565094
0.219281,0.384001,0.717291,-0.799817,0.353091,-0.485407
-0.243459,-0.752947,0.231925,-0.002164,0.183790,0.982963
-0.425766,-0.071703,0.702870,0.039757,-0.758565,0.650383
-0.814957,-0.357913,0.119304,-0.049212,0.978034,0.202554
0.475755,0.362487,0.537421,-0.798729,-0.597693,-0.069240
0.604368,0.240594,0.568878,-0.092337,-0.550859,0.829474
-0.350099,-0.238986,0.231145,0.697417,-0.001086,0.716665
0.011118,-0.824072,0.511166,-0.433181,-0.052763,-0.899761
-0.181117,-0.690115,0.492035,0.338885,0.638642,0.690864
0.129979,0.163839,0.805449,0.244983,0.154195,0.957187
-0.803706,-0.170525,0.448541,0.586376,-0.444027,-0.677498
-0.134436,-0.764005,0.395756,0.974923,0.206592,-0.082733
0.193382,0.216718,0.725007,-0.311871,-0.657508,0.685871
-0.514626,-0.418583,0.164171,-0.730505,0.293794,-0.616480
0.326362,0.490512,0.708520,0.225772,0.841934,-0.490077
-0.535671,-0.533640,0.298538,-0.003602,0.795094,0.606476
0.119744,-0.056825,0.913374,0.844007,0.313506,-0.435162
0.227311,-0.280806,-0.979987,0.001340,0.199815,0.979833
-0.168366,-0.358214,-0.986359,-0.173199,0.213249,0.961523
-0.334127,-0.664078,0.633989,0.211438,0.857900,0.468297
-0.375336,-0.594360,-0.023315,-0.214572,-0.802685,0.556467
0.007986,-0.929378,0.594974,-0.154221,-0.959530,-0.235624
-0.197617,0.223303,0.705139,-0.490549,0.598676,-0.633205
-0.019679,-0.743748,0.665677,0.860927,0.503640,0.071774
0.153497,0.461711,0.746812,-0.053694,-0.875633,0.479984
0.689300,0.698359,0.339749,-0.375160,0.069049,0.924385
-0.305581,-0.148408,0.785913,-0.712250,0.544814,-0.442581
-0.079198,0.044409,0.837571,0.889099,0.453696,0.060519
0.228104,0.460705,0.383864,0.869986,-0.138930,-0.473100
0.040590,0.004800,0.889503,0.993879,-0.039984,0.102987
-0.100198,0.264872,0.781390,-0.458880,0.680843,-0.570861
0.176881,-0.340521,0.717335,-0.945572,0.284837,0.157357
-0.536245,0.004197,0.625275,-0.477744,-0.412825,0.775459
0.405426,-0.027822,0.671168,0.368814,0.581214,-0.725373
-0.359409,-0.588932,0.573907,-0.144143,0.819724,0.554324
-0.242004,0.102315,0.836473,-0.680311,0.610657,-0.405309
-0.410323,-0.269446,-0.498219,-0.121257,-0.223608,0.967107
-0.082065,0.366509,0.624047,0.309892,0.594666,-0.741849
-0.250827,-0.167207,0.066505,0.081905,0.996192,0.029883
-0.078667,-0.170675,0.827398,0.739727,0.580077,0.341050
-0.041606,0.101108,0.760409,0.769477,0.342957,0.538781
-0.019458,-0.648747,0.196480,-0.468798,-0.047015,0.882053
-0.162585,0.346603,0.369674,-0.182278,-0.431260,0.883623
-0.401721,-0.605620,0.375527,-0.073794,-0.613706,0.786079
-0.339510,-0.311317,0.746046,0.883290,0.197153,0.425359
0.346570,0.475835,0.706902,0.274950,0.836341,-0.474274
-0.355217,-0.344894,0.356901,-0.008588,0.039280,0.999191
0.042445,-0.107542,-0.509490,-0.430710,0.883866,0.182397
-0.318553,-0.160220,0.624177,0.935654,-0.047659,0.349685
-0.222633,-0.675086,0.431649,-0.032519,0.324193,0.945432
-0.406618,-0.551384,0.177378,-0.132426,0.389151,0.911606
0.330554,0.445676,0.678783,0.320581,-0.199692,0.925933
-0.799912,-0.152077,0.438932,-0.654655,0.652659,-0.381396
-0.232208,-0.127297,0.276604,0.401589,0.915180,0.034235
-0.247871,-0.611149,0.434395,0.063534,0.554228,0.829937
0.092081,0.583453,0.522552,0.329077,-0.330711,0.884499
0.006971,-0.166101,0.927621,0.422507,0.856337,0.296943
-0.192587,-0.510719,0.602618,-0.223347,0.923974,0.310463
0.312729,0.134082,0.646473,-0.130400,0.952679,0.274588
-0.024046,0.266029,0.071476,0.888754,0.356765,-0.287810
0.393338,0.014150,0.698030,-0.032755,0.107424,0.993674
-0.795102,-0.129810,0.437386,0.199492,0.319701,0.926280
-0.330554,-0.624117,0.409411,-0.022741,0.587434,0.808952
0.316700,-0.150016,0.806056,-0.066641,-0.950782,0.302609
0.134436,-0.152630,-0.028329,0.282881,0.953390,-0.105003
0.312022,-0.274171,-0.976158,-0.024737,0.094875,0.995182
0.002736,-0.198522,0.395323,-0.467858,0.879239,0.089709
-0.559276,-0.730579,0.154229,-0.052877,-0.973551,0.222269
0.347628,0.272814,0.596376,0.341573,0.536108,0.771956
-0.651048,-0.054714,0.636358,-0.243576,0.867416,-0.433889
0.313832,0.043203,0.508117,-0.403899,-0.019649,0.914593
0.571101,-0.302068,0.486370,0.393970,0.767147,0.506235
-0.219457,-0.367865,0.732651,0.197321,-0.173260,0.964907
0.141804,0.431401,0.373663,0.003692,-0.551408,0.834227
0.623913,0.229687,0.338766,-0.337081,-0.249401,-0.907841
-0.853650,-0.233808,0.130546,0.103182,-0.582985,0.805905
-0.551379,-0.445073,0.318233,0.874298,0.035138,-0.484117
0.091771,-0.132323,0.692120,-0.126068,0.037597,0.991309
-0.473638,-0.333082,0.541424,0.702791,0.709213,-0.055689
0.101037,0.285029,0.452385,0.743241,0.414347,-0.525271
-0.874918,-0.022494,0.364834,-0.790959,-0.529625,-0.306400
-0.455812,-0.277438,0.591160,-0.428725,-0.809498,0.401132
0.207059,0.538013,0.524908,0.467641,0.604875,-0.644544
0.075359,-0.217221,0.911669,0.974711,0.075050,0.210491
0.184381,0.507200,0.512178,-0.288859,-0.414790,0.862850
-0.585793,-0.574958,0.327236,-0.104729,-0.921465,0.374079
-0.576705,-0.184347,0.135965,-0.219724,0.853794,0.471972
-0.028281,0.378472,0.282572,0.675402,0.370891,-0.637395
-0.010678,-0.036166,0.779945,0.404620,-0.458258,0.791380
-0.512552,-0.175501,0.608485,0.770362,0.558113,0.308305
0.258945,0.413104,0.647355,-0.589134,-0.569019,0.573706
0.224619,-0.024052,0.865415,-0.276310,0.679022,0.680134
0.901654,0.695142,0.349228,-0.351722,-0.071704,-0.933354
0.213677,0.602151,0.534199,-0.603300,-0.099206,0.791320
-0.864064,-0.380432,0.120316,-0.091270,-0.922903,-0.374059
0.087403,0.058132,0.849463,-0.092652,-0.631921,0.769475
-0.529716,-0.541331,0.589137,0.358387,0.056953,0.931834
0.197044,-0.341828,0.813584,0.978869,0.204374,-0.006820
-0.632606,-0.623715,0.530370,0.123743,0.851255,-0.509954
0.287844,0.568122,0.537623,0.138047,-0.585485,0.798843
0.111008,0.429541,0.732044,-0.246248,0.806340,-0.537752
-0.610148,-0.066978,0.610522,0.172164,-0.955877,0.238031
-0.131965,-0.703335,0.556726,-0.479467,-0.710583,-0.514960
-0.773218,-0.140164,0.408327,0.867438,-0.385045,0.315106
-0.047474,0.243861,0.676269,-0.164948,0.818698,-0.550024
0.192763,0.548066,0.525645,0.493937,0.488872,-0.719048
0.135715,-0.254719,0.884344,-0.525095,0.794232,-0.305729
-0.829605,-0.167609,0.461199,0.500282,0.782204,-0.371314
0.546835,0.237930,0.623383,-0.125004,-0.875015,0.467678
0.036443,-0.265626,0.735440,-0.086948,0.399161,0.912749
-0.605338,-0.365453,0.503103,-0.077063,0.709442,0.700538
-0.123230,-0.439895,0.889113,-0.599021,0.752054,0.274932
0.342819,0.352183,0.400712,0.631690,-0.352252,-0.690570
0.457357,0.221041,0.752866,-0.322188,-0.852373,0.411892
-0.036311,-0.539772,0.851731,0.865015,0.417571,0.278177
-0.043371,-0.401794,0.809452,0.851949,-0.405147,-0.331721
0.242709,0.622006,0.346844,-0.287062,-0.205385,0.935635
0.326804,0.649602,0.404672,0.548286,0.194620,-0.813330
-0.161262,-0.313428,0.131283,0.965003,-0.260058,-0.033751
-0.353056,-0.483224,0.472296,-0.919517,0.119913,0.374312
-0.086786,-0.304732,0.681254,-0.783849,-0.351634,0.511796
0.051841,0.034155,0.857309,0.836641,0.054749,0.545009
0.572248,0.583151,0.320531,-0.307151,0.452485,-0.837207
0.153849,-0.156098,0.694042,0.010151,0.351544,0.936116
-0.116391,-0.157556,0.843365,-0.266641,-0.963010,0.038918
0.379793,-0.566312,0.749774,0.651432,0.242853,0.718790
0.188705,-0.059539,0.821864,0.188822,0.933933,0.303504
0.110037,0.538113,0.380136,-0.168150,0.138871,0.975931
0.188837,0.526402,0.119073,0.497943,-0.497347,-0.710422
-0.580322,-0.560130,0.318046,-0.478526,0.751512,0.454140
-0.252416,-0.630049,0.596968,-0.128398,0.830782,0.541586
-0.541407,-0.014753,0.708708,-0.389220,0.921062,-0.012335
0.140040,0.481565,0.747289,0.013146,-0.839978,0.542461
0.444518,0.846490,0.161584,-0.047791,-0.438061,0.897674
-0.349923,-0.446178,0.117353,-0.598972,0.063033,-0.798285
0.242973,0.392295,0.385208,-0.451589,-0.309814,0.836709
0.148202,0.294528,0.479825,0.876372,0.131550,-0.463321
-0.586543,-0.023599,0.653322,0.146551,0.987805,-0.052575
0.063224,0.431652,0.445608,0.647331,0.535293,-0.542609
-0.119832,-0.046772,0.812370,-0.486257,0.801392,0.348317
-0.190073,-0.453768,0.155905,-0.230200,0.451058,0.862296
-0.153584,-0.441554,0.705399,0.460923,0.509620,0.726525
-0.724950,-0.127850,0.462008,-0.047931,0.138039,0.989266
-0.627575,-0.120661,0.620883,-0.424396,0.860451,-0.281980
0.810456,0.624318,0.352479,0.335187,-0.150884,-0.929991
0.263622,0.629345,0.394427,-0.537055,0.350966,0.767069
0.055283,-0.169871,-0.367001,0.829730,-0.461037,0.314633
-0.219325,-0.371636,-0.658394,-0.594798,0.803308,0.030188
-0.508582,-0.507703,0.587273,-0.654872,0.103570,-0.748609
0.532009,0.249994,0.559255,-0.548536,0.108629,0.829040
0.156805,0.668954,0.509851,0.888269,-0.385644,0.249512
-0.006707,-0.149765,0.942331,-0.471601,-0.513063,0.717188
-0.458857,-0.478600,0.561379,-0.515351,0.225101,0.826888
-0.535097,-0.419438,0.277745,0.668068,0.589630,0.453895
0.311185,-0.127498,-0.981215,-0.029270,0.123966,0.991855
0.089874,-0.364749,0.786794,-0.647935,0.460623,-0.606636
-0.436664,-0.206866,0.087818,0.382824,-0.887415,0.256790
0.347628,0.436125,0.288294,-0.388754,0.283278,0.876712
0.085329,-0.021790,0.674824,0.364349,-0.041748,-0.930326
0.021355,-0.065269,-0.767374,0.710823,0.691859,-0.126734
0.237900,0.005202,-0.986908,-0.223021,0.305818,0.925601
0.008912,0.050692,0.686037,-0.540872,0.376143,-0.752312
-0.333995,-0.847797,0.134736,0.843117,-0.369875,0.390315
-0.789587,-0.209731,0.421260,-0.042109,-0.320907,0.946174
0.404942,0.037171,0.692105,-0.046387,0.164963,0.985208
-0.816149,-0.052301,0.415350,-0.200380,0.648248,0.734590
-0.684712,-0.039684,0.421520,-0.303469,0.448157,0.840870
-0.010280,0.393450,0.658322,-0.668477,-0.331213,0.665910
0.352128,0.532433,0.503724,0.376248,0.062269,0.924424
0.073064,-0.735706,0.205092,0.067766,0.098288,-0.992848
0.459916,0.010480,0.501788,0.709503,-0.703821,-0.035236
-0.443724,-0.298902,0.693377,-0.742595,-0.529838,-0.409665
-0.193337,-0.608284,0.628093,-0.185669,-0.737461,0.649368
-0.051446,0.555656,0.641416,-0.120632,-0.552646,0.824640
-0.463269,-0.192139,0.325531,0.150383,0.299642,0.942125
-0.726892,-0.274222,0.327973,0.830758,-0.439772,-0.341236
-0.127024,-0.149112,-0.083266,-0.026714,-0.953460,-0.300333
0.394617,0.065320,0.566884,0.969287,0.228567,0.090774
-0.061461,-0.126593,0.937043,0.960639,0.015805,0.277350
0.118067,-0.062756,0.305070,-0.277855,0.603704,-0.747220
0.745995,0.827540,0.369111,0.423756,0.849002,0.315637
-0.404456,-0.102717,-0.060046,-0.266999,-0.932606,-0.242813
0.346216,0.073513,0.675084,0.761989,0.155544,-0.628632
-0.195058,0.004800,0.484044,-0.287916,-0.921084,-0.262122
0.565894,0.494986,0.449379,-0.269785,-0.421873,0.865586
-0.477035,-0.542235,0.495719,-0.283792,0.824238,0.489994
-0.170086,-0.275931,0.496687,-0.717114,0.367050,-0.592471
-0.960687,-0.243057,0.249294,0.962611,0.264435,-0.058771
-0.078624,-0.873734,0.029123,-0.490836,-0.542911,0.681416
-0.559231,-0.536304,0.588530,0.591711,0.428061,0.683112
-0.235297,0.069291,0.789352,0.409646,-0.541087,0.734449
0.191573,0.289150,0.371221,0.419620,0.207813,-0.883591
-0.064373,-0.525145,0.711324,0.696823,0.692092,0.188270
-0.003971,-0.570384,0.353462,-0.576398,-0.539629,0.613650
0.472931,0.043253,0.691195,0.039051,-0.402653,0.914519
0.032428,0.063108,0.869273,0.831509,0.497104,-0.247952
-0.041694,-0.329061,0.841371,0.727326,0.079545,-0.681666
-0.154026,-0.010983,0.227446,-0.014321,-0.340546,0.940119
0.246283,0.679660,0.546091,-0.463557,-0.667936,0.582217
-0.428281,-0.610747,0.175803,0.370483,0.049166,-0.927537
-0.239047,-0.208525,0.772561,-0.280819,-0.959256,0.031125
-0.412751,-0.872226,0.154692,-0.023485,-0.666080,0.745511
-0.154731,0.294026,0.827875,0.309684,-0.904947,0.291833
-0.995014,-0.193194,0.300518,0.737331,-0.423618,0.526205
-0.468608,-0.866395,0.128451,0.279182,0.317829,-0.906114
-0.094154,-0.158562,0.861572,0.434250,0.842170,-0.319651
-0.697243,-0.001181,0.476573,0.568366,-0.701264,0.430335
0.418619,0.511523,0.379948,0.925470,0.178758,-0.333991
-0.532010,-0.004901,0.688796,-0.168959,-0.985278,0.026085
0.019987,-0.316344,0.897234,-0.326116,0.710368,0.623719
-0.408426,-0.607228,0.554154,-0.283548,-0.752359,-0.594607
-0.395323,-0.615019,0.172710,-0.004439,0.000530,0.999990
0.095565,-0.271206,0.918894,0.785843,-0.069877,-0.614466
-0.323494,-0.149866,0.781780,0.798125,-0.058973,0.599599
-0.773086,-0.358114,0.120113,-0.009343,-0.999816,-0.016750
-0.144187,0.223655,0.156136,-0.362288,-0.655959,0.662167
0.310743,-0.058684,0.667107,-0.185631,-0.516965,0.835637
-0.442224,-0.237528,0.196061,-0.108340,-0.205082,0.972730
0.730642,0.754354,0.351800,-0.592914,-0.070973,0.802132
-0.007191,0.166554,0.722204,-0.043788,0.977304,0.207269
0.110126,0.186006,0.678812,-0.510230,-0.548219,0.662663
-0.169821,0.202192,0.160269,0.652305,0.407780,-0.638916
-0.271829,-0.096786,0.823063,0.125190,-0.928341,0.350016
-0.393735,-0.425369,0.565006,0.376055,0.294146,-0.878670
-0.452681,-0.145894,0.032172,-0.092547,-0.814527,0.572696
-0.440856,-0.346201,0.562015,0.982533,-0.053395,0.178265
0.346702,-0.052552,-0.982082,-0.020305,0.110470,0.993672
-0.682594,-0.086230,0.630882,0.905443,-0.423891,-0.022110
-0.398059,-0.864234,-0.037114,-0.277938,-0.618413,0.735062
-0.474034,-0.174244,0.638526,0.889892,0.427638,-0.158801
0.242312,0.021438,0.665937,-0.219013,0.135023,0.966334
0.096183,-0.166755,-0.572100,0.930512,-0.359748,0.068759
0.563909,0.293825,0.637977,0.321054,0.494116,-0.807944
-0.438694,-0.482369,0.283034,0.891592,-0.373792,0.255623
-0.614780,-0.082561,0.099074,-0.659231,-0.751927,-0.004527
-0.185396,-0.824122,0.361395,0.571884,0.697160,-0.432339
-0.421443,-0.182839,0.230264,-0.306512,-0.749585,0.586663
-0.799603,-0.303526,0.253889,0.459462,-0.357585,0.813036
-0.058504,0.438186,0.357407,-0.699353,0.632276,-0.333366
0.375733,0.772199,0.426419,-0.762979,-0.088321,0.640361
0.426693,0.640101,0.172233,0.730198,-0.065633,-0.680076
-0.291992,-0.001231,0.659637,0.981000,-0.119054,0.153184
0.129495,-0.684938,0.613094,0.929089,-0.366222,0.051726
0.170792,-0.598733,0.664651,-0.671298,0.059810,0.738771
-0.547099,-0.035362,0.601144,-0.265463,0.864530,-0.426752
-0.479020,-0.152479,0.640621,0.908349,0.248005,0.336743
-0.457180,-0.468748,0.577707,-0.758708,-0.083438,-0.646066
-0.859210,-0.326447,0.104970,0.068377,-0.289245,0.954810
-0.668034,-0.768579,0.178042,-0.607308,0.157318,-0.778735
0.207545,-0.177411,0.909530,0.057784,0.948742,0.310725
-0.165453,-0.091709,0.800709,0.277521,0.824923,0.492426
-0.067108,-0.130262,0.856601,0.347160,0.920917,-0.177176
0.043150,-0.180829,0.942938,-0.051539,-0.995229,0.082839
0.474652,0.365402,0.639581,-0.186582,-0.734418,0.652547
0.612662,0.236573,0.324967,0.140262,0.475799,0.868298
-0.287315,-0.305939,0.543331,0.240970,0.247049,-0.938563
-0.381160,-0.898666,-0.043082,-0.348405,-0.801052,0.486754
-0.004457,0.588077,0.653568,0.006749,-0.913591,0.406577
0.069887,0.364045,0.565743,-0.293348,-0.866322,-0.404269
0.372512,0.598834,0.393834,-0.420426,0.614067,-0.667955
-0.273947,0.206766,0.720557,0.782153,-0.460500,0.419733
-0.301875,-0.558722,-0.022794,-0.076862,-0.680487,0.728717
-0.019855,-0.685742,0.691455,0.266104,-0.225964,-0.937085
0.212884,-0.305436,-0.975175,-0.017681,0.293771,0.955712
-0.434149,-0.019880,0.605248,0.819967,-0.440228,0.365860
-0.347364,-0.537460,0.543692,0.218950,-0.897106,-0.383748
-0.113126,-0.598784,0.387115,0.922525,0.019722,0.385432
-0.421575,-0.164845,0.316268,-0.373939,0.878227,-0.298138
-0.238297,-0.057930,0.481342,-0.075524,0.754983,0.651381
0.109508,0.415818,0.378937,-0.315770,0.859043,0.402908
0.008471,0.455126,0.301067,0.716329,0.409959,-0.564629
0.010809,0.269447,0.303798,0.833490,-0.108501,0.541777
0.641561,0.328156,0.538332,0.716666,0.510186,-0.475500
-0.269093,0.065068,0.446677,0.509450,0.489209,0.707909
-0.076903,-0.079394,0.239800,-0.784468,-0.065270,0.616725
0.166866,0.426123,0.141528,-0.395717,0.814518,0.424227
-0.049725,0.148408,0.794496,0.862577,0.140036,0.486160
0.057004,-0.076981,1.000000,0.318504,-0.926493,-0.200413
0.172160,-0.578124,0.623238,-0.873090,0.042484,0.485705
-0.787337,-0.114328,0.444900,-0.243158,0.788723,-0.564616
-0.111449,0.254920,0.237965,0.122266,0.340707,0.932185
0.547364,0.871170,0.182580,0.029296,-0.712902,0.700651
-0.683168,-0.246526,0.455462,0.631208,-0.121551,0.766030
-0.861857,-0.231345,0.247083,-0.603283,0.710546,0.362181
-0.847385,0.078841,0.425869,0.502994,-0.646374,0.573757
0.107566,-0.257936,0.800435,0.987234,0.091939,0.130063
-0.023119,0.102114,0.867872,0.492533,0.696742,-0.521500
-0.717803,-0.201689,0.410712,-0.068689,-0.253497,0.964894
0.320847,0.074418,0.675763,0.601219,-0.628643,-0.493298
-0.035164,-0.115434,0.961853,0.396258,0.914171,0.085266
-0.691154,-0.127548,0.070493,-0.233720,-0.835100,0.497980
-0.614251,-0.347408,0.479593,0.868063,0.278567,0.410935
-0.059122,0.338662,0.646560,0.940844,-0.205871,-0.269126
-0.012398,-0.329111,-0.976114,-0.094528,0.113219,0.989063
0.005250,0.200734,0.070074,-0.353183,-0.347840,0.868486
0.107876,0.184850,0.686037,0.939154,0.291648,0.181470
0.355438,0.138455,0.513117,-0.658040,0.483525,0.577223
0.134525,-0.308000,0.732709,0.373707,-0.790585,0.485096
0.019811,-0.239589,-0.982675,-0.252246,0.179213,0.950923
0.066137,-0.008520,-0.990636,0.321040,-0.500238,-0.804174
-0.060005,-0.674835,0.183938,-0.547272,-0.086863,0.832435
-0.604765,-0.189977,0.561913,0.961845,0.090507,0.258193
-0.321729,-0.427430,0.319433,-0.187137,0.790911,0.582614
0.085506,-0.138405,-0.189848,0.322277,0.946108,0.031903
-0.104611,-0.014300,0.244395,-0.249183,0.013883,0.968357
-0.504301,-0.637337,0.387101,-0.694819,-0.585386,-0.417791
-0.130995,-0.615522,0.480460,0.834815,-0.037194,0.549272
0.007941,0.268340,0.673538,0.320650,-0.727623,0.606422
0.039400,-0.137048,0.895427,0.799761,0.526816,0.287832
-0.049283,-0.183191,0.680127,-0.198927,0.803229,0.561472
0.072799,-0.252809,0.668567,0.781587,0.170287,-0.600104
0.055812,-0.125939,0.153680,-0.539236,0.224397,-0.811709
0.582352,0.190882,0.560555,-0.190024,0.675896,-0.712078
-0.394793,-0.309106,0.231044,-0.717166,0.285776,0.635613
-0.068431,0.157858,0.778298,0.799222,0.306120,0.517237
-0.288462,-0.236774,0.663900,-0.447655,-0.720778,-0.529230
0.433399,0.137098,0.345254,0.194017,-0.058896,-0.979229
-0.086697,-0.937671,0.361366,0.408838,0.752287,-0.516639
0.345510,-0.109452,0.811532,0.042834,-0.999082,-0.000072
-0.288638,-0.107693,0.792545,-0.629571,0.775812,-0.041908
-0.084536,-0.881877,0.013821,-0.490836,-0.542911,0.681416
-0.939642,-0.224308,0.253383,0.964657,0.222858,-0.140614
0.572159,0.705396,0.289464,0.145816,0.347149,0.926405
0.501522,0.394204,0.300215,-0.170098,-0.179498,0.968941
0.030531,-0.187313,0.962835,-0.230260,-0.936790,0.263449
-0.662828,-0.448441,0.503883,0.421306,0.702040,0.574144
-0.308802,-0.753902,0.251591,-0.377332,-0.295783,-0.877572
-0.158615,-0.760437,0.628917,0.159972,0.542248,0.824849
0.744187,0.190228,0.382578,-0.433277,0.479073,0.763387
0.377586,-0.389027,0.735166,0.418830,-0.405286,-0.812604
-0.708008,-0.488954,-0.255276,0.384101,-0.918832,0.090638
0.196647,0.039634,0.147481,-0.509669,-0.074587,0.857131
-0.073064,-0.333585,0.893968,-0.423131,0.853777,0.303355
-0.038032,-0.328257,-0.982732,-0.129110,0.154847,0.979466
-0.393382,-0.257634,0.584441,-0.085749,0.962902,0.255866
-0.111449,-0.023650,0.460621,-0.275139,-0.640426,0.717044
0.216502,0.679409,0.533144,0.137084,0.959356,-0.246668
0.043371,0.017869,0.059526,-0.070401,-0.219874,0.972985
-0.052239,-0.046822,0.772475,-0.645984,0.095907,0.757303
0.198279,0.068134,0.406276,-0.792419,0.395863,0.464074
-0.163645,-0.662621,0.676558,-0.736832,0.426901,0.524247
-0.344628,-0.199075,0.686152,0.997159,0.042014,-0.062516
-0.409839,-0.473322,0.562000,0.183288,0.143561,0.972520
-0.897904,-0.245621,0.192290,-0.259294,-0.965610,-0.019093
0.339951,0.111815,0.510892,-0.635100,0.189560,0.748809
-0.500596,-0.913845,0.128046,0.414862,-0.118874,-0.902085
-0.146216,0.271658,0.798672,-0.557496,0.711119,-0.428378
-0.702978,-0.340924,0.494809,0.830984,-0.184381,0.524851
-0.488153,-0.728468,0.155342,-0.190182,0.533363,-0.824230
0.557070,0.300108,0.644667,-0.248840,-0.495391,0.832266
0.175425,0.167559,-0.133205,0.392902,-0.345310,-0.852285
0.077917,-0.232803,-0.453121,0.061521,0.996291,0.060159
0.456696,0.392295,0.650779,0.217983,0.762609,-0.609025
0.215971,-0.072457,0.682236,-0.509125,-0.082611,-0.856719
0.133289,-0.820553,0.481385,0.029196,-0.582104,0.812590
0.340437,0.364146,0.403053,0.631690,-0.352252,-0.690570
-0.063181,-0.734399,0.527783,-0.738559,-0.673857,-0.021149
0.289741,0.057981,0.673017,0.965661,-0.220677,0.137116
0.636796,0.290608,0.559096,-0.825903,0.364978,-0.429738
-0.783146,-0.269396,0.407446,-0.332807,-0.867929,0.368700
0.040282,-0.765865,0.494043,-0.442303,-0.872761,-0.206534
-0.590779,-0.826183,0.102369,0.733919,0.379072,-0.563620
-0.560247,-0.366358,0.295446,0.895565,-0.369890,-0.247273
0.045665,-0.675891,0.366149,0.641302,0.424044,-0.639467
0.084668,-0.833773,0.637485,-0.521149,0.161445,-0.838057
0.065431,-0.095579,0.593659,0.870874,-0.467011,0.153227
0.358174,-0.168816,0.447963,-0.254482,-0.772802,-0.581391
-0.179396,-0.520169,-0.317323,-0.510632,0.231248,-0.828118
-0.356541,-0.210636,0.635072,-0.100249,0.828955,0.550258
-0.871122,-0.285230,0.246592,0.734772,-0.657329,-0.167419
-0.637326,-0.233858,0.224310,-0.490847,-0.315701,-0.812036
0.152261,-0.287039,-0.975493,-0.040047,0.050538,0.997919
0.120714,-0.133881,-0.616259,-0.327436,0.942390,-0.068464
-0.724553,-0.145292,0.470013,-0.484645,-0.352572,-0.800508
-0.371807,-0.799291,0.153088,0.424102,-0.614895,0.664862
-0.346657,-0.657644,0.378243,0.029336,-0.904674,0.425094
-0.230664,-0.713991,0.134202,-0.518528,-0.215156,0.827549
-0.239136,0.271155,0.730007,0.426611,-0.863356,0.269479
0.829782,0.921536,0.359126,0.136650,0.189272,0.972370
-0.027576,-0.833421,0.167234,-0.696577,-0.712054,0.088089
0.604102,0.356003,0.555816,-0.240378,-0.887468,-0.393216
-0.348775,-0.467491,0.561928,0.041385,-0.544857,0.837507
-0.050033,0.229586,0.746234,0.242832,-0.527345,0.814211
0.067416,0.287994,0.645129,0.067832,0.722789,0.687731
0.199249,0.107341,-0.994133,-0.208130,0.232312,0.950112
0.200883,-0.009123,-0.091170,0.080849,-0.169081,0.982281
-0.820296,-0.198974,0.441128,0.893235,-0.153303,-0.422646
-0.521420,-0.594863,0.366886,-0.108106,0.992148,-0.062887
-0.101346,-0.386011,0.859664,-0.333877,-0.686738,-0.645691
0.085550,0.560130,0.380555,0.309182,-0.563166,-0.766323
-0.018045,0.299706,0.248311,0.344991,0.799497,-0.491716
0.184204,0.057177,0.767865,-0.599829,-0.730556,0.326332
-0.684844,-0.523889,0.527306,0.132060,0.859152,0.494386
0.147629,0.240544,0.362536,-0.218286,0.018177,0.975715
0.341892,0.088944,0.684158,-0.688737,0.403866,0.602107
0.099272,-0.633768,0.545556,0.883242,-0.407589,-0.231850
-0.003353,-0.857448,0.475547,-0.248958,-0.063095,0.966457
-0.464990,-0.429692,-0.175528,-0.546672,0.571463,0.612030
0.660358,0.678353,0.336281,-0.642194,-0.244745,0.726420
-0.498346,-0.061550,0.228515,0.758311,0.284004,-0.586775
0.061240,-0.096735,0.821459,0.847464,-0.197718,0.492659
-0.540084,-0.112921,0.624293,-0.037122,0.850378,0.524862
0.304434,-0.132826,0.805088,-0.058501,0.969757,-0.236958
-0.111979,-0.750433,0.675474,-0.619075,-0.723026,0.306562
0.440017,-0.474679,0.717869,0.907331,0.335606,0.253217
0.115728,0.509412,0.490647,0.952942,0.302817,0.014259
-0.253077,-0.383398,0.144490,-0.016778,0.479836,0.877198
-0.038474,0.502023,0.681543,-0.190634,-0.534850,0.823161
0.288904,0.038478,0.679289,-0.512158,0.466289,-0.721296
-0.755438,-0.083968,0.446301,-0.473428,0.805387,0.356676
0.088021,-0.134082,-0.726597,-0.700584,0.713464,-0.012300
0.160512,-0.026464,0.823034,0.675424,0.041316,0.736271
-0.565144,-0.638845,0.361019,0.179499,0.129397,0.975211
-0.675270,-0.319913,0.436403,0.675373,0.631489,-0.380911
0.076859,-0.258589,0.888087,-0.186098,0.314353,0.930886
-0.119656,-0.562995,0.716193,-0.728397,-0.379152,-0.570686
-0.486035,-0.108095,0.581117,-0.271898,-0.771728,-0.574898
0.819281,0.922139,0.345471,-0.499559,0.128005,-0.856771
0.387955,0.917615,0.171814,0.080637,-0.714890,0.694572
-0.082197,-0.422202,0.809090,-0.200908,0.682882,0.702359
