-0.194909,0.745722,-0.971827,-0.169714,-0.235016,0.957060
-0.106377,-0.275839,0.150718,0.850165,0.524473,0.046345
0.256069,0.763990,-0.961799,-0.229608,-0.065732,0.971061
-0.339105,-0.218898,0.466081,0.884679,-0.200001,0.421121
0.036827,-0.228269,0.515879,0.893260,0.119497,0.433368
-0.145915,0.121979,0.582683,0.336754,0.913399,0.228689
0.379306,0.359234,0.478191,-0.464480,-0.335675,0.819500
0.406678,-0.408108,0.623326,-0.479343,0.691443,0.540498
-0.297521,0.184376,0.796023,0.508003,-0.707398,0.491447
-0.057319,0.328924,0.839509,-0.675924,0.710183,0.196892
0.485820,0.278151,0.439698,0.265601,0.480730,0.835676
0.373689,0.431418,0.486888,0.423560,0.622857,-0.657758
0.331240,0.636228,0.323776,-0.307551,0.488014,0.816857
0.753656,0.130579,0.392716,0.423900,0.145353,-0.893969
0.689853,-0.232481,0.450795,-0.387335,0.146541,0.910218
0.529390,-0.139654,0.436105,-0.335558,0.483733,0.808334
0.090118,0.311723,0.821810,0.324066,-0.886002,0.331634
-0.319933,0.017290,0.626419,0.358118,-0.228892,0.905185
0.043042,0.502357,0.740122,0.373288,0.371166,-0.850230
0.616070,0.468786,0.416602,0.532284,-0.345610,-0.772805
-0.578311,-0.186512,0.637128,-0.175855,-0.184099,0.967048
0.028498,-0.558232,0.387570,0.375715,0.677514,0.632308
-0.181552,-0.319612,0.659530,-0.156948,0.013988,0.987508
0.121719,0.253715,0.966140,-0.440037,0.889224,0.125093
-0.220493,0.364631,0.810491,0.622630,0.781775,0.034065
-0.057980,-0.650346,0.411567,0.310743,0.943710,-0.113355
0.093359,0.732613,0.434219,0.333216,0.471587,-0.816439
-0.243701,0.139298,0.717429,-0.262861,0.964632,-0.019724
0.163772,-0.432605,-0.004501,0.460529,0.240097,-0.854556
0.052565,0.866069,0.726112,0.396797,0.208008,-0.894027
0.099307,-0.278152,0.319656,0.999701,-0.005549,-0.023794
-0.117022,-0.418963,0.566703,0.583602,0.561264,0.586849
-0.130181,0.065334,0.352739,-0.142847,-0.744392,-0.652284
0.062549,0.410006,0.445399,0.987363,0.101158,0.121990
0.052496,0.024289,0.632204,0.924567,0.377874,-0.048858
-0.670543,-0.258163,0.517155,-0.687285,0.023707,-0.726000
-0.005553,0.191910,-0.974962,0.361652,0.358752,-0.860526
0.023143,0.277559,0.755880,-0.661811,-0.674566,-0.327058
0.166480,0.365520,0.780792,0.786181,-0.545376,0.290663
-0.327733,0.487767,0.497902,-0.203434,-0.794960,0.571536
0.389556,0.605030,0.326190,-0.326732,0.349998,0.877922
-0.598806,-0.393280,0.243836,-0.625029,0.701718,-0.341951
0.347967,0.002758,0.400748,-0.403110,0.149944,0.902784
0.399539,-0.072926,-0.056463,-0.714766,-0.641539,-0.278456
0.015871,-0.595658,0.125542,-0.087529,0.094767,0.991644
-0.276561,-0.098669,-0.056754,0.675205,-0.713906,-0.185571
0.467241,-0.723005,0.294619,0.946103,0.289756,-0.144673
-0.194840,-0.262197,0.692114,0.235723,-0.926597,0.293005
-0.034906,-0.277203,0.738776,0.067542,0.483402,0.872789
-0.145451,0.331534,0.885590,0.775064,0.062538,0.628780
-0.284757,-0.337584,0.416880,-0.548446,0.130468,0.825945
-0.086280,-0.226727,0.776728,-0.202227,0.726499,0.656737
0.414414,-0.365877,0.625545,0.056593,0.781811,0.620942
-0.156032,0.650582,-0.971744,-0.241443,-0.120775,0.962870
-0.111469,-0.550224,0.121991,-0.087176,-0.207892,0.974259
-0.066180,-0.444052,0.447161,0.230470,0.228163,0.945952
-0.387437,0.026780,0.347177,-0.067353,-0.992751,0.099548
-0.687403,-0.169608,0.665605,0.828821,-0.309249,0.466283
-0.108164,-0.103295,0.648849,0.798372,0.060259,0.599141
0.066051,0.295649,0.870193,0.699955,-0.712382,0.050744
-0.321914,0.380349,-0.988071,-0.188074,-0.104444,0.976586
-0.903272,-0.314096,0.300431,0.254124,-0.538496,0.803394
-0.474246,-0.467244,0.222349,0.259520,-0.165338,-0.951479
0.553719,-0.214271,0.432929,0.173788,0.720430,0.671400
-0.283304,0.366351,0.809714,-0.745100,-0.660684,-0.091227
-0.252627,0.331475,0.839523,0.775065,0.560971,0.290837
0.149224,-0.565052,0.383228,-0.061489,-0.750746,0.657723
0.533356,0.098075,0.515394,-0.322316,-0.919524,0.224916
0.272199,0.577449,0.804956,0.817997,-0.290336,-0.496574
-0.277683,-0.131173,0.616751,0.847845,0.468940,0.247495
0.430483,0.601352,0.667020,0.788384,-0.184705,0.586800
-0.742082,-0.492275,0.244543,-0.388565,-0.806391,0.445814
-0.010310,0.266704,0.921891,-0.105061,0.824396,0.556177
0.390944,-0.339304,0.603448,0.495481,-0.507046,-0.705268
0.407739,0.020789,0.714446,0.909362,-0.071274,0.409855
-0.369322,-0.169845,0.216135,-0.407894,0.004799,-0.913016
-0.057056,-0.838548,0.442389,-0.617733,0.383839,0.686348
-0.096131,0.166286,0.747834,-0.380043,0.923296,0.055607
-0.591006,-0.485157,0.465235,-0.124960,0.970147,0.207847
0.042977,-0.586168,0.265641,-0.427434,0.347919,0.834417
0.149491,0.020730,0.911474,0.767507,-0.389843,-0.508877
0.034579,-0.301759,0.425036,-0.764566,0.472613,0.438265
-0.363370,0.147365,0.728193,0.513103,0.809846,0.284385
0.007938,0.747264,0.703848,-0.619204,0.571133,-0.538882
0.315175,-0.207509,0.579923,-0.215975,0.195656,0.956595
0.007207,-0.061775,0.742466,0.976552,-0.082927,-0.198668
0.070942,0.822355,0.549475,-0.145185,0.389930,0.909327
-0.682908,0.142620,0.601964,0.845772,0.158400,-0.509489
0.331902,0.230404,0.705901,0.092079,-0.936036,0.339643
0.058384,-0.499570,0.531512,-0.433921,0.844538,-0.313797
-0.430147,-0.472938,0.432013,-0.486848,-0.687041,0.539402
0.530318,-0.707168,0.327188,0.517903,-0.291537,-0.804228
-0.100691,-0.614520,0.593877,0.514011,0.856630,0.044472
0.257853,-0.277203,0.267944,-0.638365,-0.431867,-0.637166
-0.211171,0.321214,0.813515,0.624989,0.569416,0.533999
-0.287073,0.456982,0.402856,0.687942,0.450873,0.568726
0.061887,0.310774,-0.531054,0.987047,0.158941,0.021821
0.264995,-0.603844,0.515144,0.048613,0.309129,0.949777
0.087011,0.302707,0.854976,0.980545,-0.117184,-0.157476
-0.424659,0.327501,0.753300,0.102846,0.923555,-0.369418
0.534285,-0.051277,0.109590,0.389655,0.419318,-0.819964
-0.097781,-0.469617,0.163951,-0.407690,-0.886325,-0.219586
0.166811,0.007740,0.813515,0.611812,0.502400,-0.610966
-0.784991,0.110590,0.529362,-0.302072,-0.952926,-0.026155
-0.506973,0.231590,0.699354,-0.337464,0.334607,0.879862
-0.571765,-0.669385,0.177143,0.337298,-0.385173,-0.858995
0.356034,0.322518,0.705333,-0.284088,0.408369,0.867484
0.183804,0.232183,0.898476,-0.398718,-0.871398,-0.285814
-0.725025,-0.165574,0.527253,0.129725,-0.663286,0.737037
-0.172625,0.270796,0.246263,-0.679938,0.527552,-0.509288
0.441657,0.867968,0.433193,0.385011,-0.216001,0.897279
-0.629685,-0.158101,0.522066,-0.675946,0.284486,-0.679826
0.080066,-0.725437,-0.041329,0.201488,0.660191,-0.723568
0.446019,0.568611,0.665869,-0.507111,0.513008,-0.692576
-0.282909,-0.276432,0.533107,0.150906,0.436928,0.886748
-0.162311,0.552240,0.716860,0.865346,0.488839,-0.110515
-0.035834,0.272636,0.588356,0.733723,0.610396,0.298442
-0.224327,0.290904,-0.983452,-0.224566,-0.090016,0.970292
-0.194509,-0.045345,0.824293,0.398676,0.857613,0.324896
-0.066842,0.250274,0.903442,-0.350840,-0.930597,-0.104410
0.479472,0.353183,0.665272,0.389833,0.055477,0.919213
0.374879,0.489427,-0.960772,0.166522,0.143372,-0.975559
0.258119,0.888431,0.569921,-0.716349,0.170878,0.676495
-0.192988,0.221388,0.658545,-0.026765,-0.968013,-0.249470
0.020298,0.714997,0.707649,-0.710234,0.456516,-0.535873
-0.373220,0.124351,0.741897,0.245781,0.832477,0.496562
-0.349024,-0.227202,0.720411,0.294242,0.885115,0.360546
-0.937782,-0.338949,0.238495,-0.729895,-0.645908,0.223735
0.280596,0.497257,0.799186,0.945251,-0.261134,-0.195727
0.256662,-0.364572,0.001699,-0.201472,0.014357,0.979389
0.068299,0.273940,0.990096,0.980975,0.161145,-0.108259
-0.051633,0.673003,0.729594,0.690388,0.597433,0.407968
0.393853,-0.846319,-0.003475,0.275535,0.324982,-0.904692
0.603043,-0.159110,0.230464,0.382349,0.099235,-0.918674
-0.057649,0.368605,0.842949,-0.635427,0.726747,-0.260903
-0.108624,0.161600,0.847222,0.420206,-0.907426,0.002341
0.333488,0.542098,0.753896,0.786265,-0.310149,0.534411
-0.141355,-0.231116,0.006651,-0.240910,0.092313,-0.966147
0.093157,-0.269967,0.338299,0.995276,0.086170,0.044738
0.317621,-0.749222,0.295909,-0.842826,0.134450,0.521122
-0.231469,-0.318545,0.603476,-0.580046,-0.101363,-0.808253
-0.180890,-0.419615,0.441238,-0.274174,0.306319,0.911591
0.109887,0.864468,0.725973,-0.170281,0.554865,-0.814327
0.671871,0.260950,0.561973,-0.404464,0.655334,-0.637924
-0.804958,-0.573772,0.221642,-0.211472,-0.152005,0.965492
-0.090509,-0.376079,0.641608,0.279680,-0.812668,0.511224
-0.806677,0.013672,0.539862,-0.238588,-0.556170,0.796085
0.251574,0.495714,0.664274,0.307845,0.067645,-0.949029
0.271275,0.520923,0.837803,0.932652,-0.233766,-0.274799
0.158615,0.097660,0.885631,0.734812,-0.267588,0.623256
-0.299966,-0.164744,0.691905,0.044429,0.613505,0.788440
0.352200,-0.615113,0.298100,-0.334783,-0.200925,0.920625
-0.576462,0.041312,0.640152,0.993579,0.075576,0.084193
-0.699965,0.079451,0.532941,0.661740,0.702457,0.262020
-0.448262,0.204128,0.585624,-0.290836,0.680329,-0.672731
-0.285882,0.297844,0.731092,0.296695,-0.390991,0.871262
-0.201652,-0.813459,0.111851,-0.031734,-0.271352,0.961957
0.183739,0.052048,0.752301,-0.058169,0.964465,0.257729
-0.513849,-0.123996,0.491951,0.550846,-0.398861,0.733129
-0.267570,-0.339127,0.604544,-0.419141,-0.353921,-0.836099
-0.875238,-0.007800,0.419224,0.023489,-0.788240,0.614920
-0.291702,-0.203298,0.640124,0.259793,0.554267,0.790757
0.335009,-0.004063,0.805566,0.297713,0.902432,0.311421
0.146581,-0.371452,0.485529,0.120107,0.636964,0.761479
0.871207,0.008926,0.666785,-0.470936,0.581441,0.663435
-0.143337,0.408760,-0.978486,-0.314141,-0.015007,0.949258
-0.080328,0.078976,0.174937,0.867635,-0.470479,0.160811
-0.392195,0.284913,0.701393,-0.114841,-0.896368,-0.428178
-0.546245,-0.175954,0.613977,0.776806,0.591117,0.217149
0.108366,0.568433,-0.962367,0.125215,0.058802,-0.990386
0.487208,-0.142383,0.632814,0.634210,-0.084625,-0.768516
0.108499,0.863104,-0.968484,-0.161569,0.179252,-0.970445
0.001921,-0.277322,0.642676,0.336581,0.448689,0.827884
0.411242,0.695305,-0.958664,-0.195532,-0.076952,0.977674
-0.366675,0.546843,0.624366,-0.690493,0.663662,-0.287701
-0.210445,-0.122869,0.068545,0.530877,-0.653238,-0.539861
0.387243,0.228150,0.400262,0.370715,0.877656,-0.303794
0.857721,-0.078324,0.113460,0.109430,0.445359,-0.888640
-0.455732,-0.624604,0.215802,0.836958,0.423450,-0.346687
0.058315,0.648981,0.475999,-0.177100,-0.541255,0.821996
0.183275,0.159642,0.757419,0.742769,0.623557,-0.243865
-0.069949,-0.251164,0.737112,-0.382343,0.083356,0.920253
-0.668029,0.033304,0.551653,-0.361794,0.183802,0.913960
0.246748,0.428690,0.772622,0.919236,-0.320120,0.229191
-0.191338,0.060233,0.476499,0.318592,-0.808843,0.494240
0.321523,-0.612919,0.473169,0.927231,0.373898,-0.021023
-0.345122,0.226490,0.745282,0.889639,-0.025278,0.455964
0.017388,0.092796,0.826165,0.917243,-0.311720,0.247982
0.205094,0.839615,0.568188,-0.448320,0.228573,0.864155
0.025193,0.549631,0.668310,0.883418,-0.371862,0.285117
0.085954,0.231413,0.161815,0.482744,0.870685,0.094153
0.462548,-0.493164,0.481617,0.109382,0.991699,-0.067591
0.007736,0.620392,0.716707,0.871008,0.436658,0.225109
0.022877,0.228921,0.946443,-0.340629,0.939761,0.028638
-0.400592,0.139180,0.437923,0.483658,0.238156,-0.842233
-0.045684,-0.147662,0.409473,-0.220357,0.246305,0.943810
0.068363,0.409116,0.911418,0.940290,0.003282,0.340357
-0.066906,0.008926,-0.005847,0.345816,-0.173563,0.922110
-0.186975,0.214745,0.672874,0.172889,-0.956136,-0.236460
0.039341,-0.066165,0.611064,0.573093,0.484956,-0.660592
-0.514116,0.022332,0.531332,-0.385731,0.713400,-0.585040
0.035306,-0.013316,0.910544,-0.421562,0.699501,0.577047
0.110017,0.547733,-0.968318,-0.105075,-0.077622,0.991430
-0.134544,0.248910,0.833365,-0.147605,-0.988298,0.038469
-0.293816,-0.176429,0.206592,0.328666,-0.235360,0.914650
-0.259568,0.108099,0.749416,-0.472212,-0.857238,-0.205326
0.058182,0.383611,0.858569,-0.038684,-0.553479,0.831964
0.199473,0.137163,0.856765,0.553369,0.730425,-0.400328
0.494351,-0.406744,0.631149,0.313388,0.577295,0.754002
0.368398,0.444112,0.492117,0.423560,0.622857,-0.657758
-0.425583,-0.882203,0.095816,0.187528,-0.678458,0.710301
0.027308,-0.259112,0.420778,-0.299354,0.419072,0.857185
-0.194840,-0.219372,0.201321,-0.456773,-0.832742,0.312889
-0.223669,-0.192503,0.708745,-0.510921,-0.159719,-0.844659
-0.775338,-0.407515,-0.030829,0.055502,0.283237,0.957443
-0.304857,-0.024942,0.592781,0.806458,-0.350064,0.476530
-0.176528,-0.283016,0.124543,0.131605,-0.671398,0.729318
0.165951,0.926688,-0.962395,-0.102993,-0.125754,0.986701
-0.122575,-0.190724,0.683541,-0.012445,0.746362,0.665424
0.120993,-0.560901,0.371937,-0.521897,-0.833832,0.179854
0.618116,-0.242267,0.447952,0.351760,-0.241827,-0.904314
-0.045947,-0.001453,0.726362,-0.442456,-0.337927,0.830685
-0.721454,-0.258578,0.367290,-0.027028,0.328887,0.943982
-0.334279,-0.395297,0.164284,-0.377964,-0.087557,-0.921671
1.000000,0.190604,0.512078,0.126842,0.048686,0.990727
-0.019898,-0.325306,0.743603,-0.660510,-0.465831,-0.588836
-0.565220,-0.408880,0.350478,0.714291,0.604972,-0.351848
0.343209,0.486165,0.743798,-0.647397,0.612954,-0.452950
0.035838,-0.163380,0.358981,0.945512,0.325451,-0.009453
0.656860,-0.033246,0.734143,-0.763295,0.612628,0.205106
-0.294280,0.328272,0.412025,0.649490,0.325497,0.687179
0.306447,-0.243335,0.597303,0.316676,-0.432735,-0.844071
0.142877,-0.019307,0.908935,-0.470270,0.671971,0.572103
0.301951,0.503603,0.756004,-0.366493,-0.344266,0.864386
-0.006081,0.529049,0.468176,-0.172577,-0.045586,0.983941
0.327011,0.046888,0.742605,0.330353,-0.823597,0.461037
-0.862543,-0.340491,0.272369,0.842153,0.439957,-0.311794
-0.851171,-0.273941,0.287655,-0.256773,-0.560435,0.787388
-0.289454,-0.396365,0.711880,0.866423,0.498967,-0.018506
-0.294543,-0.237166,0.204663,-0.499003,-0.085660,-0.862356
-0.354972,-0.507281,0.430612,0.529516,0.607436,-0.592143
0.519475,-0.593879,0.554899,-0.695662,0.556765,0.453946
-0.397021,0.342863,0.748888,0.134552,0.711023,-0.690175
0.039143,0.223820,-0.323734,-0.642608,0.765686,0.027920
-0.126279,-0.087459,0.472892,-0.421414,0.036897,0.906118
-0.000593,0.215279,0.247220,-0.531183,0.826135,0.188003
0.426516,0.089060,0.649501,0.273559,0.957526,0.091161
0.517223,0.671343,-0.953864,-0.016067,-0.166858,0.985850
-0.163106,-0.781904,0.425369,0.545423,-0.423241,-0.723451
0.070151,0.244461,0.846473,-0.651595,0.729040,0.209581
-0.206741,-0.487767,0.712740,-0.709485,-0.676949,-0.195884
0.100566,-0.057742,0.661333,-0.776288,0.583569,-0.238378
0.781754,-0.042499,0.512800,-0.603578,-0.729621,-0.321477
0.691636,0.037693,0.458438,0.553371,-0.469990,0.687670
0.118217,0.655920,-0.968915,-0.171955,0.140455,0.975040
0.257389,-0.953854,0.403730,0.704768,-0.322755,-0.631768
-0.153385,0.836412,-0.967694,-0.082117,-0.287556,0.954237
0.301092,0.075595,0.749152,0.581131,0.668960,0.463443
-0.534212,-0.061954,0.643203,-0.018306,0.270249,0.962616
-0.241517,-0.017172,0.764577,-0.207770,0.347826,0.914247
0.148696,0.654498,0.429350,-0.199310,-0.452482,0.869216
-0.352922,-0.176014,0.210587,-0.428956,0.068405,-0.900732
-0.452362,-0.561316,0.175936,0.522329,-0.408152,-0.748722
0.196894,0.124173,0.657699,-0.187432,0.814201,0.549496
-0.176923,0.278033,0.366111,0.909026,0.348454,0.228584
0.655274,-0.313562,0.441307,0.806045,0.279691,-0.521598
0.298844,0.504493,0.857306,-0.457671,0.867608,-0.194407
-0.024063,0.386399,0.718968,0.978201,0.198343,-0.061502
-0.501352,-0.612800,0.172524,-0.327342,0.384562,0.863111
-0.208726,0.490850,0.655313,-0.498629,-0.385510,0.776371
0.144463,0.119547,0.855045,0.333661,-0.323665,0.885388
0.051439,0.330704,0.681405,0.986947,0.008903,0.160798
0.586317,0.001512,0.771152,-0.498851,0.318939,0.805870
-0.749685,-0.098313,0.190515,0.006915,0.801800,0.597553
0.207274,0.840802,0.559060,-0.670340,0.696238,0.256702
-0.188363,-0.879059,0.103445,-0.195762,-0.295362,0.935114
-0.451438,-0.292921,0.628639,0.495583,-0.460436,0.736475
-0.134608,0.136273,0.347551,-0.151142,0.799081,0.581915
0.111736,0.242385,0.992149,0.955199,0.293719,0.036374
-0.115170,-0.241200,0.583071,0.135188,-0.439586,0.887969
0.438218,0.233014,0.704681,-0.456746,-0.655775,0.601118
0.235638,-0.307275,0.376847,0.236149,-0.804676,0.544730
-0.162710,0.346540,0.845668,0.338157,0.627362,-0.701475
0.047605,0.368961,-0.771069,0.995598,0.036483,-0.086332
-0.920196,0.091373,0.535604,-0.146989,-0.321469,0.935442
0.398680,-0.652896,0.302414,0.533393,-0.003447,-0.845860
-0.851240,-0.154246,0.548532,-0.378111,-0.818990,0.431611
0.413425,0.654912,0.330795,-0.372148,0.437616,0.818534
-0.208528,0.098787,0.485681,0.533082,-0.663784,0.524609
-0.107700,0.104540,0.559837,0.314590,-0.815502,-0.485787
0.026779,0.427385,0.857653,-0.565850,0.148823,0.810966
0.481127,-0.041668,0.678755,-0.438993,-0.412193,0.798362
0.344929,-0.231294,0.594668,0.156935,0.616074,0.771897
-0.140823,-0.597675,-0.025045,0.271301,-0.437944,0.857088
0.363439,0.141077,0.667797,0.521594,0.631287,0.573949
-0.009386,-0.301700,0.521969,0.774302,0.032019,0.632006
0.282315,0.420327,0.831658,0.876431,0.110736,-0.468622
-0.047137,-0.942585,0.458660,-0.128787,0.844964,0.519085
0.261557,-0.887838,0.403647,-0.557182,0.415223,0.719123
-0.116098,0.378273,0.773052,0.739468,0.354073,0.572555
-0.131239,0.260535,0.881359,0.597608,0.007534,0.801753
0.027969,0.288709,-0.799200,0.992718,-0.103317,0.061942
-0.526678,-0.683621,0.016153,-0.111438,-0.463322,0.879156
0.426383,0.448441,0.608941,-0.518145,0.278930,-0.808532
0.320797,0.609715,0.667991,-0.376025,-0.263879,0.888242
-0.431536,-0.861562,0.117857,0.502469,-0.785524,0.361217
-0.153849,-0.044574,0.812155,0.874019,0.422146,0.240588
-0.595304,-0.236870,0.633896,0.821395,-0.069329,0.566131
-0.028296,0.700644,0.714058,-0.530490,-0.254837,-0.808479
-0.190873,0.207449,0.407447,0.445982,0.455123,0.770690
0.116364,0.323171,0.851536,-0.738911,-0.131902,0.660767
-0.269289,0.085145,0.740385,-0.029749,0.741881,0.669871
0.197818,0.368130,0.779322,0.755784,-0.588955,0.286221
0.303537,-0.215754,0.462392,0.199447,-0.387088,-0.900213
-0.420693,0.314392,0.763994,-0.057412,-0.897894,0.436452
-0.418049,0.445713,-0.989943,-0.178821,-0.123358,0.976118
0.045951,-0.249029,0.423760,-0.146876,0.507603,0.848980
0.278813,-0.651591,0.294064,-0.088383,-0.090048,0.992008
0.020762,0.489842,0.666729,0.844357,-0.474591,0.248645
-0.386908,0.107981,0.743465,0.256603,0.833119,0.489967
0.175341,0.647024,0.574804,-0.418398,0.350404,-0.837950
0.425918,-0.504612,0.631565,0.278102,0.377757,0.883153
0.278018,0.535632,0.751663,-0.314646,-0.204581,0.926901
0.515044,-0.024171,0.099408,-0.302533,-0.199863,0.931949
0.413821,-0.753433,0.000853,-0.124439,-0.177374,0.976244
-0.951471,-0.190367,0.386155,0.615058,0.786962,-0.048927
-0.390278,-0.501824,0.445940,0.608904,0.785285,-0.112089
-0.537650,0.266170,0.651693,0.635667,0.299189,0.711627
0.116235,-0.141315,0.139954,-0.685234,-0.474149,0.552845
0.117688,0.089831,0.535202,0.885365,0.406935,-0.224796
0.597027,-0.042143,0.716374,-0.368830,0.776973,0.510174
0.048001,-0.189952,0.620510,0.554453,0.281952,0.782997
-0.136263,-0.462440,0.155712,0.006568,-0.998652,0.051495
0.187904,0.863281,0.567522,0.821807,-0.275159,-0.498919
0.087144,0.058809,0.827733,-0.238096,-0.699453,0.673851
0.353588,-0.347608,0.002032,0.083735,0.121183,0.989092
0.272267,-0.258816,0.386086,0.246380,-0.666670,0.703455
-0.198145,0.115454,0.490384,-0.571818,0.653904,-0.495413
-0.739040,-0.381299,0.063856,0.691228,0.019280,-0.722379
0.453686,0.670867,0.689658,0.918285,-0.346233,0.192029
-0.233386,0.405439,0.374586,0.763020,0.423437,0.488367
-0.145189,-0.380053,0.662665,-0.098484,0.424917,0.899859
0.545192,0.021086,0.492450,-0.078634,0.970035,0.229887
0.000928,0.347727,-0.757378,0.999485,0.031871,-0.003754
-0.196826,-0.076248,0.243017,0.763126,-0.337022,0.551412
-0.492429,0.531303,0.402371,0.152124,-0.704643,0.693063
0.048332,-0.908598,0.346109,0.924531,0.005097,-0.381073
0.179639,-0.178861,0.465485,0.516866,0.307339,0.798994
0.081587,0.183368,0.484585,-0.705037,0.706563,0.060766
0.142614,0.205908,-0.851716,-0.050926,0.941444,0.333302
0.323904,-0.807230,0.258734,0.744965,0.654936,0.126829
-0.604561,-0.739969,0.180944,-0.583728,0.358467,0.728535
-0.149289,0.075299,0.260606,0.310443,-0.900250,-0.305246
0.148760,-0.624604,0.366472,-0.329580,-0.390457,0.859605
0.455607,0.641210,0.664024,0.968542,0.186097,0.165211
-0.574146,-0.502536,0.092625,0.163142,-0.022103,0.986355
-0.274511,-0.780895,0.108619,-0.039113,-0.272216,0.961441
0.136331,0.296420,0.919214,0.928885,-0.055734,-0.366152
0.261025,0.169133,0.629901,-0.111129,-0.798082,0.592213
-0.137651,-0.418904,0.436868,-0.005680,0.548854,0.835899
-0.447669,-0.196833,0.562195,0.264754,0.964282,-0.008097
-0.281718,0.129215,0.778989,-0.104328,-0.994542,-0.001206
0.586712,-0.097720,0.670350,0.825631,-0.019744,-0.563865
0.400266,0.383433,0.479842,-0.264967,-0.336209,0.903745
-0.439865,0.397135,0.646616,-0.262957,-0.421339,0.867944
0.433788,-0.038347,0.101281,-0.224535,-0.251668,0.941407
0.172036,0.454610,-0.966778,0.056745,0.007820,0.998358
0.524430,-0.015808,0.773649,-0.566508,0.171814,0.805946
-0.118810,-0.331475,0.727194,0.713130,-0.246185,-0.656383
0.035507,-0.448916,0.550585,-0.199923,-0.942558,0.267609
-0.083964,-0.479226,0.686149,0.744307,-0.078116,0.663253
-0.090179,-0.018951,0.769848,0.535441,-0.844165,-0.026244
-0.466510,-0.776210,0.189155,-0.600952,0.071857,-0.796049
0.215869,0.228862,0.546299,-0.102863,0.836103,-0.538842
-0.053618,-0.651710,0.568645,-0.522503,-0.368073,-0.769099
-0.013684,0.073104,0.860816,-0.077651,0.619179,0.781401
-0.107636,0.066995,0.861662,0.812235,-0.285451,0.508717
0.541621,0.736291,-0.951825,-0.045464,-0.163348,0.985520
0.424994,-0.767965,0.307450,0.272834,-0.722711,-0.635020
0.294942,0.454847,-0.966057,-0.116284,-0.032926,0.992670
0.163772,0.323823,0.649986,-0.098970,0.205930,0.973549
0.243176,0.428453,0.824556,0.963743,-0.260556,0.057527
-0.175402,0.090483,0.666562,-0.472940,0.436156,0.765569
-0.126872,-0.738545,0.615502,0.046464,0.984884,0.166865
-0.849981,0.039236,0.547686,-0.172999,-0.601980,0.779545
0.102281,0.221151,-0.210642,0.905689,0.403062,0.131406
-0.546774,0.258341,0.607749,-0.262236,0.241934,-0.934184
0.016860,0.246478,0.820214,0.036920,-0.696660,0.716450
0.198283,0.010528,0.756448,0.110861,0.981044,-0.158939
-0.744790,-0.472464,0.260648,0.457460,0.791666,-0.404963
0.359541,0.001512,0.199517,-0.374181,0.152614,0.914712
-0.027303,-0.385807,0.440655,-0.554158,-0.466036,-0.689725
-0.023732,-0.544174,0.122934,0.011723,0.398442,0.917119
-0.371832,-0.307868,0.590950,0.654096,0.534651,0.535076
-0.327600,-0.260417,0.744242,0.883951,0.173858,0.434056
0.404632,0.343693,0.486805,-0.102513,-0.739677,0.665108
0.249653,0.443340,0.785051,0.882653,-0.361627,0.300250
-0.278809,-0.835583,0.110075,-0.021848,-0.357670,0.933592
0.393458,-0.025772,0.796578,0.353938,0.838908,0.413474
0.256993,-0.053768,0.847735,0.484896,0.874063,-0.029832
-0.101817,0.415878,0.753577,0.425006,0.903195,-0.060081
0.300099,-0.735579,-0.007817,-0.507686,-0.278482,0.815293
0.207802,-0.480471,0.498540,-0.059338,0.512244,0.856787
0.325555,0.579228,0.761331,0.740477,-0.377627,0.555961
0.475703,0.588066,0.658767,0.924153,-0.024248,0.381252
0.835837,0.219787,0.401788,0.241399,0.530836,-0.812367
0.312399,0.847029,-0.957748,0.068733,-0.065093,-0.995509
-0.135734,-0.260180,0.763953,0.672126,0.235816,-0.701881
-0.087269,-0.186097,0.694832,0.318738,-0.870236,0.375626
-0.152727,0.509891,0.771859,0.815544,-0.176309,0.551184
-0.835635,0.052878,0.541388,-0.210843,0.030322,0.977050
0.019439,0.364631,0.392993,0.088470,-0.329405,0.940035
-0.182145,-0.015392,0.685677,-0.149646,0.273653,0.950116
0.429821,-0.093983,0.479980,-0.248708,0.361020,-0.898782
-0.255932,0.670156,0.742147,0.512789,-0.780118,0.358419
0.143010,0.271212,0.906466,0.967214,0.025124,-0.252715
-0.616328,0.206619,0.655979,0.194007,-0.931343,-0.308160
0.162315,0.690264,0.581227,-0.640679,-0.490696,0.590548
-0.112793,0.863518,0.540625,-0.254384,-0.933126,0.254094
-0.044296,0.138171,0.884341,-0.457233,0.448286,0.768100
-0.286742,0.480945,-0.983521,-0.209473,-0.069454,0.975345
-0.263732,-0.315698,0.638917,0.672251,0.274722,-0.687464
0.316366,0.518906,0.664510,-0.122928,0.187649,0.974514
0.138248,0.757110,0.553096,-0.442724,0.243200,0.863047
0.457060,0.244283,0.418225,0.521516,0.836596,-0.167711
-0.419567,-0.491919,0.226746,0.214595,-0.191155,-0.957815
-0.185785,-0.503722,0.706553,0.509343,-0.846577,-0.154521
-0.696793,0.263086,0.662998,0.868896,0.437241,0.232034
-0.454214,-0.493342,0.664080,0.369253,0.924755,0.092087
-0.259172,-0.155551,0.211807,0.121438,0.212332,0.969622
-0.262873,0.600641,0.638556,-0.792380,0.578931,-0.192283
0.297852,-0.660725,0.475847,0.939849,0.341195,0.016429
0.153260,0.075833,0.823960,0.746290,-0.035584,-0.664669
0.192661,0.051691,0.821130,-0.707707,-0.000400,0.706506
0.399539,-0.092975,0.087007,-0.264052,-0.380017,0.886489
0.406678,0.888549,-0.955293,-0.001173,-0.011143,0.999937
-0.107107,0.083484,0.283064,-0.534118,0.832382,-0.147845
0.297061,-0.709185,-0.005250,-0.495561,-0.237623,0.835437
0.711143,0.274118,0.565649,0.044630,-0.216141,0.975342
-0.032525,-0.325188,0.735919,-0.436826,-0.403001,-0.804223
-0.067701,0.014976,0.668227,0.190599,-0.193596,0.962389
-0.214610,0.236751,0.697093,-0.746007,-0.662407,0.068491
0.374282,0.093864,0.624768,0.185890,-0.233790,0.954352
0.037622,-0.031466,0.913388,-0.064133,0.834294,0.547578
-0.141287,0.323823,0.103833,0.628521,0.735107,-0.254125
0.446547,0.221863,0.698591,-0.492414,-0.650238,0.578549
0.406149,-0.354963,0.610994,-0.357037,0.530473,0.768845
-0.000198,-0.576975,0.550710,0.974581,-0.147171,0.168916
-0.207931,0.373232,0.792403,0.739267,-0.124912,0.661726
-0.429550,0.368664,0.729247,-0.114922,0.979856,-0.163323
0.239803,-0.627332,0.519708,0.064177,0.584914,0.808552
-0.124096,-0.039652,0.833032,0.858885,0.095217,0.503239
-0.110214,0.812628,0.546118,0.414386,0.907691,0.066189
0.121457,0.119843,0.897602,0.995941,-0.021798,0.087329
0.408001,-0.668318,0.511676,0.101506,-0.990148,0.096454
-0.732757,-0.179157,0.677521,-0.355385,0.883736,-0.304487
-0.376198,0.242029,0.713808,0.278979,-0.955454,0.096324
-0.568658,-0.383553,0.269331,0.030755,0.884415,0.465687
0.058315,0.160295,0.809797,-0.598458,0.798823,-0.061075
-0.227107,-0.065512,0.250855,0.443185,-0.297137,0.845752
-0.339702,0.327560,0.589868,-0.430427,0.426025,-0.795760
-0.177981,-0.071147,0.817773,0.879684,0.225787,0.418542
0.826910,0.027966,0.490897,0.173150,-0.886906,0.428272
-0.524628,-0.428097,0.087632,0.039587,0.438060,0.898074
0.170382,-0.717074,0.360868,0.327847,0.637500,0.697216
-0.047008,-0.664700,0.591172,0.782240,0.604174,-0.151901
0.120000,0.380705,-0.961563,-0.155465,-0.210241,-0.965210
0.610711,0.339838,0.427963,-0.182846,-0.143822,0.972565
-0.143801,0.395949,0.862744,0.927242,-0.332830,0.171601
-0.349420,-0.425725,0.615724,-0.017234,0.847267,0.530887
-0.007865,-0.445951,0.416533,0.944167,0.296920,-0.142781
0.031605,-0.834989,0.413648,0.234473,0.741437,0.628723
0.077027,0.034847,0.682182,0.905939,0.395264,-0.151794
0.649455,-0.027729,0.730897,-0.763295,0.612628,0.205106
-0.375206,0.073104,0.766907,-0.345127,-0.934572,-0.086387
-0.322048,0.076841,0.757988,-0.277819,-0.958431,-0.065007
-0.087338,0.435748,0.750289,-0.117882,-0.878215,0.463511
0.031738,0.870221,0.714294,0.594168,0.310398,-0.742036
-0.051701,-0.214093,0.297407,-0.496780,0.427676,0.755184
0.310745,0.274356,0.704514,0.052706,0.683842,0.727724
0.025919,0.229396,0.912902,-0.120427,-0.867483,0.482670
-0.670015,-0.697263,0.009745,0.182490,0.584895,-0.790313
0.494746,0.005901,0.505961,0.323251,0.871207,-0.369469
0.094218,0.231293,0.961882,-0.862667,0.324449,0.387992
-0.209122,-0.501824,0.622008,-0.641202,0.139160,-0.754649
0.100828,0.325780,-0.529764,0.861842,0.504991,0.047033
-0.223867,-0.357751,0.428920,-0.071462,0.675769,0.733641
-0.300297,0.127139,0.739123,0.447034,0.637903,0.627089
0.235440,-0.824194,0.386835,-0.406556,0.506325,0.760491
-0.844097,-0.415285,0.272216,-0.557082,-0.768760,0.314115
0.119936,0.292624,0.489815,0.890049,-0.203645,-0.407850
0.003176,0.165871,0.781916,-0.220876,0.635034,0.740233
0.447738,0.563451,0.663871,-0.533812,0.558896,-0.634570
-0.761517,-0.310063,0.380357,0.463849,0.366527,0.806537
-0.267437,-0.152229,0.590576,-0.328733,-0.671812,0.663780
0.318945,0.150093,0.657352,0.976640,-0.081301,-0.198910
0.228564,-0.654082,0.357109,0.514995,0.264391,-0.815400
-0.823008,-0.032118,0.557465,0.208084,-0.051506,0.976754
0.496929,-0.564578,0.304842,0.260777,-0.404212,-0.876703
0.463738,0.615469,0.330462,-0.341127,0.391273,0.854715
-0.068492,0.281592,0.882940,-0.104319,0.228993,0.967822
-0.100691,0.056259,0.737056,0.752255,0.608709,0.252164
0.423606,-0.245174,0.406338,-0.082563,-0.806263,0.585767
-0.259568,0.119665,-0.062122,0.752460,-0.597452,0.277227
0.628301,-0.080163,0.117663,0.563956,0.653093,-0.505394
-0.589484,-0.189537,0.641705,0.804357,0.067904,0.590253
0.285358,-0.116404,0.578688,0.159666,0.677371,0.718106
0.419769,-0.184436,0.560101,0.720262,0.539011,0.436680
-0.325353,-0.024289,-0.165144,-0.620236,0.762076,0.185870
0.176463,0.187164,0.816317,0.985474,-0.033706,0.166446
0.028893,0.235861,0.937871,-0.274225,0.959034,-0.071096
-0.161254,-0.479522,0.602006,0.682602,0.624229,0.379990
-0.459501,0.040659,0.333555,0.977531,0.055579,-0.203335
0.322052,0.298615,0.501189,-0.749653,0.653483,0.104781
0.380496,0.556689,0.744325,0.943668,-0.049501,0.327170
-0.406742,-0.366945,0.608081,0.778518,0.379297,0.500043
0.041920,0.434206,0.733727,0.848874,-0.528281,0.018248
0.597620,0.472048,0.417684,0.532284,-0.345610,-0.772805
0.128793,0.741332,-0.967902,-0.157725,0.018912,0.987302
0.054680,-0.676503,0.389567,0.837630,0.240147,0.490617
-0.261618,0.063969,0.262756,-0.560656,0.659151,-0.501183
-0.028163,0.272398,0.877114,-0.456748,-0.819573,-0.345950
-0.007998,-0.676859,0.420362,0.825249,0.280778,0.490028
0.346579,-0.032237,-0.057781,-0.668487,-0.706349,-0.232799
0.577124,-0.091966,0.107315,-0.436029,-0.464863,0.770572
-0.076164,0.450814,0.762427,-0.494831,-0.824541,-0.274362
-0.482115,-0.282008,0.251701,0.858388,-0.162465,0.486595
0.127805,-0.006910,0.787201,0.017022,0.666643,0.745183
-0.701022,-0.200214,0.676217,-0.029332,-0.963716,0.265314
0.295673,-0.821940,0.285963,0.807411,-0.520113,0.278512
-0.021617,0.434562,0.651914,-0.141943,-0.642625,0.752918
-0.670874,-0.409354,0.268513,-0.421182,0.579892,-0.697374
0.799736,0.119190,0.513202,-0.524420,-0.384223,0.759840
0.234714,0.086094,0.847805,-0.715084,-0.378451,0.587732
0.681124,0.168599,0.497250,0.414414,0.328411,-0.848768
-0.158477,0.660428,0.724697,0.956661,0.132235,-0.259449
0.452762,-0.047422,0.673887,-0.674975,-0.471357,0.567654
0.174547,0.234081,0.706470,0.345948,-0.917760,-0.195031
0.077358,0.202705,0.435245,0.993272,0.115492,0.008530
-0.011238,0.183072,0.879708,0.458103,-0.720533,0.520552
0.232067,0.028738,0.840494,0.934361,0.080824,-0.347041
0.409523,0.072926,0.678298,0.432635,0.638080,-0.636931
-0.810777,-0.343516,0.293010,-0.095816,-0.363381,0.926701
0.198416,0.066520,0.770264,-0.066052,-0.956413,0.284450
-0.477749,-0.142146,0.258845,-0.583965,0.632109,-0.509335
0.734351,0.000741,0.457523,0.532161,-0.845383,0.046167
-0.031536,-0.411489,0.432319,0.822469,0.056322,0.566014
0.567407,0.168658,0.636240,-0.038696,0.079856,0.996055
0.014019,0.610664,0.699673,0.847049,0.157626,0.507604
0.252962,0.996619,-0.951173,-0.072534,-0.235555,0.969151
0.097588,-0.123877,0.359106,0.974974,0.207709,0.079260
0.027110,0.108040,0.607943,0.783563,-0.200698,0.588005
0.296730,0.334084,0.466706,-0.484469,0.694743,-0.531623
0.399208,-0.742579,0.545758,0.462720,-0.620086,-0.633548
0.139705,0.241437,-0.725294,0.747415,0.663140,-0.040204
0.123572,-0.031110,0.804554,0.453767,0.786342,-0.419240
-0.300692,-0.332128,0.687286,0.847640,0.263942,-0.460263
0.717753,0.209466,0.552263,0.383345,-0.758353,0.527207
-0.256263,0.151932,0.728761,0.808231,0.324405,0.491451
-0.199998,0.492274,0.502882,0.068659,-0.686634,0.723754
0.011905,-0.474955,0.420473,0.952037,0.305555,-0.016186
0.383075,0.564874,0.755450,0.834612,-0.185804,0.518555
0.085026,0.725793,0.687217,-0.249214,0.678626,-0.690912
0.051572,0.230048,-0.334679,0.597488,-0.790962,-0.131862
-0.571834,-0.223346,0.269969,-0.634838,0.465437,-0.616724
0.287210,0.907471,0.576386,-0.692813,0.662693,-0.284338
0.169325,0.837836,-0.966945,-0.306088,-0.049180,0.950732
-0.077750,-0.859011,0.422845,-0.345682,0.840893,0.416418
-0.190676,-0.040482,0.679338,-0.223973,0.241606,0.944173
-0.081188,-0.277974,0.806579,-0.711168,0.601322,0.364213
0.261025,0.378036,0.822212,0.966557,-0.074797,0.245301
-0.058909,0.894896,0.573431,-0.338544,0.924413,-0.175636
-0.044760,-0.354489,0.112323,0.044941,0.050002,0.997738
0.593060,-0.465939,0.226788,-0.228966,0.220951,0.948027
-0.188759,0.625612,0.362546,-0.621549,0.654106,0.431071
-0.683239,-0.035025,0.400678,-0.259480,0.637494,-0.725445
-0.370908,-0.506984,0.175686,0.320913,0.285415,0.903080
-0.139765,0.473828,-0.976114,0.210897,0.056617,-0.975867
0.023010,0.215101,0.430377,0.969887,0.073880,-0.232078
-0.678146,-0.200154,0.654231,0.747473,0.615650,0.249518
0.462483,0.661022,0.684984,0.830425,-0.430777,0.353306
0.427835,0.753136,0.703280,-0.573387,-0.267569,0.774360
0.021953,0.521397,0.868695,0.995509,-0.018103,0.092915
0.028433,-0.833210,0.441321,0.139124,0.746296,0.650913
-0.075304,0.075002,0.879875,-0.271838,-0.508861,0.816802
0.042844,-0.328213,0.627002,0.899762,-0.095284,0.425851
0.414680,-0.310004,0.611438,-0.516829,0.327968,0.790775
-0.034906,-0.620748,0.417074,0.448943,0.598764,0.663273
0.045225,0.195231,0.728609,-0.372508,0.454969,-0.808852
-0.019568,0.245529,0.240978,0.121008,-0.836061,0.535125
-0.230081,0.395356,-0.983452,0.236191,0.047209,-0.970559
0.408861,-0.885643,-0.006887,0.294559,0.609079,-0.736382
-0.443371,0.333254,0.071125,-0.031123,-0.813487,0.580750
0.064134,-0.622468,0.125375,-0.221983,-0.074140,0.972228
-0.205352,-0.493995,0.758598,0.498542,0.501562,-0.707030
0.106579,-0.424539,-0.005056,0.363757,0.449721,-0.815740
0.131836,0.482962,0.728955,0.787679,0.190292,-0.585962
-0.021686,0.157626,0.213069,0.682703,-0.680394,0.266422
-0.366744,-0.331949,0.751940,0.883979,0.087325,0.459298
0.115243,0.196062,0.995700,0.659085,0.144151,0.738124
-0.665652,-0.263858,0.471560,-0.616005,0.787570,0.016469
0.533821,0.293277,0.253657,0.856507,-0.500451,0.126273
0.075704,0.009935,0.476152,-0.759017,-0.330272,-0.561082
-0.093088,-0.017290,0.773857,0.735232,-0.674134,-0.070549
-0.428231,0.442213,0.642912,-0.164039,-0.155800,0.974073
-0.556495,-0.058217,0.592476,0.883600,-0.011082,-0.468110
-0.572891,-0.466176,0.096495,-0.121612,0.271538,0.954713
0.038348,0.169192,0.356706,0.134628,-0.977376,0.163130
0.113192,0.225303,0.919019,-0.701698,0.694626,-0.158477
-0.003236,-0.656277,0.573791,0.947660,-0.100611,0.303016
-0.647469,-0.584330,0.095372,-0.334092,0.591076,-0.734174
0.590151,0.201933,0.639666,0.197987,-0.170702,0.965227
0.796100,-0.232896,0.342988,-0.635632,-0.234971,0.735364
-0.137715,-0.438299,0.689561,0.213207,-0.758781,-0.615463
-0.073190,0.486818,0.713073,-0.373004,-0.149183,0.915758
0.471934,-0.622705,0.542193,-0.670862,0.468759,0.574639
0.547638,0.333788,0.421943,0.060895,0.033281,0.997589
0.074711,0.217177,-0.368996,0.728818,-0.684452,-0.018697
-0.214743,0.481360,0.773843,0.417853,-0.182185,0.890060
-0.567007,0.242089,0.633327,-0.050050,0.978448,0.200335
0.209457,0.291082,0.859026,-0.683436,0.688576,-0.242442
0.048465,-0.218720,0.708454,0.847169,0.220934,0.483211
-0.325881,0.293929,0.583598,-0.396225,0.080694,-0.914601
0.038812,0.013375,0.478635,0.977193,0.171665,-0.125001
-0.702213,-0.183072,0.530236,-0.219586,0.501823,-0.836634
-0.233188,0.078145,0.762094,0.255989,-0.648153,0.717194
0.362051,-0.042973,0.391787,-0.403110,0.149944,0.902784
0.032929,0.130045,0.856086,-0.053552,0.730526,0.680782
-0.115105,-0.327026,0.768641,0.626549,0.688978,0.364342
-0.103600,-0.197901,0.772802,-0.751105,-0.355478,-0.556306
-0.086942,-0.854563,0.435911,-0.013380,-0.956976,0.289858
-0.129915,0.122038,0.690449,-0.332192,-0.831267,0.445695
-0.955833,-0.247546,0.339062,0.944562,0.319796,-0.074382
-0.269087,-0.501824,0.563014,-0.048949,-0.978024,0.202666
-0.031468,0.280702,0.815734,-0.219756,-0.412254,0.884168
-0.187900,-0.285685,0.782637,0.844323,-0.005758,0.535804
0.392861,-0.602835,0.296838,0.429889,-0.068538,-0.900277
-0.950676,-0.005368,0.533620,-0.563970,-0.493769,-0.661914
0.271339,0.195231,0.852867,-0.677338,0.157402,0.718636
0.084432,-0.545479,0.507667,-0.672685,0.551593,-0.493195
0.305458,0.042557,0.787215,-0.185926,-0.419705,0.888414
-0.065652,0.328390,0.841951,0.541465,-0.791628,0.283090
-0.596163,-0.421395,-0.031190,0.117616,0.172701,0.977927
-0.586974,-0.486403,0.424107,-0.208617,-0.952125,-0.223467
-0.268030,0.497909,0.514797,-0.258323,-0.688566,0.677603
0.050119,0.478454,0.900654,0.942301,0.292039,0.163651
0.423869,-0.665115,0.311111,-0.385908,0.165385,0.907592
0.564498,-0.012071,0.707081,-0.706245,0.436055,0.557740
0.114117,0.051751,0.897755,0.737589,-0.474390,-0.480538
-0.104924,-0.302945,0.764424,0.845940,0.509574,-0.157225
0.418118,-0.475489,0.004418,0.051930,0.010651,-0.998594
-0.497385,0.029034,0.601243,-0.700225,0.591655,0.399536
-0.088129,-0.303716,0.680378,0.669735,0.712148,-0.210476
-0.097519,0.369495,0.590395,0.667910,0.668021,0.328092
0.293554,-0.898159,0.384366,0.908102,-0.001684,-0.418745
-0.214146,0.568433,0.779128,-0.514636,0.569163,-0.641252
-0.199005,-0.382247,0.151273,0.541261,0.722311,0.430468
0.110678,0.387111,0.511690,0.845556,0.492254,-0.206691
0.579836,-0.437528,0.233155,-0.228966,0.220951,0.948027
-0.787105,0.096829,0.550085,0.492608,0.361590,0.791574
-0.176064,-0.092500,0.821255,-0.660474,-0.533104,-0.528748
0.494084,0.540319,0.598399,-0.524543,-0.328701,-0.785373
-0.212826,0.395356,0.645742,0.130103,0.053468,0.990058
0.141424,0.097601,0.548282,0.903449,0.393677,-0.169702
0.126348,-0.594117,-0.004959,-0.544924,0.027977,0.838018
0.276101,-0.145289,0.583085,-0.148846,0.375862,0.914643
0.674316,0.237522,0.637225,-0.057994,-0.061619,0.996413
-0.051633,0.355319,-0.644715,0.999956,-0.009194,-0.001677
-0.075171,-0.532964,0.465069,0.861042,0.275073,0.427717
-0.394975,-0.488597,0.623728,-0.343075,-0.315713,-0.884661
0.355905,-0.422581,0.286143,-0.006182,0.366277,0.930485
-0.053223,-0.371630,0.758265,-0.593168,-0.553455,-0.584670
0.008067,-0.901065,0.462017,-0.175878,0.786895,0.591493
0.394051,0.058335,0.733561,0.689907,0.712210,0.129558
0.501953,-0.477980,0.635851,0.807008,0.290529,0.514132
0.020698,0.010409,0.744685,0.817220,-0.006853,0.576286
-0.031403,-0.862333,0.445441,0.257878,0.768778,0.585218
0.069953,0.274059,0.626308,0.459890,0.497700,-0.735388
0.046879,-0.220855,0.709341,0.847169,0.220934,0.483211
-0.259568,0.242029,0.580228,-0.688400,-0.430679,-0.583628
0.015012,0.109819,0.783747,0.498219,-0.419666,-0.758722
-0.018906,0.565942,-0.970940,-0.174449,-0.105331,0.979016
0.803243,0.051573,0.496737,0.029220,-0.698082,0.715421
0.414018,0.470447,0.614545,-0.740823,0.310243,-0.595761
0.129855,0.437824,0.510025,0.820607,0.543550,-0.176514
-0.797948,-0.079570,0.553165,-0.409409,0.471619,-0.780999
0.650847,0.143332,0.632966,0.157401,-0.163129,0.973968
-0.643107,-0.209052,0.363254,0.304488,-0.429271,0.850302
-0.162380,-0.481243,0.549572,-0.286902,-0.464113,0.838025
-0.717749,-0.381002,0.074648,0.645065,-0.120578,-0.754554
-0.285354,-0.789733,-0.040414,-0.291425,0.788625,-0.541426
-0.448129,0.081171,0.540112,-0.492484,0.622368,-0.608373
-0.130710,-0.255613,0.286851,0.608010,-0.303449,-0.733650
0.430285,0.246656,0.714821,0.262537,0.524659,-0.809819
0.094747,-0.568256,0.498207,-0.525522,0.148668,-0.837690
0.015472,0.187698,0.501841,0.164990,-0.866879,0.470424
-0.150213,0.110650,0.869360,-0.022599,0.928910,0.369616
0.283239,0.615766,0.789698,0.505028,0.291651,-0.812334
0.606086,-0.166879,0.436230,-0.499285,0.288223,0.817094
-0.014148,-0.418132,0.619816,-0.443695,0.724380,0.527644
-0.433517,-0.283846,0.481742,0.605867,-0.438534,-0.663787
0.131905,-0.893769,0.370994,0.553310,0.069861,-0.830040
-0.107503,0.235742,0.921058,-0.116958,0.921126,0.371278
0.353524,-0.399152,0.593184,-0.467300,0.847822,0.250656
0.350416,-0.037813,0.883287,0.910695,-0.332184,-0.245537
-0.059304,-0.218067,0.797840,0.596845,-0.752102,-0.279498
0.053953,0.027788,0.684068,0.972539,0.221451,-0.071609
-0.114843,-0.479819,0.218868,0.016368,0.580555,0.814056
-0.484892,-0.370029,0.470007,-0.506753,0.848004,-0.155213
-0.183469,-0.321985,0.777755,-0.716933,-0.674400,-0.176612
-0.171766,0.744180,0.731092,-0.124073,0.987051,0.101672
-0.253353,-0.319553,0.729580,0.883183,0.349532,0.312753
0.235969,0.331119,0.748042,-0.810754,0.451022,-0.373171
0.327274,0.491147,0.847125,0.932603,-0.266541,-0.243326
0.263143,-0.978885,0.403674,-0.821503,0.125151,0.556301
0.545128,0.674664,-0.953573,-0.064402,-0.154339,0.985917
-0.048727,0.838014,0.547825,0.339343,0.940335,0.024828
0.156165,0.075002,0.550030,0.587257,0.696694,0.412004
-0.050115,-0.264154,0.415354,-0.390606,0.421174,0.818559
-0.576527,-0.207568,0.630234,0.945085,0.315518,-0.085223
0.072266,0.172692,0.587524,0.874502,-0.328885,-0.356485
-0.483370,-0.529761,0.218105,-0.628509,-0.273860,0.727995
-0.064723,0.215338,0.465027,-0.423072,0.490685,-0.761733
-0.020758,-0.895193,0.442292,0.689720,0.664728,0.287094
-0.156823,-0.325069,0.783858,-0.673062,-0.664189,-0.325333
0.087935,0.826744,0.710729,0.545361,-0.485864,0.683021
0.528332,0.535573,-0.960606,0.094249,-0.025573,-0.995220
0.106978,0.244580,0.772747,-0.616902,0.726949,0.301625
0.541887,-0.021027,0.762538,0.720848,-0.286826,-0.630959
-0.301948,-0.195943,0.206578,0.243305,-0.428874,0.869983
-0.684429,-0.678164,0.010452,-0.268602,-0.585493,0.764886
0.018515,0.395118,-0.903498,0.999763,-0.004348,-0.021351
0.002316,0.029152,0.740704,-0.666228,0.561939,-0.490270
0.146912,0.208043,0.926149,0.443347,-0.567648,0.693699
-0.018312,0.365580,0.839884,-0.242558,-0.569051,0.785714
0.047868,0.313147,0.446564,0.973564,0.002687,0.228397
-0.280661,-0.387408,0.604253,-0.419399,-0.174221,-0.890927
0.060563,0.130164,0.134031,-0.529026,0.113166,-0.841026
0.339771,-0.802664,0.285353,0.750724,-0.587950,0.301212
-0.512397,-0.117293,0.646172,0.837407,0.401947,0.370389
-0.005419,0.836946,0.532025,0.331903,0.290909,-0.897336
-0.141025,-0.682553,0.458022,-0.211202,0.882256,0.420734
0.560797,-0.123284,0.319975,-0.416540,-0.042932,0.908103
0.074913,0.090305,0.962769,-0.745126,0.631137,-0.215532
0.201059,-0.521516,-0.003239,0.405407,-0.043029,-0.913123
-0.090509,-0.692518,0.469632,-0.326400,0.146698,0.933779
-0.005617,0.167353,0.294827,-0.042497,0.936992,0.346755
0.174086,0.048014,0.748930,0.756058,-0.354679,0.550072
-0.236493,0.138230,0.162287,-0.115251,0.708150,0.696592
0.211111,0.378155,0.778531,0.715655,-0.628133,0.305427
0.110678,0.181885,0.882496,0.452694,-0.103612,0.885626
0.046149,0.237344,-0.445621,0.943139,-0.330464,0.035806
-0.387897,0.512026,-0.987447,0.155732,0.095905,-0.983133
0.031076,0.278567,-0.777574,0.986469,-0.136594,0.090668
0.046351,0.207746,0.857403,-0.585804,0.268686,0.764618
-0.522909,0.074290,0.542886,-0.381720,0.643555,-0.663420
0.281985,0.584744,0.806912,0.817997,-0.290336,-0.496574
-0.620823,-0.120615,0.510428,0.850254,-0.149671,0.504645
-0.428691,-0.180937,0.634201,0.044339,0.877193,0.478086
0.120069,0.830778,0.556106,-0.307347,0.324566,0.894536
0.112664,0.293158,-0.710548,0.813766,-0.382128,0.437908
0.508761,-0.016638,0.678409,-0.497489,-0.190319,0.846335
-0.066576,0.609656,0.255127,-0.622302,-0.150398,0.768193
0.332762,0.865002,0.439851,-0.350488,0.279661,-0.893839
0.875375,0.131765,0.516822,0.156189,-0.240329,0.958043
-0.006477,0.400457,0.716138,0.880145,0.354865,-0.315302
0.080135,0.021086,0.470021,0.864034,0.279178,0.418933
0.679805,0.175242,0.640193,-0.083835,-0.086989,0.992675
-0.030277,0.181707,0.738221,-0.448409,0.877154,0.171844
0.214945,-0.805570,0.377458,-0.395243,0.515184,0.760506
-0.030741,0.685459,-0.969150,-0.148876,-0.060630,0.986995
-0.119601,-0.769922,0.328118,-0.202472,0.198807,-0.958896
0.233524,0.181944,0.444830,0.065447,-0.876158,0.477561
-0.531040,-0.727632,0.012200,-0.102941,-0.549815,0.828919
0.486615,0.036863,0.668199,0.725582,0.262442,0.636125
-0.719932,-0.192918,0.663220,0.800568,0.304987,0.515823
-0.757619,-0.135562,0.531096,0.147917,-0.398482,0.905170
0.548828,-0.191198,0.683666,-0.119490,-0.473416,0.872697
0.289389,-0.821288,0.284714,0.807411,-0.520113,0.278512
0.078811,-0.073341,0.472823,0.898280,0.192997,0.394772
-0.053485,-0.385391,0.613131,-0.420864,0.698942,0.578233
0.288994,-0.265044,-0.000173,0.049078,0.138833,0.989099
-0.129850,0.054123,0.476207,-0.635481,0.365062,-0.680363
0.358350,0.108396,0.635879,0.666772,0.673904,-0.318229
-0.391008,-0.736766,-0.017721,0.048184,-0.765062,0.642151
0.313985,0.426139,0.661513,0.144070,-0.563524,0.813440
0.041653,-0.041727,0.616820,0.975490,0.065941,0.209932
0.457257,0.033126,0.683388,0.833076,0.391999,-0.390283
0.072334,0.214804,0.699507,0.829143,-0.442975,-0.341021
0.498051,0.369672,0.431098,-0.066140,0.326390,0.942918
-0.051172,-0.907352,0.457523,-0.286862,0.668918,0.685754
0.133886,-0.320502,0.368566,-0.219076,0.645505,0.731662
-0.247603,0.049556,0.246971,-0.530146,0.538937,-0.654593
0.350748,-0.503366,0.292968,-0.290617,0.270922,0.917683
-0.581418,-0.740918,0.189072,-0.464172,0.296207,0.834749
0.160399,0.096889,0.074509,0.350822,0.933480,0.074420
0.418582,-0.595421,0.531845,0.028607,0.437996,0.898522
0.050317,-0.284380,0.370175,0.390300,0.321234,0.862829
-0.131170,0.054123,0.762593,-0.595017,-0.775750,-0.210158
-0.575732,0.259112,0.622896,0.620970,-0.777550,0.099054
-0.233850,-0.138468,0.626114,0.319850,0.888767,0.328313
0.194582,-0.042795,0.839523,0.930026,0.287032,-0.229488
-0.440195,0.324772,0.738721,-0.090787,-0.963307,0.252581
-0.057189,-0.281533,0.733297,-0.052158,0.407974,0.911502
-0.039006,0.292861,0.779808,0.573847,0.815674,0.073310
0.754645,-0.026128,0.448035,0.772933,-0.633398,-0.037174
0.024200,0.208577,0.533052,-0.427728,0.899479,0.089360
-0.787569,-0.382485,0.283480,-0.291636,0.649813,-0.701920
0.142546,0.278092,0.904524,0.867105,0.333532,0.369981
-0.354246,-0.534862,0.623894,0.147821,-0.832412,0.534078
0.315111,-0.182242,0.390996,-0.327315,-0.187857,0.926053
0.008264,-0.028915,0.746336,0.941233,-0.145094,0.305004
0.182020,0.018476,-0.010993,-0.716991,-0.297228,-0.630539
0.231938,-0.660251,0.293509,0.079889,-0.093838,0.992377
0.336595,-0.664107,0.524451,-0.286981,0.589320,0.755211
0.359141,0.062427,0.472060,0.567541,-0.637975,-0.520466
0.196761,-0.663039,0.520678,-0.058570,0.738890,0.671276
0.205490,-0.393992,0.002476,0.188184,-0.000129,-0.982134
-0.718476,-0.356862,0.513812,0.883596,-0.308860,0.351944
-0.251699,0.519618,-0.981856,-0.232143,-0.083405,0.969099
-0.348496,0.441739,-0.985865,0.164655,0.090650,-0.982177
0.058449,-0.453246,0.095413,0.059738,-0.783474,0.618546
-0.912593,-0.075596,0.366596,0.837904,0.141616,-0.527125
0.337257,0.588006,0.736959,0.841335,-0.261084,0.473276
0.344662,0.496664,0.665827,-0.231544,0.129264,-0.964198
-0.649584,0.210534,0.638432,-0.571807,0.797803,0.191172
0.141686,0.551114,-0.964684,-0.169428,-0.088477,0.981563
-0.670874,-0.616596,0.087978,-0.372938,0.674248,-0.637422
0.304861,0.594709,0.668504,0.406518,0.230388,-0.884118
-0.033518,0.208517,0.957138,0.328162,-0.943480,-0.046429
-0.138906,-0.075952,0.468176,0.342404,0.284671,-0.895389
-0.843701,-0.284558,0.291775,-0.091270,0.561260,-0.822592
0.184926,0.017586,0.831117,0.884558,-0.034231,-0.465173
-0.572362,0.326907,0.722311,-0.018001,0.634670,0.772573
0.205954,-0.909725,0.382840,0.750021,-0.070012,-0.657699
0.149027,-0.106024,0.450421,0.599058,0.532098,0.598333
-0.150213,-0.171862,0.174743,0.754669,-0.655568,-0.026555
0.276763,-0.064860,0.865476,0.878797,0.072914,-0.471593
-0.201055,-0.465287,0.519278,-0.844430,-0.175612,-0.506062
0.326745,-0.241200,0.593614,-0.520008,0.732139,0.439959
-0.425252,-0.574306,0.226053,0.947869,0.098647,-0.303007
-0.175402,-0.380646,0.222183,0.595705,0.802489,0.033863
0.319473,-0.488834,0.517960,-0.627072,0.339508,0.701081
0.581027,-0.079629,0.666285,0.673503,0.416360,-0.610769
-0.633785,-0.104778,0.624685,-0.732960,0.679855,0.023812
0.348036,-0.790148,0.265212,0.891200,-0.453514,-0.009334
0.270351,-0.010588,0.490287,-0.036949,-0.432581,0.900838
0.012034,0.181470,0.884688,-0.391160,-0.790691,-0.470958
-0.089916,0.097304,0.251867,-0.361816,0.780879,-0.509232
0.212366,0.245766,0.879542,0.927347,-0.232775,0.292991
0.408465,-0.051277,0.821602,-0.613318,0.623656,0.484659
0.060168,-0.268306,0.322403,0.941397,0.017414,-0.336850
