0.299989,-0.138968,-0.676251,0.813542,0.562706,-0.146671
0.445505,-0.590637,0.635745,0.860979,-0.023950,-0.508076
-0.681095,0.677030,0.661655,0.206830,-0.828591,0.520248
0.129932,-0.027138,-0.938109,-0.248014,0.165003,0.954601
0.186263,0.102509,0.819793,0.852296,-0.507525,0.126530
0.136688,-0.107130,0.530033,0.857556,-0.215072,0.467270
-0.078672,0.070276,0.514130,-0.162236,0.838185,-0.520697
0.632231,0.155779,0.888488,-0.272374,-0.041017,0.961317
0.281271,-0.174370,-0.274597,0.945535,-0.028558,0.324266
0.482404,0.531686,0.840285,-0.088138,-0.562772,0.821900
0.262376,0.603048,0.835090,0.233567,0.256147,0.937995
0.343515,-0.424198,-0.755766,0.983379,0.160792,0.084333
0.066754,0.911270,0.742987,0.092532,-0.943994,0.316723
-0.419319,0.150937,0.435269,0.321374,0.430177,0.843603
0.444216,0.705307,0.716774,-0.324611,-0.278759,-0.903837
-0.471069,-0.039661,0.253404,-0.432172,0.089431,-0.897346
0.760766,0.004646,-0.894272,0.298482,-0.210167,-0.930988
-0.735602,0.237330,0.711181,-0.344811,-0.910845,0.226862
-0.548428,0.782850,0.324569,0.039946,0.994917,0.092440
0.820874,-0.033148,-0.891468,-0.298794,0.272903,0.914465
-0.189864,0.537588,0.401519,0.009839,-0.054729,0.998453
-0.658464,0.082134,0.778426,0.329282,0.878289,0.346672
0.211203,-0.302512,0.908662,0.320695,0.497974,0.805715
0.600577,0.908151,-0.948913,0.193869,-0.196218,-0.961204
-0.478892,-0.291215,0.857049,0.053663,-0.778727,0.625064
0.371524,0.619248,0.617085,0.037576,0.719792,0.693172
0.251484,-0.825156,0.200660,0.408900,0.688034,-0.599508
-0.253307,-0.254362,0.304714,0.468567,-0.710659,0.524795
0.408470,0.588075,-0.952259,0.279422,-0.128647,-0.951511
-0.120464,-0.676361,0.666260,0.212368,0.104864,0.971547
-0.002469,0.270171,0.937392,-0.663908,0.316784,0.677403
-0.667180,0.083469,0.832461,0.314837,0.604876,-0.731439
-0.548783,-0.343092,0.774904,-0.135087,-0.198289,-0.970790
-0.285406,-0.028361,0.219941,0.232825,-0.471857,0.850378
-0.355340,-0.175430,0.680649,0.605041,0.280688,0.745077
0.116817,-0.259207,0.191242,-0.740231,0.465240,0.485397
0.232988,0.417461,0.168487,-0.325904,-0.682368,0.654340
0.169368,0.763922,0.867916,0.897932,-0.049150,-0.437382
-0.020740,0.578447,0.841815,0.992250,0.076214,-0.098136
0.128287,-0.005373,0.561983,0.926071,-0.011731,-0.377167
0.083204,0.297891,0.937902,-0.736712,-0.620407,-0.268981
0.236233,-0.604720,0.800416,0.977457,-0.131272,0.165367
-0.453597,-0.191905,0.782920,-0.217636,-0.241622,0.945650
0.036123,-0.136185,0.109353,0.290592,-0.905640,0.308824
-0.272470,0.629213,0.867199,0.111379,-0.341485,0.933265
-0.087206,-0.341536,0.900917,0.982212,-0.149688,0.113368
-0.041903,-0.253417,0.880361,0.062142,-0.988145,0.140385
0.092319,0.505022,0.871358,-0.471531,-0.308809,-0.826012
0.466399,-0.264161,0.405805,0.538784,-0.446522,0.714374
0.669801,0.960198,0.857543,0.594581,-0.679023,0.430582
-0.515173,0.166746,0.971190,-0.050572,0.737711,-0.673220
-0.525398,-0.271173,0.566189,0.955126,-0.296078,-0.008464
0.520196,-0.501574,0.649130,0.978616,-0.132248,0.157546
-0.212628,0.054913,-0.959207,-0.179645,0.172325,0.968520
0.223252,0.135795,0.815554,0.877434,-0.479663,-0.005764
0.288741,0.589132,-0.958123,-0.180768,0.282817,0.941986
-0.129845,0.247795,0.945088,0.646598,0.208107,-0.733896
0.030164,0.048345,0.506848,-0.612621,0.764587,0.200257
0.166033,0.753682,0.861144,0.976913,0.055946,-0.206180
0.410915,0.422027,0.944324,-0.434601,-0.474208,0.765669
0.138246,0.657436,0.834166,0.698338,0.607279,-0.378862
-0.467691,0.755129,0.770969,0.863077,0.242125,-0.443253
-0.271491,0.455147,0.815506,-0.093707,-0.700834,0.707143
0.244727,-0.431547,0.911116,-0.455171,-0.091770,-0.885662
-0.113216,0.203929,0.863757,0.650732,0.233520,-0.722507
-0.894542,0.056972,0.700600,0.158926,0.007014,0.987266
0.633301,0.181050,-0.912215,0.059697,-0.069398,0.995801
0.089339,-0.251692,0.459314,-0.425601,-0.540288,-0.725915
0.279716,-0.409670,-0.900025,0.259206,-0.231414,-0.937688
-0.175371,0.469063,0.634582,0.857807,0.349716,0.376652
0.344315,0.389407,0.917266,-0.564732,0.823088,0.060026
-0.437014,0.102563,-0.982312,0.166359,-0.270209,-0.948320
-0.160166,0.060369,0.757185,0.670285,-0.666122,0.327109
0.370634,0.388850,-0.939973,-0.184823,0.154113,0.970613
0.242591,0.308859,0.888536,-0.590499,-0.775247,0.224281
0.581194,0.724510,0.485161,-0.628175,0.318745,0.709788
0.225743,0.442623,0.887070,0.276154,-0.103031,0.955575
-0.437369,0.775001,0.798966,-0.193597,0.045957,0.980004
0.306835,0.135350,0.372087,-0.660356,0.192220,0.725935
-0.283317,0.522166,0.831856,0.193098,-0.426144,0.883807
0.196176,-0.102509,-0.081196,0.796307,0.531799,0.288245
0.025719,-0.070501,0.082678,-0.121520,-0.990711,-0.061026
-0.828388,0.358235,0.742907,-0.532110,-0.193238,0.824329
0.352896,0.846251,-0.968226,-0.224529,0.219070,0.949523
0.407314,-0.286873,0.551099,0.941354,-0.315046,-0.120829
-0.133267,-0.481253,0.729729,-0.137432,0.646331,0.750579
0.215206,-0.309137,0.843089,0.978400,-0.205581,0.021693
0.126998,0.057029,0.315375,-0.828365,0.532918,0.172659
0.591731,0.612735,0.668619,-0.237381,0.498722,0.833623
0.288828,-0.283143,0.913872,0.089028,0.373024,0.923541
0.179327,-0.273789,0.908247,0.747781,0.264544,0.608966
0.301812,0.383785,0.411876,0.840201,-0.540280,-0.046470
-0.064621,-0.162904,0.585550,-0.015267,0.485673,0.874007
-0.739692,0.089816,0.789038,-0.614171,-0.779456,0.123459
-0.859154,0.318433,0.582730,-0.278623,0.958416,-0.061717
0.273179,-0.305131,-0.871708,0.730260,0.648561,-0.214684
0.366276,0.841855,0.583272,0.871424,0.271317,0.408666
-0.208536,0.481311,0.814391,0.963871,0.219117,0.151464
0.020916,-0.132733,0.868187,0.882306,0.276469,0.380922
-0.577593,-0.318266,0.710241,-0.504959,0.292713,0.811995
-0.584307,0.295333,0.781804,0.530823,-0.402094,-0.746021
0.505703,-0.207717,-0.894639,-0.045778,0.326587,0.944058
0.099922,-0.504690,-0.900375,-0.127070,0.390346,0.911857
0.217518,0.531408,0.756786,0.378971,0.787647,0.485791
-0.280560,-0.155500,0.852921,0.635686,-0.752688,0.171359
0.291229,0.239331,0.861447,0.959581,-0.074030,-0.271520
0.418249,-0.312701,0.547020,0.972463,-0.167702,-0.161839
0.381304,0.274013,0.674148,0.781520,0.121392,-0.611956
-0.018384,0.039549,0.531499,0.309862,0.828291,0.466818
0.225607,-0.361965,0.834262,0.052970,-0.540095,0.839935
0.388728,0.192071,0.936053,0.796556,0.492231,-0.351009
-0.366279,0.594921,0.528631,-0.655065,-0.098316,-0.749148
0.101746,-0.471958,0.269419,-0.005012,-0.196150,0.980561
-0.517661,0.203596,0.855981,-0.529889,0.175521,0.829704
0.170122,0.273956,0.907450,0.764347,-0.018799,-0.644532
0.194043,0.627096,0.886066,0.992770,-0.032234,0.115623
0.175547,0.070834,0.829816,0.957200,-0.247391,0.150218
-0.616761,0.624313,0.654644,0.055345,-0.688677,0.722953
-0.226899,0.226808,-0.972289,0.284665,-0.130982,-0.949637
-0.649840,-0.410561,0.881604,-0.509164,0.855071,-0.098007
0.235745,-0.285535,-0.838006,0.985504,-0.145332,0.087523
-0.073424,0.338027,0.636574,0.715688,0.313800,-0.623955
-0.557054,0.415514,0.786489,-0.377284,0.111296,0.919386
0.033499,-0.040996,0.867342,0.427159,-0.285756,0.857834
0.049639,-0.351722,0.164519,0.865892,0.353703,0.353731
0.254729,-0.190458,-0.561393,-0.588924,-0.804614,0.075925
0.379261,0.289876,0.378301,0.070766,0.689743,-0.720588
0.170747,0.500402,0.892982,-0.705860,0.393189,0.589206
0.309413,-0.000641,0.854770,-0.379555,0.591016,0.711785
-0.042036,-0.140082,0.183928,0.859817,0.322443,0.395910
0.409848,-0.223913,0.635012,0.834739,-0.188149,0.517504
-0.556297,0.732304,0.740979,0.244403,-0.244786,0.938268
0.096810,-0.628822,0.181920,-0.299361,-0.038532,0.953362
0.231254,-0.088368,-0.211240,-0.685863,0.714033,0.140527
0.480048,0.266053,-0.924373,-0.257506,-0.024416,0.965968
0.875737,-0.266053,-0.871167,0.190723,-0.089589,-0.977547
0.713905,-0.315929,0.252974,0.083026,0.648500,-0.756673
0.178703,-0.421137,-0.905172,-0.178384,0.203629,0.962660
-0.311060,0.322887,0.963143,-0.130206,0.758697,0.638299
0.217694,0.753848,0.628383,0.073130,-0.249230,0.965679
0.418827,0.351165,-0.933791,0.161517,-0.259071,-0.952258
0.366143,0.948174,0.683964,0.665308,0.637116,-0.389164
0.497654,0.497731,-0.936579,-0.111184,0.050368,0.992523
0.531932,0.368421,0.746333,-0.369945,-0.629433,0.683341
0.159230,0.298448,-0.942443,0.019186,-0.100242,0.994778
0.129310,-0.226030,0.457115,0.460356,-0.286744,-0.840149
-0.374770,0.071782,0.886639,-0.497919,-0.847854,0.182263
0.208180,-0.226421,-0.289990,0.997978,0.044585,0.045301
0.370412,0.112250,0.859200,0.410177,-0.274907,0.869587
0.393263,0.208662,0.746206,0.850304,0.059522,-0.522915
-0.395311,-0.272121,0.892408,0.418305,-0.571982,-0.705591
-0.131622,-0.150992,-0.933520,-0.099222,0.141127,0.985007
-0.622587,0.352554,0.470867,0.542434,0.364707,0.756805
-0.721820,0.630157,0.606122,-0.411963,0.883482,-0.223040
0.393086,0.640958,-0.946586,-0.286205,0.127184,0.949690
0.007047,-0.386346,0.493272,0.919012,-0.030082,0.393080
-0.559586,0.380499,0.850738,-0.786359,0.176340,0.592068
-0.781660,-0.170477,0.541554,0.464260,-0.252257,-0.849016
-0.008247,0.726182,0.842803,-0.076207,-0.355042,0.931739
-0.318751,0.696457,0.848938,-0.270522,0.590002,0.760733
0.235346,-0.088090,0.442392,0.634494,0.517124,-0.574457
-0.069647,-0.465444,0.547307,0.390633,0.813905,0.430075
0.041635,0.913886,0.755974,0.943334,0.007086,-0.331769
0.320219,-0.717165,0.767686,-0.008238,0.428884,0.903322
0.099610,-0.617077,0.177634,-0.247112,0.017504,0.968829
0.789131,0.047397,-0.893810,-0.164650,-0.017502,0.986197
0.292874,0.279633,0.861160,0.996506,0.083267,-0.006575
-0.361565,-0.249687,0.903881,-0.501383,0.865010,-0.019334
0.357653,0.149212,0.189840,0.794401,-0.598421,-0.104011
0.310214,-0.004758,0.703134,-0.379918,0.718208,0.582958
-0.167767,0.010826,0.753567,0.819110,-0.361176,0.445659
0.393219,-0.183000,0.502753,0.502507,0.808156,0.307198
0.757875,-0.039216,-0.893985,-0.286177,0.177971,0.941504
0.025985,-0.247849,0.202190,0.481869,0.876018,-0.019867
0.296521,0.084916,-0.827043,0.999730,-0.019177,-0.013096
0.512370,0.961146,0.677893,-0.146141,0.175967,-0.973488
-0.196089,0.216955,-0.966011,-0.114673,0.211516,0.970624
-0.175992,0.164409,0.516584,-0.519914,0.255374,0.815153
0.222497,-0.212671,0.867390,-0.695239,0.717086,0.049296
-0.513615,-0.252137,0.871868,0.606009,0.789005,-0.101115
0.232234,-0.067494,0.810869,0.378060,0.881152,0.283974
-0.138023,0.321660,0.886305,0.627277,0.360528,0.690321
0.192618,0.003311,0.639251,0.983409,0.035220,-0.177948
0.455507,0.078740,0.960657,-0.715002,-0.202361,0.669195
0.175281,0.018899,0.882114,-0.478951,-0.286573,0.829748
-0.271358,-0.013612,0.860570,0.933683,0.229270,0.275084
-0.419275,-0.303069,0.858913,-0.229151,-0.766260,-0.600280
0.440924,0.680257,-0.945965,0.288759,-0.228194,-0.929810
0.269844,-0.854993,0.634550,0.337810,-0.114758,-0.934192
-0.148072,0.297613,0.908056,-0.168259,-0.960710,-0.220737
-0.035323,0.604441,0.409263,-0.139369,-0.515221,0.845650
0.390864,0.484093,0.735641,0.180659,0.039010,0.982772
-0.018119,-0.602828,0.417820,0.075371,-0.830186,0.552368
0.566612,0.301510,-0.922477,-0.173483,0.146971,0.973809
0.185907,0.490607,-0.958777,-0.157720,0.172111,0.972369
0.021494,-0.816193,0.582937,0.390280,0.258920,-0.883540
0.127709,-0.206270,0.466166,0.383450,0.055331,-0.921903
0.109748,0.289876,0.913984,-0.087565,-0.981967,0.167549
0.283184,0.320325,-0.942475,-0.236624,0.134931,0.962186
-0.374102,-0.448413,0.831760,0.278783,0.803520,0.525962
-0.571279,-0.064212,0.805212,0.082626,0.230620,0.969530
0.263442,0.535974,-0.956721,0.245343,-0.299881,-0.921888
0.047906,-0.494171,0.740278,0.490221,-0.150914,-0.858434
0.614270,0.777393,0.488380,-0.702197,0.323844,0.634070
-0.456619,-0.310085,0.558461,0.396488,0.916082,-0.059924
-0.134645,0.725849,0.770458,0.980126,-0.123953,-0.154881
0.186884,0.188232,0.110994,-0.814232,0.580535,0.002213
-0.511127,0.010215,0.907148,-0.668592,-0.522223,-0.529403
0.317415,0.141863,0.931640,0.431644,-0.700062,-0.568856
-0.328178,-0.273011,0.803332,0.280916,0.470061,0.836737
0.453284,0.342202,0.434998,-0.511812,-0.793671,0.328838
-0.572657,-0.116758,0.711866,0.725055,0.618450,0.303009
-0.052706,0.770768,0.854419,0.653251,0.187250,-0.733622
-0.273982,-0.258205,0.873254,-0.007929,0.425856,0.904756
-0.133090,0.021515,0.958474,-0.275412,0.688511,0.670896
0.576836,0.622924,0.672603,0.290179,-0.301975,-0.908079
-0.249351,0.439392,0.925696,-0.232692,-0.234866,0.943765
-0.116684,-0.256034,0.610712,0.880038,-0.471854,0.053728
0.464443,0.836955,0.239350,-0.024522,-0.087638,0.995851
0.052839,-0.005316,-0.943511,-0.333010,-0.044329,0.941881
0.230187,-0.134239,0.904502,0.460852,0.120616,0.879242
0.390508,-0.309416,0.870019,-0.582763,-0.596185,0.552223
-0.950784,-0.045006,0.687311,0.319926,0.811993,-0.488175
0.062665,0.372260,0.910319,0.280639,0.804423,0.523589
-0.095789,0.223135,0.749552,0.041962,-0.924159,0.379696
-0.599780,0.179827,0.723180,-0.274676,-0.860562,0.428937
0.134111,0.057920,0.576930,0.883767,0.398303,-0.245584
0.034522,0.647583,0.858275,0.269337,-0.786388,0.555924
-0.082496,0.194521,0.728884,-0.814800,0.575369,-0.071070
0.159409,-0.653315,0.846834,-0.679101,0.731345,-0.062904
-0.044793,0.536361,0.855885,-0.325987,0.363222,-0.872813
-0.247527,0.473014,0.937966,0.464331,0.088675,-0.881211
0.135801,0.346544,0.600019,-0.366557,-0.670902,0.644613
-0.174125,0.113028,0.913968,0.651535,0.704422,0.281588
-0.081293,-0.165632,0.592418,0.395059,0.118668,0.910959
-0.313549,0.384005,0.872760,0.248364,-0.187262,-0.950394
-0.239791,0.250078,0.485208,0.932842,0.342890,0.110599
-0.027632,0.164184,0.906080,-0.603327,-0.628188,0.491301
0.399889,0.298116,0.692872,0.200566,-0.951538,0.233127
-0.144916,0.775891,0.712312,-0.038238,0.851095,0.523618
-0.226497,0.508586,-0.992797,0.241330,-0.255363,-0.936242
0.155808,0.523060,0.458773,0.000530,0.694299,0.719686
-0.589463,0.043558,0.854101,0.647888,0.574199,-0.500536
0.048261,-0.066271,0.316952,0.047005,0.990305,0.130715
0.195331,-0.004371,0.437436,-0.667746,-0.629248,0.397697
-0.186219,0.041666,0.956227,-0.315360,0.798754,0.512386
-0.514994,-0.058531,0.194573,-0.226494,-0.129709,0.965337
0.373079,0.570873,-0.954171,0.256923,-0.312611,-0.914475
0.600401,0.817195,0.675216,-0.186459,0.130346,0.973778
0.176258,-0.087200,-0.119647,0.745927,0.664722,-0.041690
-0.461555,-0.347546,0.727928,-0.317668,0.236540,0.918224
-0.013449,-0.209664,0.188071,0.798915,0.448191,0.401072
-0.371747,-0.423695,0.329254,-0.171402,0.345380,0.922678
-0.682384,-0.100895,0.822645,-0.095877,-0.156417,0.983027
0.349338,0.619414,0.821848,-0.196751,-0.258483,-0.945767
-0.079028,0.638953,0.839966,0.977430,0.209714,0.025525
0.262466,0.263437,0.134721,-0.257284,-0.448374,0.856018
0.140203,0.567147,0.203225,0.153674,0.905022,-0.396635
0.390419,0.212001,0.960976,0.606513,0.134135,-0.783677
0.249438,0.535417,0.556676,0.215018,-0.832716,0.510246
-0.553852,-0.255976,0.424417,0.978701,-0.101252,0.178586
0.356540,0.442956,0.898941,-0.188164,0.038664,0.981376
-0.614628,-0.192184,0.183418,-0.096049,0.045250,0.994348
-0.312482,-0.259540,0.415047,0.209361,-0.970359,0.120709
0.321375,0.594143,-0.958840,0.211055,-0.300905,-0.930006
-0.343116,0.356896,0.520472,0.287937,0.876312,0.386223
0.030077,0.783906,0.240847,0.556105,0.559771,-0.614332
-0.585596,-0.392190,0.852172,-0.253880,0.294043,0.921457
0.123218,0.759525,0.452367,-0.207510,-0.578756,0.788658
-0.283227,0.454368,0.474038,0.737690,-0.021971,0.674782
0.231031,-0.235771,0.207607,0.500889,0.775609,-0.384110
0.608981,0.111414,0.694943,0.576455,-0.644501,0.502312
-0.008960,-0.427035,0.511660,-0.888778,-0.176337,-0.423058
-0.277493,0.336413,-0.982695,-0.246004,0.299071,0.921975
-0.129088,0.714603,0.639012,0.213543,0.552143,-0.805939
0.067332,-0.151882,0.825466,-0.710177,-0.140618,-0.689837
0.986394,-0.368088,-0.865207,0.075448,-0.122311,-0.989620
0.186217,0.682707,0.417677,0.202934,0.563530,-0.800782
0.539891,0.425309,-0.937950,-0.146879,0.360931,0.920954
0.072624,0.285201,0.960561,-0.510154,0.702927,0.495617
-0.305101,-0.278688,0.321542,-0.435985,-0.359943,-0.824838
0.274335,0.351664,0.383162,0.158934,0.746803,-0.645775
0.153095,0.198584,0.880616,0.933625,0.219658,-0.283009
-0.110416,0.659661,0.386030,0.310438,0.193807,-0.930627
0.719950,0.104011,-0.900264,-0.414170,0.090210,0.905718
-0.553630,-0.385511,0.878943,0.996327,0.035585,0.077880
-0.054576,0.194633,0.765407,0.847620,0.449306,0.282250
-0.458397,0.777281,0.803428,0.387036,-0.187957,-0.902705
-0.811759,0.342090,0.730781,0.605254,0.465647,-0.645632
0.431587,0.189010,0.960051,0.518210,0.268864,-0.811893
0.205290,0.261266,0.923353,0.570095,0.589459,-0.572302
0.717595,-0.469508,-0.871693,-0.141476,0.241068,0.960141
0.085383,0.079963,0.188597,-0.804812,-0.579546,-0.128082
-0.036389,0.015559,0.854547,-0.446816,0.698979,-0.558376
-0.326354,0.007599,0.897284,0.331477,-0.694564,0.638517
0.233523,-0.300232,0.262710,0.878550,0.333604,0.341847
0.257440,-0.126499,-0.919688,-0.297443,0.025043,0.954411
-0.450129,0.250132,-0.994646,-0.171933,0.230301,0.957810
0.333067,0.069498,0.675391,0.258498,-0.840518,-0.476140
0.255752,-0.144091,-0.912390,-0.301862,0.031717,0.952824
0.424075,-0.768043,0.765088,-0.176548,-0.484631,-0.856717
-0.406158,0.063876,0.618567,0.848588,0.477454,0.227895
-0.044082,-0.258483,0.948100,0.538327,-0.189243,0.821214
-0.608314,0.052242,0.459984,-0.045967,0.476172,0.878150
-0.087741,-0.263382,0.258981,0.152861,0.707990,0.689480
-0.097344,-0.570819,0.956562,-0.636394,-0.018619,-0.771139
-0.388020,0.029475,0.940484,-0.125959,-0.801794,0.584175
0.265223,-0.801329,0.767654,0.824875,-0.179103,-0.536194
0.271312,-0.079908,0.256145,0.225149,-0.166207,0.960043
-0.062711,0.059924,0.612241,0.997953,0.030986,-0.055944
0.323507,0.734587,0.697047,-0.153366,-0.138391,-0.978431
-0.422119,0.055694,0.646677,-0.575969,-0.601744,-0.553321
0.234545,-0.110079,0.475010,0.405284,-0.221512,-0.886948
-0.088718,0.394415,0.949471,0.824770,-0.364955,0.431928
0.121039,-0.402546,0.448240,-0.726070,0.302999,-0.617264
-0.122285,-0.642684,0.653003,0.076628,0.086857,0.993269
0.224185,-0.207381,0.280000,0.299114,0.194342,0.934217
0.213605,0.660997,0.911864,-0.720993,0.421255,0.550194
-0.180795,0.517213,0.664874,0.291680,-0.774980,0.560650
-0.676826,-0.015114,0.822295,0.145008,-0.208028,0.967314
-0.283273,0.298673,0.776004,0.176721,-0.503204,0.845905
-0.300301,-0.016561,0.578332,0.575868,0.765335,0.287470
-0.232190,0.253971,0.923608,-0.458607,0.646784,-0.609385
0.636722,0.072169,-0.910335,-0.034612,0.212856,0.976470
0.574348,0.425421,-0.930556,-0.056459,0.345380,0.936763
-0.256732,-0.690892,0.626120,-0.283451,-0.779297,0.558885
0.434034,0.416571,0.229072,0.241090,0.199607,0.949754
0.352271,-0.212725,-0.753281,0.797738,0.564528,-0.211948
-0.450527,-0.257648,0.577137,-0.268708,-0.464053,0.844068
-0.569814,0.364470,0.950714,-0.095632,0.198637,0.975396
0.362054,0.041887,0.835058,-0.607867,-0.245113,-0.755260
-0.530288,0.533467,0.715658,-0.591339,0.431484,-0.681278
0.340980,0.913050,0.616273,-0.552940,-0.814682,-0.174785
-0.139804,0.785133,0.835871,-0.374795,0.839392,0.393636
0.024430,-0.087257,0.101896,-0.094482,-0.961207,0.259142
-0.418784,-0.103899,0.691549,-0.450730,-0.321408,-0.832790
-0.041282,-0.010660,0.587813,0.974678,0.093340,0.203201
0.148826,-0.649143,0.844858,-0.703785,0.703371,-0.099782
0.426919,0.162625,0.959796,0.552642,0.352196,-0.755344
0.177992,0.724510,0.860443,0.761980,0.097227,-0.640261
-0.360589,-0.081635,-0.961533,0.182982,-0.226116,-0.956760
0.546249,-0.185504,-0.898575,-0.101094,0.198870,0.974798
-0.380948,0.055025,0.583447,-0.707025,-0.670427,-0.225040
-0.480583,0.048845,0.960641,0.019592,0.835574,-0.549029
0.028208,0.752788,0.313606,-0.337812,0.692893,0.637010
-0.323464,0.217179,0.220276,0.520168,-0.019661,0.853838
-0.034878,-0.094324,-0.944929,-0.039460,0.175623,0.983666
-0.284207,0.188623,0.868649,0.882075,-0.466552,-0.065368
-0.207782,0.196526,-0.965278,-0.232599,0.211515,0.949294
0.617605,0.343316,-0.923321,-0.197661,0.189924,0.961696
-0.128865,-0.518215,0.653815,0.984845,0.043628,-0.167860
0.057997,0.290434,0.943161,0.383537,0.827795,0.409456
0.162565,-0.233545,-0.384516,-0.670091,0.715074,0.199114
-0.693811,0.712932,0.719897,-0.532246,0.712035,-0.457953
0.240857,0.035876,0.903993,0.283234,0.467268,-0.837519
-0.195066,0.597150,0.410442,-0.170251,0.143910,-0.974836
0.160386,0.149657,0.717858,-0.613916,0.566652,-0.549557
-0.386864,0.176487,-0.985659,-0.226874,0.212287,0.950506
0.163100,0.768209,0.638677,0.088204,-0.148796,0.984926
-0.147583,-0.059812,-0.949152,-0.213938,0.243606,0.945984
0.259709,-0.350665,0.856427,0.725251,0.613828,-0.311813
-0.083206,0.337361,0.697126,0.986175,-0.146672,-0.077108
-0.203869,-0.312198,0.896918,0.626742,0.589944,-0.509077
0.417538,0.527847,-0.942077,-0.186058,0.157030,0.969909
-0.436658,-0.284366,0.899738,-0.143486,0.898566,-0.414719
0.196800,-0.107795,0.894687,0.385802,0.636779,0.667585
0.401933,0.810737,0.751209,-0.098067,0.177842,0.979160
0.350182,0.363634,0.215256,0.688405,0.507535,-0.518176
-0.077560,-0.223801,0.825147,0.975390,-0.016032,-0.219902
-0.091697,0.064990,0.675981,0.929515,-0.297688,0.217679
-0.231968,0.441621,0.935735,-0.582632,0.312448,0.750277
-0.135847,0.351331,0.889572,-0.623703,-0.657823,-0.422212
-0.225610,-0.180608,0.756579,-0.611359,-0.038856,-0.790399
0.145893,-0.074173,-0.109672,-0.707664,-0.689359,0.154906
-0.056576,0.592750,0.663886,-0.434869,0.666634,-0.605383
-0.478404,-0.284702,0.855678,0.074065,-0.664853,0.743294
0.488941,0.084526,0.858084,0.616399,0.578522,-0.534195
0.157852,-0.029142,0.593789,0.978920,0.190498,-0.073667
0.143491,-0.262435,0.730828,0.993152,-0.092052,0.071947
-0.460798,0.478250,0.680905,-0.382451,-0.504053,0.774378
0.313994,-0.762699,0.778362,-0.474593,0.390690,0.788747
0.679670,0.862060,0.509191,-0.809200,0.578062,0.105068
0.113037,0.215732,0.546462,0.978384,-0.157080,-0.134503
-0.307459,-0.349160,0.344074,0.249557,-0.083469,-0.964756
0.371657,0.022904,0.856570,0.249916,0.542830,0.801796
-0.422740,-0.001252,0.766315,-0.056694,-0.931574,0.359103
0.220850,0.179049,-0.938476,-0.084577,-0.012020,0.996344
0.211960,-0.873805,0.622663,-0.167933,0.198376,0.965632
0.175058,0.755628,0.848476,-0.807551,0.585622,0.070054
0.074892,-0.638009,0.576802,-0.430463,0.240061,0.870099
0.475913,-0.147486,-0.900758,-0.225470,0.255678,0.940102
-0.141046,0.190179,0.862881,-0.757421,0.146314,0.636322
0.902412,-0.259428,-0.868490,-0.198244,0.002954,0.980148
0.045149,-0.586241,0.747273,-0.763558,-0.158317,0.626031
-0.449684,0.706198,0.774012,0.509006,0.317909,-0.799904
-0.352630,0.105125,0.891117,0.361398,0.896676,-0.255663
-0.099833,0.160899,0.583033,-0.716648,-0.264507,0.645331
-0.124776,-0.030977,0.252783,0.919100,-0.315013,0.236691
0.003579,-0.432159,0.911594,0.073298,0.834116,0.546697
-0.030300,0.712041,0.871804,-0.117175,-0.419423,0.900197
0.306835,-0.074788,0.489877,-0.228081,-0.616349,0.753720
0.196444,-0.785799,0.216180,0.497699,0.678562,-0.540231
-0.166611,0.605277,0.855359,-0.159535,-0.328062,0.931087
-0.061954,-0.098000,0.886719,0.892801,-0.175697,0.414774
-0.178839,0.151940,-0.966505,-0.040187,0.057720,0.997524
0.068979,-0.079630,-0.939814,0.251319,-0.272321,-0.928806
0.150560,0.859668,0.851663,0.002359,-0.022333,0.999748
-0.071069,-0.408723,0.741696,-0.354369,0.096619,0.930101
-0.897033,0.319211,0.687852,-0.717478,0.555213,-0.420672
0.282204,0.282806,0.129399,-0.257284,-0.448374,0.856018
0.734978,0.025578,-0.898256,0.230985,-0.225257,-0.946523
0.182260,0.302624,-0.946810,-0.025736,0.125361,0.991777
0.126643,-0.337918,-0.913362,-0.165092,0.232199,0.958555
-0.069023,0.061093,0.627650,0.984041,-0.118690,0.132574
0.069511,-0.510088,0.770825,0.386152,-0.058979,-0.920548
-0.451019,0.707254,0.795221,0.508623,0.715280,-0.479247
0.249617,0.778898,0.732119,0.209727,0.451093,-0.867485
-0.233390,0.224749,0.463298,0.936495,0.324134,0.133847
0.215515,-0.148097,-0.039622,0.606725,0.756842,-0.243053
-0.470624,-0.242617,0.921409,0.096878,-0.619131,0.779289
0.037190,0.018787,0.375609,-0.301405,-0.924478,0.233444
-0.147583,-0.485986,0.953263,-0.238579,0.448226,0.861495
0.229075,-0.617247,0.809069,0.968669,-0.239806,-0.064596
0.283583,-0.061538,0.870179,0.250138,0.879479,0.404905
-0.428254,-0.258704,0.416896,-0.482393,-0.335205,0.809281
-0.203689,-0.530073,0.660747,-0.537636,-0.120681,-0.834496
-0.052795,0.020734,0.889173,-0.423264,0.510055,-0.748794
-0.623787,-0.010660,0.718877,0.805523,0.590239,0.052442
0.297188,0.706643,-0.963541,0.261440,-0.100977,-0.959923
-0.349205,-0.114366,-0.959669,-0.152650,0.195474,0.968756
0.410470,0.007208,-0.919943,-0.088092,0.253299,0.963369
-0.536914,0.415847,0.781661,0.667350,0.723795,-0.175395
-0.158565,0.064823,0.756611,0.670285,-0.666122,0.327109
0.210758,0.308081,0.488810,0.777720,0.162726,-0.607183
-0.002068,0.075621,0.893762,0.158079,-0.455603,0.876035
0.521661,-0.495115,-0.880265,-0.154768,0.217645,0.963679
0.135001,-0.429152,0.445053,0.635130,-0.327846,0.699377
-0.046660,-0.024688,0.881636,0.724715,-0.166331,0.668672
-0.703723,0.138635,0.694322,0.268385,-0.427293,0.863360
0.506546,0.623535,-0.941280,-0.024752,0.308441,0.950922
-0.158742,0.390186,0.958840,0.419985,0.434414,-0.796804
0.751249,-0.102451,-0.889396,-0.282045,0.232610,0.930776
-0.156563,0.091375,-0.958936,0.329886,-0.201271,-0.922315
0.306879,-0.620029,0.290309,-0.389499,-0.029494,-0.920555
0.576657,0.386176,0.739497,0.835789,0.119509,-0.535887
0.352095,-0.089537,-0.906431,-0.008424,0.882380,0.470462
-0.309416,-0.033206,0.898176,-0.580731,0.713925,-0.391231
-0.287496,-0.545881,0.639745,0.886776,-0.376347,-0.268313
-0.790775,-0.087811,0.459075,-0.828163,0.354934,0.433784
0.246415,0.354226,0.841162,0.919805,-0.182989,0.347093
0.070667,0.554341,-0.974584,-0.191631,0.228490,0.954500
-0.317728,-0.015950,0.876282,-0.576674,-0.755732,-0.310348
-0.107792,0.271564,0.881094,-0.440044,-0.514660,0.735858
-0.409536,0.438003,0.680028,0.862025,0.403612,0.306611
-0.275225,-0.760416,-0.903021,-0.182503,0.244952,0.952203
0.158207,-0.214173,0.753105,-0.620350,0.640819,0.452236
-0.127666,-0.158008,0.785103,0.975466,-0.209576,0.067411
-0.234011,-0.110469,0.381632,0.719128,0.481749,-0.500772
-0.512017,-0.429206,0.806344,-0.384552,0.912100,0.142106
-0.172168,-0.721619,0.370509,-0.096687,-0.959022,0.266324
0.096498,-0.198642,0.516696,0.775304,-0.565442,0.281388
-0.854929,0.442120,0.546860,0.882406,-0.434815,-0.179713
-0.819362,0.428928,0.524902,-0.391234,-0.855403,-0.339443
-0.348182,-0.541930,0.588610,-0.331025,0.621944,0.709653
-0.450218,0.515877,0.578874,0.674712,0.273395,-0.685580
-0.196710,0.493111,0.825290,0.449257,0.545778,-0.707315
-0.158698,0.072780,0.387576,0.947645,0.074867,0.310424
0.123042,0.542151,-0.969039,-0.217764,0.227101,0.949212
-0.086807,-0.547162,0.304252,-0.462326,-0.036409,-0.885962
0.253394,0.302624,0.900774,0.530231,0.691549,0.490525
0.459553,0.419075,0.942810,0.386184,0.844292,-0.371527
0.343382,0.332461,0.806392,0.373415,-0.706842,0.600779
0.180925,-0.367921,0.846723,0.910729,-0.307947,0.275211
-0.463911,0.739932,0.791110,0.307860,0.818604,-0.484882
0.157184,0.427093,0.638056,0.052412,-0.548504,0.834504
0.230187,0.032815,0.897300,0.478021,0.271207,-0.835429
0.243348,0.817195,0.883070,0.748794,-0.271815,-0.604503
0.187951,0.506861,-0.959589,-0.138426,0.130359,0.981756
0.239256,0.279745,0.918669,0.084364,-0.996078,-0.026679
-0.158519,-0.225082,0.811029,-0.628042,-0.098488,0.771922
-0.252151,0.163852,0.834118,0.089821,-0.908481,0.408159
0.252906,-0.357399,0.913362,0.949954,0.089944,0.299161
-0.863645,0.422693,0.526384,-0.610906,-0.262419,-0.746947
-0.582616,0.573826,0.719515,-0.700767,-0.483819,-0.524256
-0.162077,-0.425588,0.628654,0.979600,0.200725,-0.009699
-0.126287,-0.717107,0.659440,0.163543,-0.020292,0.986328
-0.415718,0.225194,-0.989818,-0.207417,0.233146,0.950064
0.142647,-0.530518,0.893539,-0.628660,0.740802,0.236642
0.458619,0.137854,0.849368,0.555459,0.338571,-0.759497
-0.597511,0.670184,0.649943,0.380207,-0.497413,0.779758
-0.011359,0.585181,0.682944,0.915353,0.185584,-0.357334
0.198710,0.381168,-0.946793,-0.173138,0.267354,0.947916
-0.503969,0.357399,0.953805,-0.189031,-0.180865,-0.965171
0.157407,-0.903867,0.179419,0.456768,0.339576,-0.822223
0.555763,-0.299284,-0.894049,0.115716,-0.084195,-0.989708
0.687806,0.995770,-0.950666,-0.334462,0.542915,0.770310
0.390552,-0.028973,0.535244,0.699677,0.691258,-0.180594
-0.575593,-0.248685,0.543498,0.606720,0.692829,0.389716
0.236499,0.928359,0.807220,0.994074,0.088508,0.063110
-0.149095,0.462050,0.974217,-0.002834,-0.447376,0.894342
-0.313239,-0.177768,0.207974,-0.268497,-0.166505,0.948781
0.466665,0.448800,0.205297,0.888941,0.108409,0.445007
-0.644638,0.183557,0.820988,-0.723267,0.499252,0.477109
-0.278782,0.204486,0.905188,0.745942,-0.596531,-0.296177
-0.135801,-0.787304,0.768642,-0.162747,-0.207885,0.964519
-0.076716,-0.203875,0.664444,0.991052,-0.131601,-0.022290
-0.268289,-0.037378,0.567496,-0.383078,-0.776036,-0.501018
-0.303457,0.423641,-0.995474,-0.250820,0.277019,0.927550
-0.457908,-0.075400,0.194413,-0.376403,-0.086892,0.922372
0.382550,0.085752,-0.920660,0.222732,-0.183300,-0.957492
0.185639,0.486377,0.900885,-0.586156,0.339095,0.735823
-0.530155,-0.427705,0.886815,0.080833,0.572743,0.815740
-0.474849,-0.461272,0.885285,-0.165946,0.605100,0.778663
0.393442,-0.318212,0.898479,0.994553,0.060947,0.084560
-0.534646,0.123159,0.959095,-0.016421,-0.638041,0.769827
-0.035100,0.609283,0.703229,0.931955,-0.137160,-0.335631
-0.694120,0.392357,0.600035,0.175707,-0.040511,0.983609
-0.478716,-0.238665,0.909347,0.178899,-0.648517,0.739879
0.115615,-0.519051,-0.901331,-0.107420,0.398202,0.910986
0.030210,0.037099,0.404291,0.327519,0.920764,-0.211955
-0.160788,-0.554287,0.651919,0.727267,0.232644,0.645724
-0.115707,0.083469,0.694114,0.888576,-0.321905,0.326817
0.327019,0.676585,0.838564,-0.526712,0.017871,-0.849856
0.181370,0.163739,0.728024,0.855141,0.314187,-0.412336
-0.050972,0.031422,0.879564,0.350545,-0.613537,0.707595
0.524109,-0.372596,0.235637,0.097767,0.741634,-0.663641
0.750893,-0.167969,-0.885620,0.192631,-0.127213,-0.972990
0.304257,0.235326,0.903754,0.715207,-0.002229,-0.698909
-0.536556,0.294052,0.803938,-0.040049,0.705581,0.707497
-0.292030,0.033984,0.917139,0.346889,0.931479,-0.109614
0.170833,-0.069220,0.505255,-0.627426,0.589322,-0.508956
0.441146,0.402654,0.954618,-0.316368,-0.245365,0.916355
-0.616140,0.127110,0.828557,-0.484818,-0.028585,0.874148
0.394997,-0.174095,0.488141,0.634864,0.683040,-0.361115
0.177948,-0.702746,0.608210,-0.358631,0.394977,0.845800
0.592353,-0.036043,-0.903021,0.087455,-0.097791,-0.991357
-0.149895,0.187729,0.878815,-0.341720,0.471077,-0.813212
0.330177,-0.569151,0.726877,0.798532,0.370232,0.474631
-0.503879,-0.108798,0.838580,-0.365949,0.790896,-0.490475
0.193020,-0.225697,0.869733,-0.006346,0.821924,0.569562
0.112681,-0.204598,0.853336,-0.646846,0.559932,0.517751
0.274557,-0.104235,-0.134004,0.247432,0.964863,0.088409
-0.363210,0.126832,0.511899,-0.490191,0.612697,0.619932
-0.298434,0.108743,0.490451,-0.566921,0.758151,-0.322191
-0.056353,0.773663,0.634725,0.108967,-0.419692,0.901102
0.346850,0.274013,0.941742,-0.697302,-0.544851,0.465733
-0.547139,0.439117,0.798281,0.867424,-0.151095,-0.474073
-0.193288,0.110299,0.813068,-0.296936,0.465987,-0.833478
-0.552430,0.054301,0.767479,0.399600,0.905997,-0.139604
-0.645973,-0.221909,0.505860,0.267851,0.756344,0.596824
-0.422029,0.689332,0.792162,-0.676728,-0.464522,0.571190
-0.063023,0.483649,0.566859,0.120353,-0.685130,0.718409
0.092007,0.820589,0.848587,-0.088501,0.253994,0.963148
-0.690476,0.113361,0.800034,0.978206,-0.188119,-0.087887
0.164744,-0.329733,0.911211,-0.405054,-0.610453,0.680646
-0.042614,-0.005706,0.474915,0.120008,-0.973995,0.192177
-0.180038,-0.080911,0.893109,-0.348193,-0.790246,-0.504254
0.559008,0.895740,0.239668,0.098938,-0.066436,0.992873
0.249571,-0.099502,0.439444,0.609215,0.701333,-0.370122
0.459420,-0.296447,0.519437,-0.789248,-0.339749,-0.511525
0.824874,-0.309528,-0.874880,0.192729,-0.196210,-0.961435
0.080892,-0.109022,0.364008,0.969741,0.046835,-0.239603
0.621695,-0.374210,0.586698,0.629946,-0.106819,0.769258
0.214004,0.185337,-0.939814,-0.084577,-0.012020,0.996344
0.135579,0.595145,0.749982,-0.517678,-0.828554,-0.213325
-0.330310,0.429152,0.880170,0.752794,0.613368,0.238918
-0.174793,-0.772772,0.670993,0.328362,-0.010170,0.944497
0.106370,0.301510,0.933902,-0.427026,-0.881816,-0.200124
-0.185150,0.368309,0.801021,0.143155,-0.216218,0.965793
0.415094,-0.473238,0.625005,0.914430,0.121164,-0.386183
0.418960,-0.342539,0.393105,0.426990,-0.650520,0.628095
-0.025410,-0.259428,-0.927305,-0.191589,0.398681,0.896854
0.308925,0.825822,-0.971317,-0.200079,0.138242,0.969978
0.034701,0.292047,0.802233,0.278255,-0.640642,0.715648
0.585951,0.911103,-0.953884,-0.141994,0.097559,0.985048
0.260731,-0.128670,0.453817,0.942714,-0.130840,0.306873
0.259396,-0.075454,-0.488778,0.973873,0.062351,0.218368
-0.289053,0.208940,0.792656,0.385236,0.457681,0.801325
0.518060,-0.182389,0.798711,-0.193629,-0.715658,0.671075
-0.507526,0.730969,0.744421,-0.078070,0.573500,-0.815477
-0.217029,-0.216289,0.404052,0.136527,0.781751,0.608462
0.635656,-0.333409,-0.887946,0.165162,-0.106740,-0.980473
0.211382,0.078403,0.899372,0.818153,0.573817,-0.036886
-0.157230,0.207048,-0.964975,-0.109008,0.182081,0.977222
0.823631,-0.027916,0.620049,0.315652,-0.206749,0.926077
-0.079782,-0.278522,0.307264,0.520436,0.588781,0.618452
-0.161143,-0.381335,0.793532,0.960915,-0.223004,-0.164045
-0.283140,0.685880,0.831234,0.616928,0.786658,-0.023856
-0.389130,-0.065435,0.903945,-0.377072,0.589171,-0.714629
-0.240013,0.654929,0.850069,0.932225,0.140220,0.333609
-0.139312,-0.235380,0.427237,-0.144062,-0.904930,-0.400435
-0.037325,-0.484484,0.718925,0.410397,0.671530,-0.616946
-0.267667,-0.226084,0.703436,-0.480294,0.696340,0.533318
0.143714,-0.351165,0.731705,-0.042168,0.427258,0.903146
0.201022,-0.856104,0.623125,-0.081960,0.405438,0.910441
0.316083,0.847477,0.754364,-0.043298,-0.678413,0.733404
-0.486539,0.599155,0.591861,-0.201015,-0.691873,0.693473
-0.002602,0.840798,0.711372,0.839259,-0.059611,-0.540455
-0.396378,0.838569,0.855662,0.047878,-0.998851,0.002188
0.114149,0.038102,0.312554,0.804593,-0.310390,-0.506249
-0.690652,-0.155779,0.759017,-0.751277,-0.515781,-0.411768
-0.142827,-0.144645,0.738127,0.406646,0.135856,0.903428
-0.657042,0.660552,0.710033,-0.836330,0.503306,-0.217338
-0.027453,-0.704750,0.579161,-0.108613,-0.396979,0.911379
-0.139980,-0.122269,-0.948945,0.157596,-0.159008,-0.974618
-0.173680,-0.217845,0.914605,0.824701,-0.563430,0.049142
0.362409,0.765369,0.709412,-0.602249,-0.058129,-0.796189
0.232366,0.531798,0.603063,-0.324590,0.944669,0.047354
-0.618229,0.520998,0.578746,-0.424870,-0.410396,-0.806883
-0.646817,0.087420,0.829577,-0.121361,-0.369123,0.921423
0.244637,0.797544,0.726064,0.162657,0.531021,-0.831601
0.166701,0.111468,0.884010,0.355836,0.501301,-0.788719
0.135579,0.039328,0.876425,0.785751,0.267955,-0.557490
-0.790064,0.428649,0.608831,0.234544,-0.016092,0.971972
0.860799,-0.186952,-0.877636,0.140456,0.083784,-0.986536
-0.476581,-0.236328,0.780482,-0.055012,-0.017126,0.998339
0.182882,0.274346,0.918573,0.576114,0.340307,-0.743158
-0.658909,0.133957,0.799794,0.929429,-0.245211,-0.275742
-0.319152,0.719781,0.840301,0.438280,0.734598,0.517954
0.172614,0.215898,-0.939368,-0.245358,0.109298,0.963251
0.434612,-0.286928,-0.896280,-0.059841,0.078461,0.995120
0.517395,0.799603,-0.951080,-0.169085,0.208431,0.963310
-0.494455,-0.238777,0.878545,-0.581052,-0.733449,0.352747
0.110147,-0.045784,0.641179,0.969152,0.087803,0.230294
0.194265,-0.126723,0.866434,-0.401981,-0.660852,0.633787
-0.184618,0.297446,0.913235,0.579829,-0.770619,0.264470
-0.261711,-0.640459,0.761997,0.397852,0.260078,0.879814
0.294252,0.942887,0.512967,0.137329,0.988990,-0.055134
-0.677893,0.173089,0.807937,0.392278,-0.835932,-0.383842
-0.610759,-0.009100,0.680936,-0.544931,-0.520004,-0.657759
-0.614805,0.109409,0.264718,0.362948,0.122027,0.923785
0.798110,-0.161456,-0.881763,0.339136,-0.040612,-0.939860
0.210047,0.617134,0.834740,0.317712,0.828397,-0.461321
-0.446262,0.075288,0.444463,0.196923,0.966866,0.162458
-0.805181,0.360182,0.743035,0.189206,0.163212,-0.968278
-0.304879,0.364802,0.913856,0.008586,-0.590038,0.807330
0.240502,0.570873,0.728661,-0.081084,0.615404,0.784030
0.022208,0.203317,0.969469,0.628845,-0.298977,-0.717751
-0.452573,-0.066383,0.909171,-0.095963,0.444884,-0.890432
0.123308,0.064208,0.543323,0.810867,0.574997,-0.108962
-0.259798,-0.343316,0.272159,0.582943,0.518155,0.625853
-0.574215,-0.332240,0.806949,0.016397,-0.468245,0.883446
-0.123886,0.584515,0.402284,0.158601,-0.001828,0.987341
0.124285,0.849091,0.851854,-0.095646,0.255473,0.962074
-0.079383,0.573381,0.847599,0.364649,-0.435993,-0.822764
0.617961,0.736313,0.493463,-0.702197,0.323844,0.634070
-0.104503,-0.882435,0.745202,0.036372,-0.407554,0.912456
-0.644193,0.300677,0.775462,0.792250,-0.240238,-0.560915
-0.247660,0.012386,0.943893,0.361434,-0.865600,-0.346558
0.141936,-0.206993,0.875756,0.066826,0.832572,0.549870
0.374013,0.057142,0.934492,0.589903,0.207725,-0.780297
-0.577726,-0.063764,0.486436,-0.204333,0.226222,0.952403
-0.368322,0.195748,-0.982982,0.248684,-0.177048,-0.952266
0.112014,-0.619693,0.607349,0.595855,0.441008,-0.671170
-0.051995,-0.202652,0.111743,0.975456,-0.123340,0.182410
0.250284,-0.512093,0.286485,0.257683,-0.226700,-0.939258
-0.063066,-0.806731,0.631889,-0.344533,0.607228,-0.715941
-0.144248,-0.521834,0.627650,0.941821,-0.184799,0.280755
0.449504,0.753957,0.616815,-0.658879,0.139491,0.739203
0.454663,-0.463610,0.644669,-0.096287,-0.076323,0.992423
0.330842,0.338139,-0.943607,-0.190996,0.172262,0.966357
-0.209247,0.253305,0.929297,0.407155,-0.141262,-0.902369
-0.574883,0.834006,0.309559,0.039946,0.994917,0.092440
-0.433901,0.603272,0.729123,-0.356803,0.810635,-0.464287
-0.012382,0.791921,0.707787,-0.779037,-0.017810,0.626725
0.507792,0.405661,0.790234,-0.343509,0.927166,-0.149551
0.177148,-0.268391,0.721746,0.982131,0.186994,0.021274
0.189685,-0.668570,0.822056,0.554407,-0.113782,-0.824431
0.389306,-0.174262,0.873573,0.063076,0.636074,0.769046
-0.621651,-0.257257,0.523835,-0.006054,0.962523,0.271132
0.471425,0.229091,-0.927321,0.268974,-0.145893,-0.952034
0.070401,-0.741600,0.085897,-0.730408,0.278279,0.623751
0.021006,0.092710,-0.939081,0.464841,-0.331574,-0.820964
0.040123,0.384841,-0.966330,-0.115556,0.182068,0.976472
0.819316,-0.311366,-0.873780,0.192729,-0.196210,-0.961435
0.273491,0.435777,-0.950522,-0.278967,0.215205,0.935876
0.169501,0.041499,-0.235764,0.996483,-0.003834,0.083708
0.318172,-0.412952,0.806344,-0.324493,0.939069,-0.113373
0.202799,0.719557,0.824127,-0.568847,0.819033,0.074812
0.551006,0.350495,0.907291,-0.517936,-0.810099,0.274739
0.837367,-0.194076,0.540662,-0.300842,0.274991,-0.913167
0.157008,0.009603,0.778442,-0.148299,-0.907290,-0.393488
0.440835,-0.173592,0.650820,-0.649149,0.719287,-0.247450
-0.313994,0.021124,0.888855,0.611834,0.790866,-0.013774
-0.046394,0.727184,0.688936,0.980090,-0.033863,-0.195643
0.157008,-0.233267,0.620607,0.682617,0.168190,-0.711158
0.085383,-0.271231,0.464621,-0.492000,-0.375991,-0.785218
0.480626,-0.063597,0.837353,-0.070565,0.314108,0.946761
0.265754,0.177544,-0.936452,-0.190740,0.179028,0.965177
0.055908,-0.060814,0.028277,0.476096,-0.878185,-0.046080
0.059509,0.492832,0.886512,0.735163,-0.479224,0.479457
0.026786,-0.013109,0.381680,0.878869,0.477062,-0.000496
-0.108459,-0.747892,0.329748,0.787585,0.329309,0.520832
-0.457154,0.293719,0.785501,0.235673,0.398434,0.886402
0.664333,0.137188,-0.905984,-0.067652,0.202801,0.976880
0.216405,-0.620250,0.826677,0.934471,-0.317971,-0.160184
0.719774,-0.232152,-0.890639,0.174627,-0.070892,-0.982079
0.267621,-0.301788,-0.895834,0.783982,-0.006142,-0.620753
0.397488,-0.344709,0.536678,0.406448,0.008467,0.913635
0.605245,0.864397,-0.944499,-0.243156,0.218406,0.945079
-0.511838,0.390685,0.951080,-0.181733,-0.224669,-0.957338
0.409892,0.147149,0.946778,0.754268,0.237845,-0.611972
-0.036967,0.395251,0.390189,-0.212983,0.410591,-0.886596
-0.160788,-0.263549,0.806137,0.391543,0.335230,-0.856922
0.144069,-0.220186,0.760356,0.392679,0.905460,0.161077
0.307014,-0.581674,0.764244,0.800352,0.315047,0.510081
-0.285363,0.288820,0.899403,0.873058,0.050782,0.484965
-0.124331,-0.749560,0.301703,0.761981,0.156123,0.628498
0.592041,0.159452,0.639777,-0.361463,0.507469,0.782189
0.205247,-0.297670,0.840237,0.919703,-0.127551,0.371319
0.661174,-0.276963,0.542287,0.684142,0.605784,-0.406172
-0.094321,0.045617,0.663790,0.950487,-0.163171,0.264482
-0.100902,-0.143534,0.218634,0.712257,0.370984,0.595870
-0.516552,0.098666,0.667918,0.423618,-0.432664,0.795832
-0.274204,-0.098221,0.850754,0.920811,-0.255368,0.294779
0.088495,0.463161,0.879325,0.405032,-0.397674,0.823289
-0.511439,0.065934,0.876999,0.319186,-0.506986,-0.800678
0.166076,-0.844417,0.620065,0.036844,0.394356,0.918219
0.019228,0.148376,0.459999,0.912171,0.086206,0.400641
0.343113,0.334911,0.891882,0.895508,-0.420556,0.145593
-0.508905,0.354002,0.785039,0.091604,0.450406,0.888112
-0.166123,0.315538,0.907148,0.926957,-0.359965,0.105717
0.412738,0.575328,-0.942475,0.280189,-0.124764,-0.951803
0.203334,0.298394,-0.945901,-0.040208,0.201750,0.978611
0.197242,-0.089428,0.894097,0.355783,-0.611470,-0.706769
0.032300,-0.333797,0.485846,-0.751465,0.162182,-0.639529
0.154872,-0.381838,-0.224657,0.842590,-0.457971,0.283380
-0.632590,0.474128,0.578523,-0.446680,-0.406636,-0.796947
-0.520106,-0.055470,0.674833,0.238545,0.706302,0.666509
0.411891,-0.208329,0.633674,0.862895,-0.216426,0.456697
-0.106904,0.643129,0.623921,-0.681012,-0.522351,0.513197
-0.069869,0.402209,0.538463,0.218564,-0.781777,0.583999
0.316794,0.238220,0.666993,0.697765,-0.060602,-0.713758
0.122996,0.042053,0.878306,0.785751,0.267955,-0.557490
0.386416,-0.070277,0.854849,0.433475,0.832120,0.345940
0.151673,-0.385843,0.768228,0.914383,0.023578,-0.404163
-0.555763,0.190515,0.846516,-0.587371,0.172044,0.790820
-0.555719,0.418185,0.784194,0.576996,0.651802,-0.492169
-0.198444,-0.841077,0.616815,0.639187,0.622262,-0.451918
-0.094142,0.051352,0.345938,0.577243,-0.583452,0.571291
0.428341,-0.367921,0.389089,0.426990,-0.650520,0.628095
-0.458310,-0.002812,0.651887,-0.650415,-0.052517,-0.757761
-0.014471,-0.605056,0.604354,0.202509,-0.517335,0.831477
0.525797,0.038102,-0.912836,0.143409,-0.156815,-0.977161
0.130776,-0.582622,0.408976,0.454115,-0.589923,0.667661
0.162964,0.660385,0.842994,0.658817,0.527747,-0.536137
-0.452261,0.488099,0.777072,0.422533,-0.735092,-0.530194
-0.964566,0.030811,0.689414,0.542630,-0.038375,-0.839095
-0.380238,0.303959,0.905777,0.197874,-0.951708,0.234729
0.317283,0.154722,-0.931878,0.151895,-0.297944,-0.942421
-0.611160,-0.336637,0.889922,-0.255760,0.672274,0.694719
-0.074537,0.458432,0.646868,-0.125055,-0.485482,0.865256
-0.445950,-0.109131,0.689207,0.075587,0.586751,0.806232
0.762410,-0.390298,-0.875628,0.130725,-0.219623,-0.966787
-0.437280,0.541206,0.853272,-0.503755,0.708837,0.493742
-0.361432,-0.044115,0.913012,0.888173,-0.450079,0.092610
-0.213605,0.767819,0.847360,0.266904,-0.841462,-0.469791
-0.083296,0.066658,0.640733,0.938070,-0.238265,0.251505
0.517572,-0.120489,0.809276,-0.004721,-0.592061,0.805879
0.146693,0.214505,0.419923,0.001773,-0.928231,0.371999
-0.006070,0.066882,0.469099,0.980239,-0.196936,0.018642
0.545671,0.218627,0.606154,0.857390,-0.113011,-0.502107
0.382593,-0.016616,0.542208,0.708576,0.676637,-0.200207
0.500767,0.209552,-0.920597,0.273200,-0.153562,-0.949621
0.224809,0.007986,-0.927401,0.481263,-0.221719,-0.848072
0.591731,-0.013612,-0.900184,-0.081408,0.103022,0.991342
-0.299102,0.055358,-0.968210,0.240655,-0.297699,-0.923829
0.101789,0.481477,0.884584,0.196678,-0.637706,0.744748
-0.040747,-0.056360,0.869271,-0.391515,0.516634,-0.761449
-0.467422,-0.184726,0.921362,-0.026391,-0.163362,0.986213
0.341246,-0.366196,-0.898399,0.128515,-0.057337,0.990049
0.032433,-0.077571,0.091235,0.073042,-0.982957,0.168700
-0.629743,0.098442,0.579543,0.510049,-0.184554,-0.840113
0.522907,0.530351,-0.939352,-0.222003,-0.037500,0.974325
0.113837,-0.774835,0.612544,0.218455,0.302650,0.927729
0.291276,0.604774,0.225247,-0.060438,-0.325400,0.943643
0.821050,-0.142141,0.547880,0.032090,-0.240082,0.970222
-0.224543,0.467394,0.876091,0.015885,0.595349,0.803311
0.451995,-0.277129,-0.896949,-0.091060,0.094916,0.991312
0.738313,-0.055806,-0.894559,-0.248940,0.162130,0.954852
-0.187595,-0.085810,0.272924,0.900183,-0.193490,0.390169
-0.006914,0.867350,0.708822,0.839259,-0.059611,-0.540455
-0.320395,0.015002,0.923099,-0.281865,0.943714,0.173078
0.196265,-0.798380,0.826517,-0.663612,-0.115565,-0.739097
-0.753607,0.326281,0.747002,-0.127896,0.243886,-0.961333
-0.112993,0.096886,0.355802,-0.673946,0.476206,-0.564822
0.349826,0.846975,0.743322,0.014391,-0.576398,0.817042
-0.447062,0.642460,0.776753,-0.530816,-0.438184,0.725417
0.138336,-0.693284,0.385202,-0.412536,0.698697,-0.584497
0.108236,0.878929,0.299328,-0.210497,0.665336,0.716253
-0.111615,-0.013222,0.735465,0.287514,-0.957602,0.018261
-0.076493,-0.786747,0.638661,0.404299,-0.495696,0.768653
-0.172836,-0.080632,0.713794,-0.778500,0.562357,-0.278733
-0.010116,0.870798,0.748516,0.075173,-0.918694,0.387749
0.652062,0.140748,0.661624,-0.703943,0.645088,-0.297196
0.604268,-0.030923,0.819123,0.598832,0.254936,0.759215
-0.385662,0.523505,0.618631,-0.772144,-0.621591,0.131979
-0.215382,-0.063376,0.747114,-0.568096,0.296443,-0.767716
-0.403756,-0.196359,0.417262,-0.641577,0.337105,0.689013
0.206712,-0.156781,-0.373951,-0.102779,0.994033,-0.036523
-0.464399,-0.264939,0.903228,-0.088845,-0.935509,0.341950
0.080892,0.543934,0.610122,0.122105,0.881595,0.455939
0.670734,-0.181220,-0.890782,0.189766,-0.142529,-0.971429
-0.588396,0.051964,0.579176,-0.610217,0.136291,0.780423
0.388462,0.545881,0.639936,0.903998,0.122358,0.409653
0.370412,0.037436,0.820749,0.960017,0.088436,0.265605
-0.556430,0.653315,0.647505,-0.576125,0.399336,-0.713169
-0.156652,0.139858,-0.966840,-0.124770,0.144942,0.981542
-0.491698,0.263770,0.899913,0.457674,0.881876,0.113264
0.131443,0.428540,0.881413,0.761564,-0.065074,-0.644814
0.612004,-0.348994,0.474532,0.021341,-0.708034,0.705856
-0.160120,0.331738,0.948610,-0.605078,-0.414191,0.679946
-0.294877,-0.498177,0.660572,-0.571623,0.557909,-0.601651
-0.589685,0.805671,0.313383,0.993925,0.051897,-0.097056
0.643170,0.914943,-0.946953,0.372549,-0.198983,-0.906429
0.055506,-0.032091,0.310180,0.353105,0.934536,0.044274
0.486851,0.453866,0.822757,0.037050,-0.521769,0.852282
-0.389532,0.023574,0.633658,-0.720210,-0.679613,-0.139369
-0.438924,-0.276742,0.477815,-0.627414,0.121066,-0.769217
0.351916,0.606779,-0.953104,0.317220,-0.212325,-0.924278
-0.315017,-0.133736,0.667408,-0.340678,-0.645196,-0.683857
-0.133001,-0.228201,0.302005,0.484870,0.770358,0.414065
-0.482274,0.707757,0.661321,0.011344,-0.838695,0.544484
-0.231566,-0.205879,-0.945662,0.200271,-0.235648,-0.950979
0.504500,0.653427,0.237947,0.171725,-0.258423,0.950646
0.302656,0.234880,0.504187,0.359326,0.847568,-0.390529
0.203068,-0.084305,-0.092637,-0.748740,-0.643261,-0.160010
-0.109705,-0.377550,0.876138,-0.757466,0.482232,0.440110
0.417226,0.645188,0.715643,-0.613529,-0.258310,-0.746230
-0.476760,0.728744,0.474070,0.408360,0.386711,-0.826860
0.483071,-0.337972,-0.891611,-0.107075,0.150311,0.982823
-0.635168,0.221521,0.723196,-0.297603,-0.885234,0.357482
0.886228,-0.250968,-0.872123,-0.199318,0.000024,0.979935
-0.793532,-0.160233,0.489511,0.779940,-0.617516,0.101821
-0.423408,-0.065992,0.703867,0.294040,0.549103,0.782321
0.257529,0.715605,0.846468,0.538909,0.371574,0.755983
0.180925,-0.141197,0.856459,0.067139,0.724363,0.686141
0.151271,-0.171646,0.527834,0.749782,-0.560967,0.350918
-0.300258,-0.001531,0.460047,0.958833,0.028874,0.282498
0.104679,0.255252,0.870816,0.798078,0.572580,-0.187678
0.401933,0.028194,0.581280,0.920555,0.079860,-0.382363
-0.583018,-0.155280,0.812526,0.677218,0.487406,0.551190
0.191106,0.896851,0.644956,-0.204716,0.321552,0.924498
-0.290253,0.592417,0.813722,-0.504881,0.422847,0.752527
-0.463778,0.197304,-0.990582,-0.166072,0.239874,0.956494
0.194976,0.046786,-0.933599,-0.268437,0.230132,0.935404
-0.919306,-0.002757,0.701652,-0.786855,0.550739,0.278472
0.325553,-0.178937,0.447698,0.591364,0.768764,-0.243494
-0.243481,0.161235,-0.967907,0.368821,-0.185877,-0.910726
-0.211960,0.238832,0.878624,-0.037817,-0.990043,0.135589
-0.395398,0.431880,0.925903,-0.452903,-0.146586,-0.879427
