-0.517750,-0.011614,0.501586,-0.134913,-0.227632,-0.964356
0.777033,0.270401,-0.993852,0.016067,0.170265,0.985267
0.285493,-0.610181,0.502453,0.747838,-0.211704,-0.629221
-0.651421,-0.284892,0.337873,-0.167202,-0.403354,0.899638
-0.005959,-0.950568,-0.128431,-0.692139,-0.704535,0.156764
0.330705,0.192033,-0.151518,0.316398,-0.048867,-0.947367
-0.106057,-0.001213,0.520019,0.086496,0.118905,0.989131
-0.213262,-0.410778,0.642108,-0.128981,0.868235,0.479094
0.102420,0.373005,0.577077,-0.169900,0.451013,0.876197
0.011164,0.340586,0.618313,0.556627,-0.393297,0.731768
0.439474,-0.580893,0.779037,0.855375,-0.280257,-0.435648
0.445573,-0.366897,0.899288,0.998451,0.014351,0.053754
-0.134986,-0.738690,-0.978601,-0.099055,0.196036,0.975581
-0.332327,0.452989,0.299090,0.335644,-0.812095,0.477332
-0.206715,-0.203645,0.194078,-0.159164,0.383340,0.909790
-0.178179,-0.193900,0.438665,-0.155505,0.956482,0.246903
-0.484685,0.008280,0.503513,0.271550,0.076846,0.959352
0.106727,-0.186581,-0.087320,-0.392053,-0.356167,0.848198
-0.278390,-0.235559,0.685522,0.713110,0.642094,0.281405
0.075561,0.199556,0.732371,-0.108308,0.542727,-0.832897
-0.329025,-0.109171,0.695503,0.906274,-0.417642,0.065137
-0.901415,-0.201577,0.436851,-0.523393,-0.005936,-0.852071
0.123009,0.029034,0.592145,-0.128803,-0.493006,0.860439
0.128941,0.785042,0.362946,-0.406319,0.152444,-0.900925
-0.089607,0.142040,0.516939,0.370357,0.411643,-0.832698
-0.291651,0.228893,0.533400,-0.324299,-0.131259,0.936804
0.403664,-0.246568,0.325132,-0.671686,0.687796,-0.275272
0.143879,-0.236265,-0.986483,0.105279,-0.236265,-0.965969
-0.614269,-0.157243,0.501198,-0.150391,0.427468,-0.891434
0.518757,0.069176,0.588187,0.420551,0.585402,0.693139
-0.376473,-0.126088,0.677697,0.919932,-0.352760,-0.171131
-0.118256,-0.226017,0.481441,0.330377,-0.041166,-0.942951
0.153950,-0.007725,0.507415,0.306615,0.033117,0.951257
0.696069,0.409209,0.525483,0.941591,-0.292791,-0.166374
-0.350901,-0.045245,0.680595,0.998242,-0.046809,0.036358
0.876236,-0.079177,0.413935,0.839093,0.370261,-0.398534
0.251644,-0.572865,0.476924,0.944810,0.253686,0.207310
-0.077241,-0.183800,0.484407,0.420542,0.387918,-0.820161
0.052510,0.351546,0.387494,0.471681,0.440467,-0.763875
0.475116,-0.369270,0.855520,0.854284,0.436788,-0.281806
0.790740,0.765854,0.278192,-0.300649,-0.818135,-0.490168
-0.867060,-0.365735,-0.170465,0.369653,0.927532,0.055139
-0.259085,-0.301960,0.541213,-0.319056,0.792587,0.519624
-0.347210,-0.307212,0.210789,0.977849,0.205524,-0.039635
0.534985,0.532719,0.480859,0.020466,-0.028319,0.999389
0.090556,0.795444,0.380387,0.464867,0.186760,0.865459
0.015303,-0.082308,-0.207093,0.127686,0.081066,0.988496
0.494363,-0.432136,0.744553,0.812727,0.511894,-0.278279
-0.626074,0.000504,0.326295,-0.338180,0.109470,0.934693
0.462583,-0.167947,0.594986,0.890648,-0.420154,-0.173829
0.307988,-0.613109,-0.972623,-0.003072,0.120580,0.992699
-0.080544,0.360986,0.515901,-0.255557,-0.774455,-0.578715
0.316044,0.193444,0.386364,0.012267,-0.207706,0.978114
0.604587,0.411179,0.723987,0.845740,0.286314,-0.450275
0.038354,-0.246266,-0.987338,-0.169757,0.178741,0.969141
0.328072,0.380578,0.462391,0.294218,-0.248090,0.922977
0.504995,-0.313523,0.750405,0.844834,0.523092,0.112384
-0.368694,-0.237932,0.703671,-0.248986,0.633501,0.732586
-0.700211,-0.398909,-0.171743,0.096200,0.972089,0.213983
-0.160667,0.125983,0.244884,0.029589,0.128835,0.991224
0.384024,-0.253484,-0.524399,0.937418,0.344855,-0.048190
-0.100685,-0.215412,0.479365,0.314784,0.241194,0.918007
0.795440,0.062664,0.479023,-0.247929,0.203856,0.947087
-0.461630,-0.519393,0.384322,-0.308604,0.079295,0.947880
0.298532,-0.280399,0.625670,-0.471884,0.450185,-0.758063
-0.095426,-0.463846,0.436714,0.469504,0.794966,-0.384181
-0.297750,-0.497427,0.583476,0.933808,-0.186526,-0.305304
0.303566,-0.330135,-0.153286,-0.290964,0.000824,0.956734
-0.217568,-0.099324,0.723576,0.165673,-0.260800,0.951071
0.238717,0.247221,0.465928,0.012142,0.403186,0.915037
0.011440,-0.675722,0.630279,-0.657566,0.491162,0.571286
0.402714,0.478640,0.128145,0.770743,-0.317414,-0.552453
0.334677,-0.681377,0.796512,0.910521,0.192005,0.366176
-0.397288,-0.795549,0.374250,0.860403,0.115052,0.496457
0.210240,-0.324884,0.088506,-0.116122,0.348968,0.929912
-0.074670,0.332052,0.519757,0.293134,0.689775,0.662030
0.681074,-0.697083,0.537848,0.796160,0.591768,0.126253
-0.066948,-0.760707,-0.074248,0.972967,-0.087479,0.213733
-0.034437,0.710613,0.412361,0.006713,-0.307877,0.951402
-0.283256,-0.125530,0.690553,0.866100,0.053820,-0.496966
-0.016870,-0.207584,0.219275,-0.485389,0.571017,-0.662070
0.120380,0.102200,0.726713,-0.267205,0.270697,-0.924838
0.261940,0.297969,0.464650,0.474822,-0.499659,-0.724489
-0.221991,-0.203747,0.435072,0.413070,-0.207144,0.886828
-0.164526,-0.200465,0.489962,-0.300881,-0.659136,0.689210
-0.037347,0.528025,0.384003,-0.216230,-0.015037,0.976227
0.206377,-0.513987,-0.974506,-0.092858,0.033709,0.995109
-0.022969,0.413604,0.625431,-0.091553,-0.280316,0.955532
0.034383,0.282214,0.747325,0.376511,-0.351712,0.857052
0.493469,-0.078370,0.673842,0.939696,-0.319768,0.121327
0.029404,-0.157089,-0.993646,-0.151047,0.243828,0.957984
0.464318,-0.778733,-0.966966,-0.149960,0.109537,0.982606
0.408086,-0.388104,-0.054673,0.755139,-0.518341,-0.401358
0.524522,0.252020,0.310520,-0.334069,-0.280324,0.899898
-0.322478,0.298829,0.078788,-0.706994,0.461123,-0.536213
-0.385144,-0.592762,-0.171515,-0.312573,-0.466503,0.827449
0.096434,0.273430,0.609450,-0.446834,0.036253,-0.893882
-0.388279,0.116793,0.232439,-0.817902,0.294623,-0.494200
0.497662,-0.790648,0.559248,-0.255389,-0.541293,0.801110
0.236368,-0.311856,0.622602,0.421889,-0.557730,0.714805
-0.411890,0.019541,0.076906,-0.295680,0.402306,0.866443
-0.254498,-0.445465,0.587012,0.131831,-0.011622,0.991204
-0.795607,-0.500457,0.147309,0.391214,0.176166,0.903281
0.246439,-0.308019,0.277690,0.711856,-0.689082,-0.135746
-0.022689,0.087455,-0.211964,0.124608,0.274284,0.953541
-0.078809,-0.006819,-0.071282,0.023007,-0.330249,0.943613
0.405286,-0.075642,-0.028289,-0.705639,0.656762,0.265966
0.347264,-0.231469,0.822737,0.976878,0.112732,0.181663
-0.122173,-0.161484,0.247382,0.428974,-0.248625,0.868428
0.555855,0.343163,-0.126560,-0.455365,-0.236009,0.858454
-0.454916,-0.553374,-0.158419,0.806612,0.578526,0.121185
0.405064,-0.152395,0.840280,-0.317051,0.554919,-0.769119
-0.564303,-0.240509,0.426905,0.337491,0.102886,0.935689
-0.275648,0.281964,0.177241,0.261763,-0.450220,-0.853687
0.310058,-0.302666,0.071339,-0.141475,-0.456129,-0.878596
-0.153895,0.210361,0.594997,-0.399820,-0.758735,0.514263
0.402994,-0.226520,0.676739,0.991451,-0.087527,-0.096769
0.518703,-0.143760,-0.987384,0.001178,0.319784,0.947490
0.494473,0.555340,0.485844,0.049151,-0.036881,0.998110
0.587020,-0.001869,0.586077,0.963183,-0.014657,0.268446
-0.401540,0.555997,0.542765,-0.681126,0.036397,-0.731261
-0.007807,0.445465,0.499738,0.091479,0.806755,0.583762
0.263671,0.105735,0.803379,-0.565710,-0.545280,-0.618581
-0.332996,0.127700,0.076883,0.433955,0.246107,-0.866668
-0.101358,-0.925068,0.346668,0.857496,0.406789,-0.314997
-0.420285,-0.396437,0.583465,0.778503,0.199502,-0.595090
-0.134480,-0.411080,0.438323,0.745924,0.314413,-0.587146
-0.111262,-0.315946,-0.198560,-0.484504,0.194557,0.852879
0.125697,0.096596,0.723131,0.389952,-0.148598,0.908766
0.166821,0.246919,-0.072970,0.259611,0.607029,0.751078
0.440314,-0.320846,0.654404,0.940831,0.212350,0.264091
0.442103,-0.703040,-0.969737,-0.141022,0.080920,0.986694
-0.135488,0.243840,0.029339,0.203717,0.813358,0.544929
-0.000813,-0.666837,0.454566,0.117521,0.279613,0.952893
-0.644874,-0.285801,0.437205,0.057939,-0.070116,0.995855
0.352524,-0.294637,-0.188671,-0.588380,-0.784778,0.194761
0.041264,-0.417645,0.238770,0.667819,0.078027,-0.740222
-0.074444,0.358311,0.632617,-0.119030,0.693201,-0.710848
-0.086752,-0.128763,0.475236,-0.534012,0.052677,0.843834
-0.325333,-0.858060,0.411494,0.034072,0.952471,0.302716
0.477579,0.429005,0.699735,0.510182,0.784663,-0.352164
0.366850,0.409918,0.118575,0.875734,-0.211901,-0.433806
0.123235,0.290446,0.597073,-0.294869,-0.927465,-0.229916
-0.194237,-0.139772,0.689401,-0.118339,-0.990687,0.067343
0.314197,-0.772067,-0.969578,0.124960,0.155425,0.979912
0.593567,0.199605,0.683743,0.948271,0.095605,-0.302722
-0.443111,-0.768988,0.368216,0.497163,0.810909,0.308636
-0.335517,0.491972,0.294036,0.779651,-0.541898,-0.313833
0.548075,-0.689307,-0.966829,-0.061395,0.075389,0.995262
0.017878,0.239396,0.738279,0.081959,0.354880,-0.931313
-0.080991,-0.238891,-0.199211,-0.366756,0.265712,0.891565
0.112993,-0.848417,0.422148,-0.625088,-0.110131,0.772746
-0.158539,-0.304031,0.354870,-0.277574,0.530566,0.800907
-0.474109,0.204404,0.218203,0.409958,0.589535,-0.695976
-0.253211,-0.230458,0.335204,-0.375990,0.289706,0.880172
-0.496266,-0.425118,0.574065,0.926729,-0.056422,-0.371471
-0.186068,-0.108465,0.330961,0.061272,0.269144,0.961149
0.110811,0.302262,0.606826,0.817460,0.224065,0.530616
-0.235921,0.170773,-0.198138,-0.423692,-0.069672,-0.903123
-0.554007,-0.311554,0.605868,-0.595733,-0.222284,-0.771811
-0.734116,-0.302820,0.426311,0.095628,0.772230,0.628105
0.036732,-0.660676,0.624393,-0.617332,0.282789,0.734120
0.690864,-0.686278,0.538761,0.836101,0.402933,-0.372264
0.402656,-0.448446,-0.161442,0.011095,0.147633,0.988980
0.155855,-0.940820,0.498551,-0.121505,0.579545,0.805831
-0.639335,-0.438953,0.391623,-0.535791,0.528438,-0.658545
0.154735,-0.308321,0.549016,0.401687,-0.806952,-0.432985
0.759910,0.079630,0.849566,0.883006,-0.418528,-0.212449
0.324213,-0.618817,0.672165,0.119676,0.544773,0.830000
0.451392,0.280550,0.462871,0.104976,-0.103325,0.989093
0.472654,-0.026864,0.898114,0.608470,0.773257,-0.178429
0.512996,0.102101,0.446285,-0.736806,-0.443677,0.510165
-0.490559,-0.018432,0.077065,0.859006,0.250573,-0.446456
-0.005006,0.286710,0.617948,0.018217,-0.281703,0.959329
0.532858,0.186124,0.524342,0.775592,0.624368,0.092846
0.051560,-0.153708,0.086145,0.184755,0.098485,-0.977838
-0.218576,-0.599678,-0.987087,-0.026216,0.085154,0.996023
-0.653545,0.001919,0.332923,0.095573,0.069909,-0.992964
0.021402,0.412997,0.199496,-0.236735,-0.263705,0.935102
-0.248621,0.409311,0.130108,-0.710894,0.672438,0.206050
0.656902,0.124266,0.467867,0.153089,-0.239612,-0.958723
0.003217,-0.067564,0.753645,0.985969,0.159808,-0.048235
0.470247,-0.304687,0.648986,0.811476,0.096850,0.576304
-0.043057,0.274996,0.745774,-0.453911,0.573351,-0.682080
-0.080096,-0.801001,0.378813,0.950213,0.265486,-0.163135
-0.273800,0.214047,0.244063,0.158176,0.223841,0.961704
0.140635,0.296151,0.589784,-0.103150,0.850628,0.515549
0.460176,-0.285095,0.899357,0.996066,0.030397,-0.083232
-0.149531,-0.291608,0.220496,0.147319,0.054081,0.987609
-0.067396,-0.659465,0.464479,-0.074152,0.188685,0.979234
0.581423,-0.101444,0.833448,0.285762,-0.737002,0.612510
0.167883,-0.108715,-0.073654,-0.710622,-0.226440,0.666139
0.492796,-0.231673,0.945771,0.849486,-0.516162,0.109317
-0.132018,0.407847,0.379577,0.586152,-0.045881,-0.808901
0.406013,0.325491,0.059293,0.571021,0.672392,-0.470981
-0.040034,-0.671179,0.394600,-0.475559,0.526346,0.704843
0.351236,-0.492176,0.240892,0.088719,-0.000339,0.996057
-0.051393,0.395627,0.502726,-0.111059,0.649535,0.752177
0.526144,0.125024,0.471802,-0.156421,0.156387,0.975231
0.012280,0.016259,0.586202,0.147357,-0.338593,0.929323
-0.013008,0.036911,-0.210857,0.047883,0.005719,0.998837
0.195019,0.149162,0.720108,0.241322,-0.237988,0.940811
-0.430017,0.480760,0.262143,0.949824,0.184493,-0.252581
0.147516,0.386942,0.581947,-0.044558,0.423167,0.904956
0.334957,0.048777,-0.995209,0.070438,0.046321,0.996440
-0.507177,0.033678,0.328588,-0.026842,-0.022730,0.999381
0.012953,0.216269,0.517099,-0.570983,0.125103,-0.811374
0.478135,-0.345638,0.529042,0.899772,0.436329,0.005217
-0.411665,-0.113008,0.496224,-0.219680,0.500070,-0.837658
-0.120158,-0.679057,0.462528,-0.092741,0.135325,0.986451
-0.369814,0.290396,0.414562,-0.274470,0.892585,-0.357712
0.440983,-0.285903,-0.319942,0.774710,0.631466,0.032794
0.390741,0.008483,0.878186,-0.650380,-0.718373,0.246871
-0.592501,-0.011765,0.328292,-0.014378,-0.044695,0.998897
-0.142089,-0.237226,0.478749,0.343940,0.142900,-0.928054
0.494698,0.362351,0.463897,0.122463,-0.270468,0.954908
-0.119878,-0.738338,-0.144594,-0.484490,0.027339,0.874369
-0.410548,0.222177,0.441380,0.331981,0.112426,-0.936562
-0.145166,0.430114,0.186458,-0.169529,-0.295976,0.940031
0.290643,0.193444,-0.156184,0.536287,0.799648,0.270109
0.758680,-0.031712,0.852372,-0.617206,0.201221,0.760636
0.728689,0.278682,0.398547,-0.756839,0.374550,-0.535637
0.037405,-0.108262,0.752972,0.862392,0.137429,-0.487230
-0.298026,-0.846497,0.206123,0.873047,0.353357,-0.336047
0.105330,0.377548,-0.203728,0.492015,0.175357,-0.852743
-0.123737,-0.926634,0.309550,-0.497426,-0.863742,0.080727
-0.091175,-0.576803,0.418532,-0.327441,-0.175911,0.928352
0.552778,0.071297,0.577704,0.771433,0.410634,0.486077
0.040649,0.777266,0.279322,0.815327,-0.135232,-0.562987
-0.150149,-0.410725,0.657507,0.448984,0.244786,0.859356
-0.533698,-0.027671,0.510643,0.095075,-0.027725,0.995084
0.454244,0.416985,0.136039,-0.733475,0.084983,0.674383
-0.542594,-0.198597,0.433760,-0.225460,0.292408,-0.929336
-0.448650,-0.402799,0.599708,0.164287,-0.139648,0.976477
-0.341616,-0.573472,0.586738,-0.220722,-0.167574,-0.960833
-0.578178,0.160421,0.285949,-0.606245,0.253436,0.753815
-0.070585,-0.027369,0.578628,-0.563717,0.707817,-0.425696
-0.119485,-0.422341,0.650663,0.540579,0.014731,0.841164
-0.019165,-0.093872,0.078925,-0.157340,0.219767,0.962781
0.100125,0.153656,0.831873,0.621998,0.060047,0.780713
-0.556415,-0.368006,0.391497,0.014570,-0.604425,0.796529
0.388559,-0.263534,-0.321436,0.806578,0.591126,-0.001182
0.228032,0.141636,0.794470,0.613687,0.649279,0.449250
0.397008,-0.962989,0.730386,0.733818,0.022705,-0.678966
0.396950,0.176530,-0.996122,0.008883,0.088162,0.996067
0.159042,0.323873,0.584514,0.396673,0.327773,0.857447
0.321136,-0.469200,0.727397,-0.559691,0.808108,-0.183597
0.191327,0.035497,0.587993,-0.051220,-0.404502,0.913102
0.363602,0.454049,0.473274,-0.115206,-0.482287,0.868405
-0.024424,0.372296,0.384368,-0.276699,0.231566,-0.932639
0.055085,0.177036,0.726747,-0.099522,0.389345,-0.915699
0.580754,-0.423402,-0.974289,-0.016149,0.043307,0.998931
0.583605,0.397193,-0.116419,-0.517866,-0.327038,0.790481
0.320969,-0.019643,-0.842596,0.905230,0.421544,0.053470
0.235248,0.432842,0.398946,0.030508,-0.299638,0.953565
-0.327795,0.074884,0.323010,-0.284272,-0.631799,-0.721124
-0.130676,0.635678,0.399653,0.914000,0.348927,-0.207011
0.623667,0.652493,0.140146,0.097472,-0.957183,-0.272580
-0.689413,-0.139719,0.323843,-0.111229,0.394566,0.912110
-0.032593,0.401181,0.625898,0.164080,-0.113263,0.979923
0.275480,-0.394265,0.606438,-0.560888,0.518358,-0.645530
0.039027,0.214854,0.611948,-0.089537,-0.984498,-0.150820
-0.306028,-0.086651,0.745021,0.565247,-0.095136,0.819418
-0.014183,0.159968,0.514339,-0.666180,0.509423,-0.544695
0.432647,0.008079,0.867429,-0.516971,-0.805334,0.290136
-0.573534,0.150170,0.294846,0.767390,-0.225821,-0.600098
-0.081213,-0.137346,0.773253,0.552151,0.352379,0.755618
0.399190,-0.389368,0.859695,0.631112,0.769948,-0.094224
-0.482110,-0.754445,-0.032293,0.504054,0.458997,0.731609
-0.025261,0.076548,-0.210538,-0.115502,-0.258083,-0.959194
-0.655171,-0.420825,-0.167522,-0.082492,0.615842,0.783539
-0.247166,0.495809,0.295268,0.115245,-0.633049,0.765485
0.006407,-0.678095,0.635047,0.504039,-0.606541,-0.614860
0.264457,-0.141285,0.568807,0.254987,-0.504750,0.824748
-0.480598,-0.737629,0.382474,0.787311,0.301882,0.537596
0.152048,0.159613,0.352588,0.951419,-0.115391,-0.285458
-0.164137,-0.406888,0.658066,-0.460270,-0.198563,-0.865289
0.459001,0.307261,0.325611,0.934961,-0.261780,-0.239416
-0.448537,-0.161937,0.489506,-0.349901,-0.490489,0.798116
0.395553,-0.465412,0.780428,-0.726344,0.623921,0.288352
0.245992,-0.320695,0.613864,0.295265,-0.702220,0.647847
-0.161674,0.281964,0.526031,-0.137105,0.312139,-0.940091
-0.379776,0.411835,0.282002,0.925167,0.001591,-0.379558
0.629766,0.190769,0.107077,-0.504799,0.128611,0.853602
0.448370,-0.403505,0.927292,0.997166,0.030564,-0.068740
0.517750,-0.512119,0.804508,0.266899,-0.325154,-0.907216
0.308716,-0.304737,0.860117,0.541222,0.485225,0.686757
-0.444511,-0.479903,0.596526,0.506221,-0.075727,-0.859073
0.121275,0.732378,0.258789,-0.818525,-0.341415,-0.462010
0.477466,0.298172,-0.143328,-0.622354,0.273158,0.733526
0.737360,0.030649,-0.987966,-0.039805,0.113634,0.992725
-0.005625,0.339930,0.620845,0.086926,-0.440272,0.893647
-0.318339,-0.084074,0.704983,0.751282,0.658835,0.038879
-0.112604,0.160775,0.519951,0.385957,0.483129,-0.785890
-0.015303,-0.695366,0.635994,0.159065,0.343248,0.925678
0.255502,0.087760,-0.209009,0.367189,0.041398,-0.929225
-0.213822,-0.252072,0.676842,0.836045,0.384003,0.391881
0.038300,-0.110280,0.086579,-0.251229,0.108976,0.961773
-0.099565,-0.616998,0.617685,-0.158830,0.766836,0.621880
-0.333276,-0.297568,0.194089,0.821672,-0.058848,-0.566915
-0.209065,-0.294233,0.426106,-0.076745,0.081684,0.993699
0.154957,0.378306,0.577898,-0.078332,0.404821,0.911035
0.282362,-0.098264,-0.962083,-0.524782,0.570400,0.631860
0.514731,0.701222,0.468163,-0.215132,0.596694,0.773094
0.071982,-0.083822,-0.213994,0.009936,0.136617,0.990574
-0.532018,-0.480005,-0.178861,0.729043,0.590527,0.346084
-0.083173,0.032871,0.420939,0.172459,-0.038605,0.984260
0.218910,-0.364777,0.725401,0.287516,-0.074255,0.954893
0.604420,-0.435215,0.575069,0.257442,0.277956,0.925453
0.578513,0.067663,0.702005,0.961904,-0.070567,-0.264121
0.104824,0.127247,0.831474,0.649519,0.080491,0.756073
0.480543,0.090436,0.103769,0.658126,-0.350764,-0.666209
0.174484,0.123055,-0.219207,0.365106,0.025572,-0.930615
-0.579859,-0.719603,-0.187370,0.415804,-0.007861,-0.909420
0.567380,0.267824,-0.995597,-0.097303,0.187465,0.977440
0.228534,-0.202132,0.005213,-0.282046,-0.945822,0.160843
-0.449545,-0.536611,0.389387,0.449898,-0.169137,-0.876918
0.030520,-0.596750,0.454863,0.476731,-0.033817,0.878398
-0.422914,-0.790396,0.294048,-0.373055,-0.341659,0.862612
0.300601,-0.321148,-0.080647,-0.665739,0.687963,0.288963
0.310898,0.152694,0.610180,0.058967,0.993577,0.096576
0.411218,-0.067564,0.446114,0.628602,0.343442,-0.697787
-0.084402,0.581901,0.187633,-0.188860,0.474131,0.859960
-0.281354,-0.686225,0.576312,-0.279651,0.066584,-0.957790
0.399525,-0.734803,-0.971072,-0.043914,0.094218,0.994583
0.034048,0.086195,0.726599,-0.509915,0.026986,-0.859801
-0.377702,-0.243538,0.708770,-0.248986,0.633501,0.732586
-0.093189,0.324480,0.535875,0.060683,0.847559,0.527220
0.502365,0.349928,-0.132343,0.808643,0.075146,-0.583481
0.241853,-0.587559,0.608651,-0.744204,0.263904,-0.613608
0.156023,-0.000858,0.593594,0.011345,-0.409821,0.912095
0.405511,-0.060242,0.633678,-0.291285,-0.072922,0.953853
0.214713,-0.493689,-0.158511,-0.657875,-0.275021,0.701116
-0.268039,-0.224097,0.485684,-0.136879,0.462044,-0.876230
-0.188923,0.563825,0.310599,-0.299599,0.888446,0.347712
0.006687,-0.669210,-0.977460,-0.150817,0.149302,0.977222
-0.391636,0.242173,0.236295,-0.581955,-0.104335,0.806500
0.346148,-0.540599,0.571647,-0.245436,-0.226092,0.942679
-0.445351,0.055998,0.335672,0.894459,-0.028765,-0.446223
0.631108,0.261663,-0.995620,-0.054910,0.189437,0.980356
0.502139,-0.016564,0.536114,0.897142,-0.285340,-0.337221
0.324828,0.086346,0.084195,-0.379559,0.234021,0.895081
-0.527879,-0.069783,0.325178,-0.375524,0.129671,0.917697
-0.139572,-0.538023,-0.985228,-0.154194,0.076736,0.985056
0.411945,0.390274,0.138138,-0.668262,0.235251,0.705750
0.282136,-0.754546,0.701754,0.822009,0.309176,0.478238
0.505384,-0.021816,0.433030,0.833737,-0.541581,0.107574
0.571799,0.106745,0.578742,-0.035926,0.786344,0.616744
0.075226,0.493636,0.332375,0.046672,-0.232452,0.971487
-0.573254,-0.557362,0.382668,0.042998,0.368776,0.928523
-0.070193,-0.507524,0.634716,0.423009,-0.641816,0.639637
-0.047643,0.035802,0.591472,-0.724662,0.600479,-0.338066
0.595691,-0.783529,0.497331,-0.288710,-0.122290,0.949574
0.420114,-0.046659,0.119750,0.105285,0.565366,0.818093
0.070193,0.178903,0.376406,0.382115,0.894476,-0.232166
0.201565,-0.191274,0.700100,0.928000,0.369256,0.049653
0.776920,-0.648860,0.478373,-0.713029,0.671237,0.202557
0.391971,-0.273936,-0.546027,0.942129,0.335136,-0.008757
0.374571,-0.542365,0.669484,-0.426522,-0.264355,-0.864983
0.419106,-0.135630,0.424327,-0.119911,0.523545,0.843518
-0.228145,-0.000757,0.194465,-0.324064,-0.689174,-0.648091
-0.648791,-0.070594,0.509399,0.127326,0.401493,-0.906968
0.709329,0.082456,-0.986642,-0.041593,0.073600,0.996420
0.297132,-0.441730,-0.038795,-0.743672,0.037167,0.667510
-0.335964,0.248383,0.079427,0.861967,-0.172709,-0.476638
0.144497,-0.178046,0.744668,0.227570,-0.426309,0.875484
0.033095,0.032670,0.522438,0.660451,0.095621,-0.744756
0.363940,-0.677087,0.724374,-0.578200,0.471142,0.666115
0.517808,0.187789,-0.997992,-0.052716,0.095918,0.993992
0.517470,-0.360382,0.758322,0.682366,0.445466,0.579601
0.563798,-0.214857,0.959289,0.769367,-0.594664,-0.233342
0.291258,-0.789539,-0.967821,0.004003,0.050395,0.998721
-0.365955,0.385931,0.249344,0.954194,0.133326,-0.267838
0.377088,-0.246364,-0.598853,0.950675,0.309391,-0.022223
0.552778,-0.522169,0.872870,0.780902,0.616541,0.100347
-0.628704,-0.130985,0.499692,-0.027195,-0.406540,0.913228
-0.561786,-0.407798,0.392980,0.273140,-0.645299,0.713431
0.267366,0.402546,0.395159,0.116491,-0.151289,0.981601
-0.475509,0.339831,0.223302,0.510162,-0.375092,-0.773977
0.577397,0.590589,0.478658,0.826321,0.369519,-0.425029
0.021682,-0.115027,-0.224796,-0.373936,-0.319502,-0.870684
0.453349,-0.330237,0.055324,0.971824,0.208628,0.109690
0.259587,-0.504294,0.674481,-0.325144,0.582055,-0.745314
0.562681,-0.903658,-0.956631,-0.116440,0.207465,0.971288
0.113611,-0.228692,0.746869,-0.506052,0.300603,-0.808424
0.057939,-0.103617,0.250713,-0.089533,-0.613808,0.784362
0.272065,0.409564,0.458855,-0.302265,-0.298487,0.905286
-0.019165,0.595030,0.406714,-0.095783,-0.248367,0.963919
0.373673,0.539992,0.490088,-0.393964,0.531580,-0.749810
0.439474,-0.370836,0.099537,0.843398,-0.322447,0.429777
0.156805,-0.537721,0.243914,0.145405,0.015495,-0.989251
-0.733836,-0.620077,0.137066,0.365063,0.128341,0.922094
0.789060,0.358363,-0.998985,-0.035721,0.151584,0.987799
0.322758,-0.795398,0.481624,0.127672,0.350650,0.927763
0.746536,-0.764291,0.516917,0.905294,0.392254,-0.163032
-0.559437,-0.100637,0.499224,0.275993,-0.436303,0.856427
-0.507737,-0.366290,-0.201321,0.922937,0.260329,-0.283579
0.140187,0.476014,0.402117,0.062025,-0.248357,0.966681
0.263395,0.183144,0.470399,-0.567611,-0.190322,-0.800996
-0.313080,0.267673,0.531244,-0.444892,0.269828,0.853969
0.537055,-0.133762,0.681804,0.905936,-0.332107,-0.262651
-0.216786,0.130073,0.247530,0.056058,0.047159,0.997313
0.213819,-0.149113,0.247622,-0.144733,-0.160034,0.976443
0.571745,0.610280,0.484099,0.706716,0.391719,-0.589159
0.705078,0.193647,0.401056,0.976697,-0.169101,-0.132166
-0.016925,0.280901,0.739979,-0.235429,0.517415,-0.822712
0.426268,-0.361090,0.929916,0.993264,0.012215,-0.115229
0.528548,-0.172289,0.836391,-0.664848,0.537615,-0.518602
0.526984,0.241566,0.461456,-0.045786,-0.213961,0.975769
0.099231,-0.668603,0.628351,0.367395,0.213852,0.905145
-0.232451,-0.113868,0.659754,-0.532277,-0.836028,-0.133183
0.071927,-0.469554,0.237937,-0.647523,-0.108544,0.754276
0.180304,0.243890,-0.060662,0.242945,0.215534,0.945792
0.417484,0.068874,-0.150241,-0.041054,-0.121176,0.991782
0.365617,-0.804234,-0.968129,0.033556,0.123047,0.991833
0.477633,0.642344,0.474152,-0.207590,-0.046083,-0.977130
0.381732,-0.340235,-0.206888,0.014387,-0.498077,0.867013
0.135543,0.094020,-0.249664,0.984748,0.017237,0.173131
0.008083,-0.764140,0.642358,0.180052,0.514037,0.838658
0.411272,0.183042,0.158351,0.477691,-0.839479,-0.259008
-0.737865,-0.285650,0.435266,-0.134623,0.310754,0.940908
0.571687,0.025650,-0.053715,-0.619891,0.744854,0.246836
0.585285,-0.099426,0.575662,0.729125,-0.682403,0.051987
-0.111371,0.297716,0.320444,0.890665,-0.195402,-0.410529
0.060456,0.702233,0.416684,-0.098046,-0.149652,0.983865
-0.584780,0.021813,0.051799,0.776749,-0.279967,-0.564163
-0.504154,0.143707,0.048970,-0.739015,-0.064281,0.670615
0.087817,0.674258,0.409589,0.144758,-0.554029,0.819815
-0.381005,-0.194809,0.192207,-0.326602,0.121837,0.937276
-0.929667,-0.424107,0.142803,0.734891,0.652557,0.184673
0.788948,0.698344,0.277496,0.249217,-0.229377,0.940892
-0.424591,-0.009139,0.079141,-0.455984,0.581979,0.673334
0.445573,-0.389115,0.705131,0.605020,-0.212271,-0.767393
0.242689,0.282923,-0.195104,-0.147819,0.281697,-0.948049
-0.037405,0.288023,0.607374,0.933039,-0.064470,-0.353952
-0.146174,0.040243,0.515274,-0.260611,0.480138,0.837586
0.437404,-0.712434,0.639062,0.943705,-0.330731,0.006209
-0.413458,-0.059785,0.173203,-0.614566,0.403339,0.677957
0.563518,0.391639,0.155625,-0.541030,0.278406,0.793585
0.520437,-0.350587,-0.970182,0.045516,-0.000095,0.998964
-0.375800,-0.219147,0.487749,0.400657,-0.112460,0.909300
-0.039976,0.175923,0.527126,-0.031293,-0.173890,0.984268
0.358568,-0.535144,0.566423,-0.245436,-0.226092,0.942679
0.219638,0.417441,0.459791,-0.728350,-0.359585,0.583271
-0.497888,-0.037873,0.071841,-0.638525,0.430509,0.637925
0.476178,0.278176,0.084913,0.768628,-0.136862,-0.624884
0.225177,-0.238234,0.781124,0.395395,0.168173,0.902984
-0.138510,-0.255857,-0.221009,0.534754,-0.324029,-0.780412
0.374233,0.608868,0.476445,0.414286,-0.059038,-0.908230
0.304631,0.317157,0.460772,0.465522,-0.413011,-0.782759
-0.082166,0.722278,0.413878,-0.045469,-0.255198,0.965819
-0.075564,-0.028581,0.581731,-0.664678,0.700919,-0.258681
-0.573760,-0.257879,-0.201332,-0.269795,-0.120022,0.955408
0.030298,0.858211,0.366642,0.399546,0.146830,-0.904878
-0.049043,-0.324532,0.212032,0.022905,0.295193,0.955163
0.344300,-0.004597,-0.990509,0.086538,0.119056,0.989109
-0.448035,-0.439406,0.596069,-0.044032,-0.645837,0.762205
0.031866,-0.675318,0.631465,-0.352754,0.529076,0.771779
-0.446020,-0.040952,0.331246,-0.196842,-0.016872,0.980290
-0.221263,0.293981,0.422308,-0.431239,-0.464162,-0.773684
0.372389,-0.273985,0.295212,-0.712499,0.672844,0.199063
-0.622270,0.065946,0.333892,-0.223823,0.007754,0.974599
0.257237,-0.591498,0.683720,0.869448,0.492694,-0.036227
-0.189650,-0.654666,0.579883,-0.756289,0.534584,0.377157
0.117583,0.681328,0.409600,0.089595,-0.091110,0.991802
-0.052455,-0.242124,0.355052,-0.259687,0.626467,0.734917
-0.797342,-0.438497,-0.036046,-0.748373,0.363780,0.554619
-0.162962,0.455211,0.638104,0.366109,-0.385595,0.846925
-0.477299,-0.746770,0.391543,0.785160,0.245470,0.568567
0.441321,0.411330,0.149762,0.555725,-0.186177,-0.810252
-0.432760,0.481318,0.548856,0.642143,-0.203921,0.738964
-0.373564,-0.549032,0.373703,0.309468,-0.191597,0.931408
-0.143377,0.035900,0.580978,0.909823,0.198906,-0.364222
0.300267,0.319025,0.461969,-0.303284,0.263969,0.915609
0.619248,0.163854,0.261515,0.245337,-0.667365,-0.703160
0.007414,0.360382,0.381220,-0.120200,-0.356303,0.926607
-0.016255,0.101897,0.594929,0.159641,0.156114,-0.974753
0.390181,-0.114321,0.787603,0.570781,0.179153,-0.801320
-0.419332,0.305997,0.444939,-0.403190,-0.394954,0.825499
-0.121333,-0.070541,0.584594,-0.780328,0.442760,-0.441646
-0.149589,-0.494802,0.234903,-0.142419,0.123798,0.982034
-0.127879,0.351342,0.524354,-0.456901,-0.544214,-0.703614
0.719793,-0.470460,0.839231,0.613272,0.736498,-0.285426
-0.005566,0.097607,0.596594,0.081731,-0.228923,0.970007
-0.111429,0.116793,0.511829,-0.660554,-0.164996,0.732424
-0.032480,-0.279693,0.482639,0.291450,0.742907,-0.602616
-0.081158,-0.437085,0.454327,-0.164796,0.382242,0.909249
-0.087817,-0.145578,0.497593,0.151134,-0.929380,0.336767
0.502922,0.631943,0.473935,-0.354504,-0.063676,-0.932884
-0.075674,0.430872,0.190028,-0.045498,0.004807,0.998953
0.401649,0.615229,0.470422,0.737586,0.125621,-0.663466
-0.643921,-0.585541,0.386284,-0.085935,0.129338,0.987870
0.486697,-0.375936,0.608811,0.514759,0.852584,0.090134
-0.501972,-0.137244,0.434981,0.290898,0.782947,0.549885
0.030967,0.755049,0.302215,-0.359251,0.842007,0.402445
0.065603,0.326196,0.722937,0.235279,-0.923104,0.304177
-0.289690,-0.391386,0.418269,0.954655,0.215719,-0.205179
-0.046523,-0.148355,0.716082,0.591962,0.031217,0.805361
0.497215,0.194353,-0.136187,-0.094523,-0.136585,0.986108
0.470585,-0.810444,0.656070,0.986310,-0.161325,0.034168
-0.083173,0.406482,0.509468,-0.203185,0.754611,0.623922
0.172862,-0.191527,0.743287,0.580404,-0.041491,0.813271
0.436731,0.000806,-0.869619,0.866852,0.495633,-0.053989
0.128381,-0.081248,-0.994969,-0.115440,0.206650,0.971581
-0.078921,0.326551,0.329124,-0.007651,0.978098,0.208006
0.547238,-0.494093,0.865855,0.851734,0.148949,-0.502358
0.473996,-0.500152,0.793478,0.485755,-0.242212,-0.839866
-0.026439,-0.136135,0.478373,-0.791305,0.424415,0.440123
0.849769,-0.535046,0.595157,0.749639,0.625596,-0.216035
-0.238717,-0.063472,0.251454,0.377349,-0.044867,-0.924984
0.070920,0.114268,0.079871,0.290738,-0.126984,-0.948339
-0.132804,-0.562512,-0.158385,0.385207,-0.097870,-0.917626
0.095426,-0.341042,0.734127,-0.183801,-0.121202,-0.975463
0.209847,-0.958495,0.376725,-0.049464,-0.994629,-0.090926
0.364049,0.283881,-0.147400,-0.267130,-0.084622,0.959938
-0.308490,-0.796051,0.348585,-0.213558,0.874493,-0.435494
0.009316,0.224803,0.744382,-0.099702,-0.353041,0.930280
-0.297637,0.110733,0.082894,-0.426180,-0.188246,0.884836
0.106112,-0.497729,0.244337,-0.598890,-0.191891,0.777502
0.080151,0.435165,0.383216,0.605060,0.205882,-0.769100
0.052677,0.280093,0.722720,-0.259394,0.894009,0.365326
0.653378,-0.041457,0.847489,0.138468,-0.284849,0.948519
0.121220,-0.171380,0.797904,-0.505994,0.008732,-0.862493
-0.182489,0.911431,0.423003,0.128968,0.778843,-0.613816
-0.342453,0.038375,0.082609,-0.212642,0.168150,0.962553
-0.299034,0.310087,0.127666,0.999500,0.031618,0.000136
0.487089,-0.277825,-0.291550,0.939882,0.334263,-0.069925
0.481045,0.127096,0.301405,-0.872894,0.191779,0.448640
0.169898,-0.146083,0.702747,-0.730053,-0.443611,0.519838
0.290753,-0.293124,-0.929642,0.951904,0.271506,-0.141994
-0.020282,0.792063,0.375300,-0.191409,0.195181,0.961908
-0.125250,-0.076046,-0.213184,0.193349,0.039778,0.980323
0.225177,0.043272,0.595077,0.181736,0.372656,-0.910000
0.395888,-0.220008,0.438756,0.670320,-0.635710,-0.382810
-0.332102,-0.448193,0.223325,0.695763,-0.119608,-0.708243
-0.198434,-0.086904,0.081948,-0.043366,-0.115107,0.992406
0.256623,-0.866794,0.487589,-0.065122,0.332314,0.940918
0.004337,-0.348972,0.461171,-0.168343,-0.516714,0.839445
-0.426326,-0.504645,0.598465,0.593161,-0.115974,-0.796687
0.808478,-0.778179,0.610602,0.373150,-0.925573,-0.063824
-0.183773,-0.889065,0.311637,0.336329,0.854852,-0.395108
0.459896,-0.251921,0.744234,0.990819,-0.112824,-0.074495
0.399692,-0.295395,-0.718762,0.903868,0.413255,0.110645
-0.372949,-0.818371,0.365444,0.439512,-0.579812,0.686037
0.140635,-0.862859,0.482160,-0.255627,0.599692,0.758303
-0.082780,0.257068,0.421669,-0.358705,-0.333501,-0.871842
0.157645,-0.157243,0.573369,0.297127,-0.649087,0.700286
0.477128,-0.543074,0.804850,-0.471887,0.363690,0.803151
0.530898,0.064532,0.742455,0.863179,-0.430313,0.264109
0.250581,-0.553729,0.470627,-0.585786,-0.807638,-0.067639
-0.301496,0.479398,0.291208,-0.523751,0.413251,0.744922
-0.491061,-0.155425,0.390779,0.837861,-0.228861,-0.495592
-0.591774,-0.164563,0.433121,-0.018842,0.231742,0.972595
0.040762,0.326298,0.522574,-0.719116,0.079437,-0.690334
0.615665,0.450110,-0.108982,-0.626148,-0.355604,0.693891
0.550930,0.453898,0.220644,-0.591616,0.332088,0.734648
-0.154848,-0.256060,0.478498,0.280689,0.309885,-0.908397
-0.020449,0.628811,0.280542,0.821270,-0.561819,-0.099370
0.778709,-0.217382,0.872539,-0.352408,0.685211,0.637413
0.397902,-0.193801,-0.306538,0.779795,0.624458,0.044401
0.109414,-0.323118,0.430258,0.045715,0.827079,0.560223
0.261212,-0.430318,0.747964,0.846536,0.178329,0.501573
-0.219136,-0.105636,0.656788,-0.532277,-0.836028,-0.133183
0.253098,-0.180318,0.506411,0.368552,0.897218,-0.243248
-0.397735,-0.469249,0.595373,-0.596717,0.181358,-0.781689
-0.392083,-0.396185,0.400862,0.595549,0.702796,-0.389101
-0.425991,0.247274,0.412646,0.468392,0.795769,0.383876
0.022242,-0.273834,0.487532,-0.404650,0.708783,-0.577828
-0.518255,-0.298980,0.607385,-0.590449,-0.220770,-0.776293
-0.450050,0.460512,0.229542,0.715848,0.057987,-0.695844
-0.733781,-0.267118,0.430840,-0.188234,0.294370,0.936971
-0.762430,-0.295851,0.190336,0.165574,-0.417528,-0.893452
-0.743405,-0.122956,0.430235,-0.425875,-0.267489,-0.864338
-0.716771,-0.021612,0.502236,0.049525,-0.138568,0.989114
-0.102366,-0.209606,0.432790,0.063361,0.336986,0.939375
0.005679,-0.123308,0.455547,-0.691897,0.663512,0.284658
0.010211,0.237781,0.404524,-0.589974,-0.789286,-0.170172
-0.461070,-0.290547,0.426038,0.063860,-0.018843,0.997781
0.236088,0.423399,0.461057,-0.620623,-0.383433,0.683964
0.132131,0.515047,0.402482,-0.126054,0.212896,0.968910
0.634971,0.108816,0.377239,0.795853,-0.529857,-0.293036
-0.170680,-0.187083,0.399368,0.179882,0.174511,0.968085
0.259867,-0.844829,-0.967194,-0.111393,0.077740,0.990731
-0.464093,-0.079377,0.091290,0.333029,0.292430,0.896424
-0.078696,-0.703799,0.401855,-0.271983,0.677303,-0.683583
0.115681,-0.946475,0.483779,-0.138014,0.743541,0.654293
0.426886,-0.182337,0.540107,0.852108,-0.512857,-0.104351
-0.329752,-0.657190,0.583214,0.520257,-0.165081,0.837903
0.348887,-0.292166,0.774325,0.500988,0.706856,0.499366
-0.270221,-0.536306,0.226074,-0.432678,0.068489,0.898943
0.049320,0.276611,0.611195,0.134368,0.073681,0.988188
0.203635,0.080841,0.381163,0.880310,0.457995,-0.123671
0.128381,0.859574,0.377033,0.423332,-0.107950,0.899520
-0.502419,-0.201728,0.083590,-0.117814,-0.215721,0.969322
0.254328,-0.280701,0.789440,0.224789,-0.106025,0.968622
-0.381900,-0.782823,0.382041,-0.530879,0.661677,-0.529482
-0.496880,-0.215563,0.480095,-0.482127,0.033386,0.875465
0.661492,0.669308,0.259827,-0.561845,-0.163090,-0.811007
-0.692770,-0.361442,0.193017,0.191098,-0.026734,0.981207
0.168388,0.300444,0.594769,0.233857,-0.847606,-0.476315
-0.282584,-0.780197,-0.981738,0.034223,0.217016,0.975568
-0.131011,0.365784,0.251272,0.933221,-0.202873,0.296548
-0.072149,-0.674107,0.459152,0.111018,0.307987,0.944891
-0.058554,-0.160473,-0.288550,0.644906,-0.030007,-0.763672
-0.073324,-0.237125,-0.205724,0.455319,-0.266831,-0.849403
-0.764332,-0.411937,-0.191226,0.405273,0.896507,-0.178967
0.189312,-0.086549,0.508259,-0.344465,-0.002575,0.938796
0.528995,-0.290245,0.964182,-0.179909,-0.206987,0.961659
-0.330367,-0.195971,0.693929,-0.706695,0.621268,-0.338538
0.170458,-0.425017,-0.978737,-0.253868,0.101532,0.961895
0.226690,-0.358160,-0.163096,-0.179313,0.046756,0.982680
0.032033,0.599776,0.337565,0.594598,0.518921,0.614145
0.000980,-0.118411,0.749972,-0.517210,0.225009,0.825751
0.765001,0.420471,0.376725,0.620171,-0.744463,-0.247311
-0.409373,-0.792063,0.370463,0.860403,0.115052,0.496457
0.052342,-0.865836,0.140591,-0.449616,-0.803355,-0.390468
0.581761,0.270552,0.169404,0.311168,-0.608150,-0.730293
0.226242,-0.148253,0.026886,0.111196,0.977066,-0.181595
0.454916,-0.459556,0.656195,0.709116,0.127342,0.693497
-0.022857,0.079529,0.537084,0.755029,0.338372,-0.561637
0.095539,0.435468,0.403589,0.174334,0.144197,-0.974071
0.866947,0.441274,0.403783,0.849541,-0.526160,-0.037888
0.728744,-0.345638,0.648359,0.565844,0.487752,-0.664770
0.490166,-0.195466,0.915783,0.934098,-0.007162,-0.356946
0.396895,0.199050,0.233888,0.419937,-0.724157,-0.547037
-0.158205,0.164107,0.598088,0.829517,0.558271,-0.015311
0.056707,-0.305597,-0.983814,-0.139331,0.195615,0.970733
-0.461576,-0.636945,0.387220,-0.285019,-0.269749,-0.919782
0.186683,0.178651,0.813132,0.565703,0.622642,0.540646
-0.191160,0.012117,-0.204720,0.169430,-0.055745,0.983964
-0.457324,0.136385,0.069731,-0.538142,0.297531,0.788593
-0.338535,-0.410473,0.226097,-0.538123,0.180472,0.823318
0.077296,-0.146839,-0.155556,-0.178534,0.521587,0.834310
-0.348999,-0.883357,0.341581,-0.395792,-0.911635,0.110775
-0.224002,-0.417694,0.648176,-0.628314,0.178227,0.757270
0.078081,-0.559637,-0.203888,0.049017,-0.037694,0.998086
-0.202293,-0.251465,0.078081,-0.045430,0.010123,0.998916
0.753643,0.332610,0.477905,0.076761,-0.555526,0.827949
-0.304126,0.372047,0.435254,0.484748,-0.058259,0.872711
-0.114393,0.115532,0.595180,0.154705,-0.419414,-0.894516
-0.107399,-0.548477,0.234401,-0.001495,0.178685,0.983905
0.064988,-0.780398,0.403862,0.673351,-0.054931,-0.737280
0.027331,-0.212179,0.202998,-0.070090,0.945073,0.319256
-0.185173,-0.106191,0.332444,0.061272,0.269144,0.961149
-0.356720,0.242124,0.246344,-0.221612,0.172203,0.959809
0.070975,-0.271563,-0.985958,-0.087313,0.103587,0.990781
0.528828,-0.378460,0.924235,-0.719158,0.298114,0.627647
0.657797,0.098313,-0.993772,-0.042362,0.001862,0.999101
0.467562,0.436377,0.697032,0.838153,0.504328,0.207731
-0.668038,-0.494802,-0.033924,0.586087,0.100749,-0.803960
0.242747,0.445314,0.322577,0.460952,0.606175,0.648132
-0.114561,-0.351546,0.553533,0.346098,0.760641,0.549219
0.723430,0.519846,0.586316,0.898186,0.313389,-0.308300
-0.627697,-0.621695,-0.024593,-0.531700,-0.247988,0.809813
-0.726620,-0.204403,0.333527,0.164442,0.164838,0.972516
-0.216113,-0.431933,0.582153,-0.260471,-0.104062,-0.959857
0.525918,-0.236216,0.994228,0.952609,-0.302779,-0.029336
-0.242467,-0.147091,0.726519,0.419738,0.620319,-0.662589
-0.198489,0.096091,0.437228,0.065136,-0.138467,0.988223
0.019052,-0.075895,0.462939,-0.356766,-0.464900,-0.810300
0.141082,-0.159160,0.744223,0.492725,0.429766,0.756653
-0.131458,0.327306,0.619978,0.023333,-0.527927,0.848969
0.705078,0.545595,0.295793,0.463126,0.196961,0.864130
0.007301,-0.385327,0.629743,0.678824,-0.086235,0.729220
0.213877,-0.058069,0.269922,0.194069,0.528713,-0.826317
0.191662,-0.185317,0.649465,-0.092925,-0.701551,0.706534
0.121835,-0.359574,-0.981350,-0.172115,0.080172,0.981809
-0.330985,0.318572,0.145233,0.950692,-0.049709,-0.306127
0.142649,0.301806,-0.199416,0.563062,0.020933,-0.826150
-0.665409,-0.399467,0.192184,0.135768,-0.030277,0.990278
-0.361700,0.394212,0.544601,-0.089744,-0.228535,0.969391
0.462751,-0.328067,0.960190,-0.099341,-0.087763,0.991176
-0.721528,-0.161484,0.431387,0.422404,0.056849,0.904623
-0.039587,0.867805,0.375106,0.187287,0.923449,0.334911
-0.208839,-0.256464,0.680572,0.853323,0.077880,0.515534
-0.650693,-0.078065,0.421703,-0.363497,-0.328874,-0.871614
0.548468,-0.499295,0.728960,0.951130,0.014319,0.308460
0.011440,-0.188044,0.753040,-0.779510,0.233977,-0.581049
0.287006,0.548474,0.478315,-0.356373,0.879013,-0.316757
-0.191385,-0.103312,0.662435,0.110693,0.796312,0.594672
-0.503932,-0.270299,0.074134,0.923456,0.260899,-0.281357
0.092182,-0.073469,0.092727,-0.284018,0.163993,0.944690
0.132298,0.144869,-0.062590,0.347846,-0.071447,-0.934825
-0.621823,-0.230055,0.186618,0.416638,0.228708,0.879833
0.337866,-0.228390,-0.846816,0.805362,-0.588086,-0.074480
-0.271676,-0.165725,0.443490,-0.074550,0.041077,0.996371
0.614269,0.276056,0.472931,0.113724,-0.463172,0.878942
0.599161,-0.517827,0.522472,0.785570,0.212392,-0.581180
0.125584,0.350535,-0.207983,-0.386139,-0.144208,0.911099
-0.436564,-0.437085,0.599229,-0.133937,-0.007484,-0.990962
-0.149421,-0.167645,0.725310,-0.229824,0.169467,-0.958364
-0.854188,-0.459707,-0.075354,0.920446,-0.370785,-0.123683
0.089720,0.298221,0.289462,-0.320634,-0.240570,0.916144
-0.358066,-0.444205,0.221180,0.795581,-0.035777,-0.604790
0.456986,0.324782,0.331565,0.934961,-0.261780,-0.239416
0.295342,-0.713747,0.714348,0.923513,-0.317444,-0.215299
0.008029,-0.321703,0.756417,-0.549125,0.028305,-0.835261
-0.033601,-0.211372,0.220051,-0.281862,0.701628,-0.654425
-0.396950,-0.407696,0.399950,0.818634,0.464784,-0.337365
0.074110,0.082053,0.339425,0.913585,-0.307044,0.266620
0.211862,-0.273480,0.626549,0.637702,-0.412692,0.650400
-0.104828,0.353715,0.415657,0.149815,0.818436,0.554724
0.054805,0.153505,-0.060753,-0.452051,0.130501,0.882394
-0.472429,-0.319583,0.493509,0.107061,0.003448,0.994246
-0.197652,0.201876,0.601773,0.499788,0.597416,-0.627141
-0.140074,0.780953,0.418201,0.102079,-0.262489,0.959520
-0.781171,-0.478741,-0.078662,0.920446,-0.370785,-0.123683
0.318841,-0.042819,0.368809,0.646745,0.704651,-0.291870
-0.283369,-0.414412,0.029761,0.856331,-0.173464,0.486423
-0.047530,-0.303778,0.358189,0.222323,-0.602242,-0.766732
0.481998,-0.299991,0.894110,0.982148,-0.132158,-0.133867
0.451614,-0.430872,0.657792,0.776116,0.158490,0.610348
0.292320,-0.857404,0.717816,0.487524,0.131759,0.863111
0.220645,0.450868,0.470171,0.741954,0.267837,-0.614628
0.257183,0.142949,0.792325,-0.249704,-0.911530,-0.326744
0.090782,-0.693801,0.470798,-0.134170,0.503857,0.853303
0.345977,-0.268129,-0.825691,0.853961,-0.507797,-0.113544
0.311960,0.060593,0.071351,-0.300598,0.190561,0.934520
-0.082558,-0.640276,0.620491,-0.087130,0.596565,0.797821
0.503874,-0.106798,0.749185,0.982328,-0.164178,-0.089875
-0.205988,0.870431,0.411357,0.947456,0.286375,0.142533
-0.175157,-0.105888,0.411938,0.057209,0.463138,-0.884438
0.173757,-0.295648,0.731116,-0.010211,0.034573,0.999350
-0.183493,-0.365079,0.631397,0.082220,0.479290,0.873797
0.454022,0.442081,0.139689,0.838332,-0.085613,-0.538395
-0.375018,-0.079125,0.196678,0.304886,0.328698,-0.893869
-0.238103,0.558422,0.183321,0.089445,0.455558,0.885701
0.430075,-0.348112,0.670693,0.968296,0.029620,0.248045
-0.226744,0.114774,-0.213378,-0.423692,-0.069672,-0.903123
-0.329920,0.373458,0.099617,-0.618544,0.350915,-0.703038
0.269214,-0.366595,-0.966760,-0.435905,-0.225633,0.871250
-0.319848,-0.592709,0.594609,-0.351177,0.277425,-0.894265
0.331320,-0.264240,-0.863391,0.951220,-0.308476,-0.004841
-0.405737,-0.477228,0.597187,-0.720599,0.456719,-0.521675
0.780390,0.753585,0.278443,-0.412593,-0.690416,-0.594215
-0.027723,0.062664,0.590354,0.206224,-0.116896,0.971497
0.119260,0.065188,0.349474,-0.871586,0.380136,0.309571
-0.283482,-0.278229,0.695287,-0.529226,-0.610164,-0.589593
0.130451,-0.512927,0.642746,-0.446827,-0.648330,0.616452
-0.324271,-0.182944,0.483289,0.019748,-0.202177,0.979150
-0.417652,0.115834,0.300105,0.156535,0.653897,0.740213
0.213597,0.579580,0.387516,-0.116480,-0.853481,-0.507940
0.778822,0.711069,0.282915,0.501640,-0.113597,0.857585
-0.241460,0.397544,0.535019,0.575052,-0.058160,0.816047
-0.048483,0.327460,0.287877,-0.110238,-0.117205,0.986970
0.653825,0.533126,0.490475,0.644827,0.075916,-0.760549
0.400419,-0.202030,-0.607716,0.991069,0.133251,-0.005133
-0.115233,-0.512726,0.235816,0.037699,0.265529,0.963365
0.040424,0.813067,0.366973,-0.584270,0.251872,0.771485
-0.811890,-0.390628,-0.176328,0.369653,0.927532,0.055139
0.410490,-0.376389,-0.439144,0.986189,0.165601,0.002658
0.507846,-0.878158,-0.962072,-0.139158,0.218118,0.965950
0.602572,0.340183,0.470479,0.399517,0.172752,-0.900302
0.556077,-0.505656,0.531917,0.841913,0.394783,-0.367871
0.345868,0.122802,-0.144902,-0.242623,-0.137274,0.960359
0.570905,0.183952,-0.141936,-0.109856,0.412833,-0.904157
-0.173255,0.397445,0.282504,0.160344,-0.264963,0.950833
0.425318,0.562361,0.487373,-0.218165,0.521425,0.824937
0.278667,0.290597,0.463509,0.459639,-0.453503,-0.763588
-0.523849,0.186223,0.211154,0.661757,0.324797,-0.675711
0.228312,-0.145831,0.026270,0.052816,0.986504,0.154983
0.427501,-0.423855,0.851448,0.008333,0.712416,0.701708
0.064875,0.709100,0.248146,-0.489235,0.870903,-0.046661
-0.354538,-0.188498,0.701754,0.798538,0.125641,0.588687
0.581648,-0.569178,0.805980,-0.278215,0.431325,0.858228
-0.316884,0.196070,0.509308,0.995480,0.046190,-0.082979
0.328632,-0.246213,-0.790021,0.976098,-0.216409,-0.020003
0.117136,0.468744,0.402037,0.108326,-0.226127,0.968056
0.241347,-0.473644,0.696804,0.807851,-0.545303,-0.223655
-0.142482,0.108311,0.508795,-0.459434,0.094525,0.883168
-0.115455,-0.117249,0.423905,0.588666,-0.282494,-0.757410
0.000475,0.679408,0.269888,0.831083,-0.529293,-0.170733
0.318339,0.368309,0.462038,-0.213934,0.223958,0.950828
-0.403944,-0.198243,-0.133335,-0.139395,-0.799658,0.584051
-0.130731,0.132246,0.591564,-0.667294,-0.501048,-0.551062
0.434775,-0.201525,-0.506992,0.925752,0.377474,-0.022292
0.437626,-0.266262,0.912429,0.971768,-0.143332,-0.187409
0.303344,0.380226,-0.209705,0.067056,-0.182975,0.980828
-0.181816,0.575743,0.182180,0.027043,0.610142,0.791830
0.052902,-0.284186,-0.986083,0.188447,-0.058009,-0.980369
0.214826,-0.425017,-0.074738,-0.223918,-0.376501,0.898948
0.048873,-0.892245,0.481966,-0.225491,0.446049,0.866137
0.236088,0.010453,0.592271,-0.043326,-0.525288,0.849821
0.445853,0.412593,0.472703,-0.110954,-0.218120,0.969594
0.519765,0.402192,0.225378,-0.479330,0.434967,0.762264
-0.010436,0.409715,0.607784,-0.163947,-0.985433,-0.045205
0.550763,0.022722,0.746595,0.929573,-0.368402,0.013174
-0.467508,0.090183,0.341250,-0.448108,0.878590,0.165166
0.697298,0.551353,0.296592,0.408244,0.190144,0.892851
0.554400,-0.475613,0.762188,0.733000,0.011387,0.680133
0.456091,-0.438146,0.897315,0.882046,0.423386,0.206735
-0.258583,0.065894,0.245534,0.571538,-0.145556,-0.807563
0.083006,0.241618,0.609153,0.525443,-0.142606,0.838792
0.204195,0.140576,0.349908,0.973206,0.051410,-0.224112
0.144104,0.363057,0.581274,0.191168,0.539393,0.820067
0.099845,-0.051708,-0.213412,-0.086679,-0.116846,0.989360
-0.306981,-0.450366,-0.077339,-0.194249,-0.214113,0.957300
-0.052400,0.179205,0.521787,0.019198,-0.469801,0.882564
-0.127152,0.321956,0.529099,-0.289769,0.524091,0.800851
-0.046748,0.169460,0.528358,0.555398,0.361517,-0.748892
0.304460,-0.428401,0.497399,-0.688443,0.015405,0.725127
-0.778207,-0.281915,0.188112,-0.147152,0.401439,0.903987
0.555407,0.408402,0.461696,0.186219,-0.539379,0.821214
-0.306813,0.347151,0.160553,-0.720914,0.533241,0.442648
-0.155462,0.268481,0.527970,0.163953,-0.234683,0.958146
0.063588,-0.308321,-0.984943,-0.092562,0.188832,0.977637
-0.003664,0.324582,0.622693,0.160126,-0.247061,0.955678
0.405231,0.610683,0.481156,0.179948,0.441144,0.879210
-0.205261,0.593668,0.174446,0.104503,0.741488,0.662778
-0.580754,-0.057970,-0.197910,-0.060362,-0.015356,0.998058
0.567155,-0.505909,-0.971779,0.005578,0.170281,0.985380
-0.387832,-0.789992,0.370623,0.439807,-0.374994,0.816057
0.792083,0.470611,0.384482,0.590107,-0.654476,-0.472689
-0.064373,-0.271865,0.355178,-0.259687,0.626467,0.734917
0.220758,0.516511,0.461764,-0.750701,-0.214080,0.624994
-0.437571,-0.217231,0.189184,-0.170782,0.211308,0.962384
-0.316437,0.164816,0.078115,-0.719102,-0.489415,0.493320
0.599441,0.376488,0.235667,-0.389807,0.466660,0.793901
-0.149869,-0.256766,0.474255,0.517307,0.230117,-0.824281
0.032928,-0.531055,0.621621,-0.478651,0.183044,-0.858713
0.555294,0.454101,0.479730,-0.315005,-0.093774,0.944446
0.448315,-0.792568,-0.967410,-0.129918,0.136040,0.982148
-0.286446,-0.426481,-0.990555,0.002754,0.124383,0.992230
-0.192389,-0.467381,0.417608,-0.279900,-0.368054,0.886675
-0.070025,-0.070643,0.564426,0.627089,0.602248,0.494021
0.464820,0.547768,0.483449,0.074064,-0.304025,0.949781
0.462863,-0.701931,0.668902,0.972813,-0.204516,0.108661
0.404504,-0.229953,-0.508019,0.925752,0.377474,-0.022292
-0.895763,-0.231469,0.441665,-0.414760,0.211460,-0.885019
0.270443,-0.853567,-0.961433,0.141485,-0.142468,-0.979635
-0.336466,-0.419158,0.052905,0.720565,-0.228887,0.654520
-0.057994,-0.196578,0.761778,0.762688,-0.208140,0.612360
-0.133139,0.222732,0.177287,-0.103125,-0.091524,0.990449
0.342511,-0.062362,0.789611,0.429743,-0.153696,0.889774
0.505442,0.444707,0.473331,-0.091813,-0.012908,0.995693
-0.201231,-0.209858,0.476205,0.296235,-0.394049,0.870041
-0.531236,-0.187336,0.391646,0.797829,-0.378438,-0.469311
0.212477,-0.540547,0.686036,0.931449,0.330274,-0.152714
-0.214771,0.110635,0.421714,0.232077,-0.108719,0.966603
-0.094474,0.221317,0.283497,0.476336,-0.079940,-0.875622
-0.006072,-0.701577,0.392615,-0.213244,-0.014128,-0.976897
0.101693,-0.494194,0.639906,0.323927,0.505796,-0.799526
-0.188978,-0.767876,0.405847,-0.377826,-0.202172,0.903534
0.172360,-0.060695,0.194967,0.381844,0.190049,0.904476
-0.441823,-0.603262,-0.051434,-0.576680,-0.506353,-0.641129
-0.236259,0.278377,0.531369,-0.651463,-0.213085,0.728142
0.366850,-0.467483,0.790101,-0.274862,0.324821,0.904954
0.329025,-0.807060,0.479605,0.077675,0.328216,0.941404
0.565925,0.544486,0.475863,0.757786,-0.153420,-0.634210
-0.329698,-0.474652,0.213846,-0.763541,0.111754,0.636016
