0.485254,0.288502,0.486140,-0.162710,0.788604,-0.592983
-0.129690,0.501152,0.777352,0.393934,0.586691,0.707538
-0.106586,0.176953,0.893985,-0.780617,0.624660,0.020920
0.096356,0.202561,0.146287,0.094414,0.128336,0.987226
0.098754,-0.289373,-0.955884,-0.124150,0.060597,0.990411
0.075699,0.260179,-0.729587,0.842748,0.531017,-0.088302
0.005947,0.215058,0.874390,-0.360703,0.922634,0.136531
0.313199,0.173572,0.762659,-0.109285,0.548454,0.829009
-0.789080,-0.305915,0.315964,0.423639,0.391404,0.816904
0.170807,-0.371421,0.518847,0.749651,0.658560,0.065746
-0.365379,-0.653777,0.395475,0.198966,0.587952,0.784044
0.071392,-0.047682,0.182303,0.854129,0.450514,-0.259810
0.789961,0.460691,0.488159,-0.753599,0.571196,0.325305
0.623241,0.567529,-0.123566,-0.079242,0.822979,0.562518
0.377371,-0.063969,0.396059,-0.365356,0.819360,0.441773
0.193568,0.388732,0.361747,0.928928,0.008076,0.370172
0.042218,-0.741101,0.236490,0.843577,0.359647,0.398789
0.001052,0.505967,0.568595,0.852209,0.308257,0.422749
0.428327,-0.198976,0.192714,0.251705,0.795594,-0.551067
0.064735,-0.561485,0.197981,0.859106,-0.407985,0.309006
-0.096405,-0.419565,0.283452,-0.471278,-0.028118,0.881536
0.624709,0.683790,0.326923,0.176933,-0.588703,0.788748
0.642576,0.695006,0.204513,0.798324,-0.602214,0.004077
-0.779682,0.880154,0.585392,-0.557752,-0.470172,-0.683996
0.299787,-0.384533,0.584784,0.960230,0.227153,-0.162360
-0.312318,0.229552,0.297452,0.952457,-0.108223,-0.284804
-0.242860,0.319693,0.696722,0.564419,0.044495,0.824288
-0.341932,-0.036210,0.694265,-0.514443,0.426112,-0.744162
0.200763,0.849680,0.396752,0.841052,-0.229330,0.489938
0.204729,-0.551908,0.027063,0.050911,-0.212495,0.975835
0.487506,0.467452,0.301697,-0.138112,0.880100,0.454257
0.313346,0.288912,0.753768,-0.602159,0.377402,0.703543
-0.499890,0.408092,0.386499,0.249121,0.359173,0.899408
-0.749432,0.792983,0.465913,-0.370554,0.070517,-0.926130
0.197092,-0.792420,0.169227,0.433185,0.609600,-0.663881
-0.882866,0.928912,0.526473,0.710945,0.084004,0.698212
0.041875,0.228732,0.187922,-0.688119,-0.156981,0.708413
0.338604,0.064738,0.783726,0.430144,-0.483932,-0.762093
0.570523,-0.051575,0.220763,-0.291355,-0.478360,0.828423
0.619276,-0.672266,0.131594,-0.482833,-0.795187,0.366812
0.386965,-0.233598,0.171197,-0.192354,-0.866802,0.460058
0.847231,-0.024942,0.378824,0.405616,-0.277164,-0.871008
0.149171,0.446863,0.445259,0.972209,-0.103633,0.209927
0.193862,-0.512061,0.189880,0.868153,0.033683,0.495153
0.352651,0.439129,0.593043,0.276712,-0.563838,0.778150
0.227147,-0.105250,0.532348,0.990161,-0.066878,-0.122920
0.399643,-0.293265,0.710393,0.026087,0.995620,0.089783
-0.055386,0.156415,0.904579,0.276322,-0.809834,0.517509
0.572138,0.155800,0.224071,0.949370,0.137629,0.282410
-0.031401,0.367682,0.629617,-0.035027,-0.928350,0.370054
-0.016765,0.139309,0.229520,0.973633,-0.050979,0.222349
0.161947,-0.814545,0.126522,0.409725,0.908080,-0.086691
0.253775,0.409987,0.035030,-0.510535,0.660728,-0.550267
-0.019115,0.220589,0.198115,0.770517,0.574605,-0.275923
0.094985,0.500077,0.475826,0.769237,-0.323352,0.551106
0.114711,-0.327068,-0.952819,-0.095448,-0.001509,0.995433
0.577767,-0.153393,0.449298,0.130355,0.903418,-0.408464
-0.927605,0.860743,0.523469,-0.580030,0.621992,-0.526014
0.242517,0.259257,0.820252,0.163259,0.961470,-0.221184
-0.628821,0.067657,0.466022,-0.529716,0.358691,0.768597
0.234147,0.313035,-0.124041,0.310596,-0.897181,0.314000
-0.444627,-0.145711,0.082747,-0.383345,0.312116,0.869270
-0.277368,-0.798566,-0.049589,0.062403,-0.650876,0.756615
0.499547,0.684968,0.026090,-0.522006,0.786705,-0.329551
0.176779,0.935980,0.413635,0.859089,-0.183194,0.477918
0.317507,-0.946325,0.146737,0.059410,0.421143,0.905047
0.080055,-0.116722,0.691188,-0.212177,0.967602,-0.136849
-0.651925,0.068374,0.394454,-0.324091,0.392176,-0.860908
0.204777,-0.393956,0.039470,-0.462104,-0.106299,0.880432
-0.014758,0.456133,0.706015,-0.318668,0.734181,0.599525
-0.700336,0.531575,0.548550,0.713987,-0.287506,0.638406
-0.329891,0.053675,-0.310393,-0.278555,-0.930532,0.237732
0.114418,-0.128656,0.737335,0.570379,0.603135,0.557580
-0.056707,0.150832,-0.297841,0.852688,-0.508320,0.120557
0.254020,0.163790,0.763218,-0.139644,0.555194,0.819914
-0.288774,-0.491626,0.482053,-0.394990,0.280066,0.874955
-0.150738,-0.185711,0.592374,-0.000155,-0.342747,0.939428
0.221322,-0.581767,0.128650,0.776837,0.012248,0.629583
-0.552364,-0.215160,0.302414,-0.482707,0.611591,-0.626857
0.451724,0.148374,0.314675,-0.052025,0.529519,0.846701
0.232874,0.137567,-0.928103,0.573528,0.499316,-0.649422
0.725104,0.168143,0.288025,0.137839,-0.070628,0.987933
0.022589,-0.445531,0.001131,0.670883,0.477298,-0.567541
0.001542,0.180845,0.919358,-0.278384,0.492702,0.824468
-0.054554,-0.452702,0.595159,0.697078,0.304236,0.649248
0.362295,-0.175775,-0.424655,0.210523,-0.283440,0.935597
-0.019066,0.248092,0.837438,0.831590,0.541336,-0.124150
0.244181,-0.046197,-0.403053,0.197261,0.016854,0.980206
0.658533,0.271344,0.110576,0.740853,0.355808,0.569682
0.512323,0.680359,0.602068,-0.468716,0.769071,-0.434551
-0.062875,0.549757,0.734489,0.510968,-0.688921,-0.514101
-0.888397,0.959744,0.524247,0.768736,0.469859,0.433909
0.112557,-0.107298,0.713751,0.235050,0.539643,0.808417
0.478255,0.127836,0.664368,-0.410120,0.354539,0.840300
-0.364987,-0.466223,0.370358,-0.471119,-0.863495,-0.180066
0.422746,0.109910,0.551213,-0.066398,0.415381,0.907221
0.676155,0.670320,0.320696,0.784607,0.164190,0.597858
0.721971,0.630525,0.286103,-0.678353,0.073554,-0.731045
0.002961,-0.607682,0.226248,0.895871,-0.139917,-0.421708
0.600675,0.419770,0.495421,-0.499125,0.128957,-0.856881
0.755452,0.121127,0.566661,0.722575,-0.158040,-0.672985
-0.046526,0.268528,-0.587569,-0.695171,0.390929,0.603252
0.002031,-0.075032,0.357210,0.008380,0.901077,0.433579
-0.086517,-0.556927,0.227988,0.773999,0.565810,-0.284225
0.019066,0.076569,-0.964836,0.076523,0.024575,-0.996765
0.768962,-0.273598,0.458456,0.028046,0.517126,0.855449
-0.079322,-0.083278,0.634008,0.870164,-0.319946,0.374766
0.212021,-0.563073,0.169178,0.976045,-0.213042,0.044162
-0.235077,-0.483636,0.181159,0.970302,-0.238423,-0.040850
0.077021,-0.440359,-0.281859,0.304057,-0.942212,0.140666
-0.011430,-0.192010,0.814608,0.917892,0.396616,-0.013027
0.857608,0.287375,0.290847,0.266743,0.078818,-0.960540
-0.498813,0.351959,0.377255,-0.403924,-0.090678,-0.910287
0.044127,0.666530,0.709931,0.355884,-0.808997,0.467836
0.317507,0.367119,0.727458,0.778589,-0.424908,-0.461792
0.608605,0.058745,0.525598,-0.652443,0.741664,-0.155731
-0.264887,0.534545,0.229046,-0.222980,-0.955050,0.195346
-0.019751,0.002458,0.780648,0.388041,-0.350265,-0.852490
0.397097,-0.503457,0.008891,-0.571933,-0.379519,-0.727226
-0.102181,0.310474,-0.809840,0.785590,0.618631,-0.012013
-0.753151,0.561332,0.563802,0.803955,-0.343537,0.485426
-0.386769,0.424584,0.500152,-0.614872,0.350571,-0.706422
-0.490492,0.207068,0.436672,0.471062,0.597425,0.648987
-0.303606,0.117183,0.658529,-0.652611,0.448507,-0.610688
0.044616,0.737311,0.257909,0.196219,0.945187,-0.260996
0.600186,-0.163124,0.437159,0.683714,0.609037,-0.402006
0.415600,0.558668,0.137396,-0.520913,0.686123,-0.507824
-0.130326,-0.165685,0.642839,-0.434322,0.408552,0.802776
0.074279,0.289373,0.088621,-0.688492,0.710801,0.144021
0.037323,-0.703867,0.302548,0.808159,0.222483,0.545326
0.361413,0.501716,0.327604,0.769241,-0.309026,0.559260
0.138941,-0.546479,0.345983,0.579249,0.203368,-0.789374
0.356519,0.441895,0.590014,0.036572,-0.186164,0.981838
-0.006486,0.273752,0.843873,0.818644,0.525891,0.230780
-0.123523,0.141562,0.041282,-0.692162,0.716460,0.087165
-0.799751,0.630627,0.486055,-0.526054,-0.184311,-0.830239
0.290976,-0.205531,-0.951651,0.055316,-0.045362,-0.997438
0.843168,0.620026,0.225579,0.272683,-0.640065,0.718305
0.019702,0.244046,0.841781,0.840567,0.311590,0.443124
0.736753,0.141204,0.558025,0.681187,-0.026742,-0.731621
-0.044911,-0.138131,0.583178,0.886164,0.012155,0.463212
0.475171,-0.564712,0.049298,0.518033,0.834887,-0.186027
-0.036002,0.553700,0.588396,0.641996,0.548713,0.535495
-0.637681,0.631344,0.444651,0.240143,-0.758684,0.605583
-0.062826,0.341818,-0.892209,0.247212,0.959828,0.132730
0.291808,-0.792881,-0.124162,0.151122,-0.236117,0.959902
-0.299592,-0.689475,0.127033,0.369437,0.049993,-0.927910
-0.179961,-0.584072,0.414036,0.634517,0.713532,-0.297086
0.073545,0.080307,0.691528,0.949994,0.261438,0.170770
-0.692406,0.712522,0.478781,-0.517846,-0.289114,-0.805139
0.744144,0.561690,0.219996,0.598563,-0.634702,0.488749
0.654666,-0.644866,0.148914,0.405871,0.591764,-0.696480
-0.202575,0.050346,0.485982,0.003603,-0.350700,0.936481
0.232238,-0.712113,-0.124551,0.241852,0.004101,0.970305
0.530679,0.278361,0.462519,0.674801,0.617862,0.403597
-0.042268,0.672010,0.768765,0.339640,-0.866665,0.365426
-0.252600,0.006248,0.807699,0.689432,-0.651866,-0.315840
0.636311,0.116056,0.552673,0.188471,-0.300217,-0.935066
0.297486,0.115647,0.539585,0.182942,-0.036282,-0.982454
0.351232,0.549859,0.347540,0.799649,-0.427816,0.421348
-0.203065,-0.364251,0.259150,0.422062,0.473846,-0.772874
0.336890,0.224328,0.679256,0.408699,-0.039619,-0.911809
0.025722,0.441280,-0.967682,-0.431159,0.544125,0.719743
0.037029,0.125070,-0.209731,0.957842,0.078445,-0.276379
-0.043345,0.586120,0.740230,0.880346,-0.145056,0.451608
0.764899,-0.065147,0.366685,0.992916,-0.016190,0.117714
-0.072567,0.389910,0.844700,0.692461,0.588306,0.417605
-0.602487,-0.157746,0.520234,-0.292308,-0.215798,-0.931659
0.642478,-0.618950,0.069720,-0.004064,-0.913556,0.406693
0.778703,0.476876,0.507109,-0.555226,0.469267,-0.686668
-0.171542,0.123380,0.836964,0.344083,-0.906294,-0.245434
0.501652,0.343611,0.481676,-0.333228,0.864107,-0.377198
-0.015297,-0.743508,0.310588,-0.516745,-0.495168,-0.698414
0.362050,0.523841,0.336739,0.774821,-0.430652,0.462809
0.518980,0.651933,0.028949,-0.603114,0.783409,-0.150078
0.569250,0.643944,0.119212,-0.647159,0.614963,-0.450560
0.090139,0.251268,0.481019,0.370061,0.311890,0.875088
-0.413887,0.176594,0.444736,-0.319556,0.646281,0.692968
0.681637,-0.221921,0.201715,-0.114518,-0.812806,0.571167
-0.137865,0.360205,0.865098,-0.101021,-0.949799,0.296102
0.382755,-0.134341,0.188688,-0.728536,-0.367734,0.577933
0.189408,-0.529014,0.148732,0.880197,-0.380469,0.283720
-0.261460,0.395954,-0.993602,-0.177608,0.326259,0.928445
0.133752,-0.671088,0.021943,0.166241,0.014112,-0.985984
0.297535,-0.279898,0.089400,0.986617,0.136101,0.089797
-0.033065,-0.393547,0.296333,-0.545668,-0.396907,0.738045
-0.417069,-0.099155,0.691516,0.694190,-0.545270,0.469873
0.853398,0.040666,0.378921,-0.472930,0.042331,0.880083
0.132822,-0.175519,-0.956516,-0.139103,0.063333,0.988251
0.011038,0.167273,-0.301952,0.881997,-0.423591,0.206526
-0.187841,-0.578592,0.127069,-0.065053,-0.170423,-0.983221
0.111628,0.624584,0.481883,0.751423,-0.289201,0.593066
-0.068112,0.023406,0.440321,0.920583,-0.342907,-0.186929
0.315842,-0.261613,0.362963,0.003308,-0.617063,0.786907
0.784528,0.318361,0.125379,-0.497505,0.439713,0.747758
0.673120,-0.022279,0.014596,0.259894,0.715087,0.648926
-0.751634,-0.052343,0.169118,-0.471717,0.266534,0.840501
0.467779,0.750832,0.083780,0.229383,-0.835056,0.500064
-0.107761,-0.068732,0.768570,-0.428964,-0.892723,-0.137970
-0.107272,-0.588271,0.201229,0.843875,-0.432875,-0.317007
-0.019800,0.369219,-0.944341,0.618617,0.780476,0.090388
-0.725642,0.840102,0.584820,-0.372534,-0.213677,-0.903084
-0.008983,0.344379,-0.842364,-0.619004,-0.785344,0.008303
0.338407,0.190269,0.319990,-0.305955,-0.899407,-0.312183
0.000122,0.504379,0.678307,0.085470,-0.005114,0.996328
-0.545364,0.465506,0.647765,0.473963,-0.710495,0.520149
0.402432,-0.037951,0.476823,-0.646161,-0.580090,0.495954
-0.369540,0.493880,0.722812,-0.165907,-0.985381,0.038728
0.115935,0.012753,0.695043,0.815648,0.539211,0.209691
0.748892,-0.262638,0.460500,0.212358,0.414881,0.884747
-0.329940,0.132907,0.662458,-0.292088,0.925874,-0.239672
0.622213,-0.657772,0.044201,0.092350,0.793232,-0.601875
0.011282,0.162663,0.808733,0.658565,0.374893,0.652494
-0.767787,0.558668,0.491212,-0.450811,-0.309778,-0.837142
0.739200,0.215519,0.291078,0.058382,0.380856,0.922789
-0.241783,0.390064,0.860123,0.050097,0.954772,-0.293090
-0.774738,0.764712,0.588737,0.866717,-0.219472,0.447921
0.040897,0.342843,0.483160,0.908600,0.099639,0.405608
-0.064980,-0.424020,0.304032,0.787082,0.341581,-0.513638
-0.487604,0.131114,0.539293,-0.270253,0.532549,0.802094
0.060378,0.236671,0.918397,-0.319716,0.439490,0.839423
0.568027,-0.099974,0.461789,-0.265530,-0.371194,0.889780
0.532245,-0.562714,-0.068455,-0.351662,0.599703,-0.718812
0.187694,-0.095621,0.732847,0.531568,0.547663,0.646142
-0.454172,0.357234,0.498133,0.767723,0.111043,0.631087
0.180450,-0.364968,-0.540668,0.852092,0.027646,0.522662
-0.502729,-0.288758,0.287612,-0.328067,0.869148,-0.370074
-0.131355,0.390423,0.777316,0.824468,0.562384,-0.063067
0.417607,-0.310730,0.723578,-0.141540,0.976736,0.161098
-0.105558,-0.263713,0.602627,-0.232209,0.417490,0.878511
-0.341540,-0.335262,-0.057155,0.749176,-0.178905,-0.637752
0.117208,-0.819872,0.126789,0.663933,0.718285,-0.207991
-0.121418,-0.134443,0.345557,0.667017,-0.067249,-0.742001
-0.487751,0.311293,0.610910,0.071356,-0.145533,0.986777
-0.292494,0.372702,0.789345,-0.423834,0.441606,-0.790790
-0.258083,-0.754417,-0.039530,-0.269120,0.519130,-0.811220
-0.923053,0.097465,0.444578,-0.665600,-0.177691,-0.724847
-0.112265,0.101613,0.827817,0.298956,-0.942114,0.151811
0.062679,0.022023,-0.216712,0.911196,0.411212,-0.025027
0.516092,0.002868,0.358876,0.210166,-0.967173,-0.142855
-0.292592,-0.329629,-0.033388,0.585278,-0.120033,-0.801899
0.609291,0.635186,0.315466,0.463960,-0.139259,0.874842
0.397538,-0.141204,0.153537,-0.065821,0.930313,0.360813
-0.064246,0.020077,-0.964264,-0.068120,0.131357,0.988992
-0.552461,0.365480,0.403698,-0.324656,0.938918,0.114154
0.245943,0.327017,0.555045,0.735526,-0.153950,-0.659773
0.155926,-0.656031,-0.114991,0.000540,-0.335896,0.941899
-0.659072,-0.139872,0.542285,-0.719041,0.636712,-0.278528
0.062434,-0.107657,0.800268,0.887533,-0.186422,-0.421345
-0.539392,-0.147196,0.493876,0.555287,0.762039,-0.333094
0.207176,0.390986,0.133856,0.441265,-0.473017,-0.762588
0.017010,0.131421,0.823755,0.783536,0.620818,0.025631
0.543062,-0.460077,0.151116,0.526199,0.531195,-0.664038
0.740669,-0.110883,0.360178,0.744651,0.601242,-0.289832
0.042365,0.636056,0.718068,0.784585,-0.318562,0.531925
0.708950,-0.038822,0.373825,0.686339,0.726817,0.026001
0.353337,-0.642612,-0.086845,-0.357348,-0.877426,0.320040
0.358036,-0.304994,0.356991,-0.245471,-0.125381,0.961262
-0.664799,0.743150,0.473089,-0.383893,-0.302657,-0.872367
-0.578061,0.076312,0.485666,0.558231,-0.329074,-0.761635
0.542720,-0.563278,-0.071337,-0.497839,0.749397,-0.436532
0.781786,0.008553,0.255537,0.342074,-0.403366,0.848694
-0.212413,-0.203175,0.599745,0.194234,0.571358,0.797385
-0.104237,0.273188,-0.939391,0.984289,-0.020813,-0.175335
0.322010,0.375928,0.726571,0.850823,0.321952,-0.415268
0.058028,-0.141050,0.186353,-0.150493,-0.516950,0.842683
0.413985,-0.125327,0.430724,-0.292048,-0.842147,0.453317
-0.035708,-0.174187,0.304458,-0.392604,0.638846,-0.661617
-0.628332,0.439027,0.497573,-0.090765,-0.858996,0.503872
0.448298,-0.550730,0.027124,0.592780,0.800541,-0.088010
0.755941,-0.223457,0.454516,0.155935,0.474153,0.866524
-0.283586,0.302740,0.790428,0.462200,-0.013490,0.886673
-0.307081,-0.212804,0.673405,-0.244309,-0.068267,0.967291
-0.665142,0.107554,0.320355,0.002085,0.873917,0.486071
-0.141095,-0.306376,0.675290,0.857143,0.273668,0.436362
0.415062,0.062996,0.325488,0.382183,0.519611,0.764160
-0.601214,0.104942,0.421870,-0.437976,0.897360,-0.054065
0.016814,0.273035,-0.405705,0.986316,0.155034,0.056089
-0.203799,-0.200000,0.464271,-0.638973,0.136799,-0.756968
-0.783989,0.902945,0.586998,0.476602,0.448934,0.755850
0.469052,-0.509245,0.075047,-0.406425,-0.733248,0.545129
0.551286,0.116671,0.308703,0.421675,-0.566314,0.708152
0.643898,0.666889,0.227416,0.258370,-0.236081,-0.936756
0.070070,-0.095723,0.801630,0.821858,-0.205945,-0.531165
0.060231,0.341460,0.738247,-0.487103,-0.871119,-0.062307
0.246286,-0.647426,0.549121,0.820419,0.476412,0.316140
0.420837,0.072830,0.539597,-0.523013,0.269979,0.808436
-0.047701,-0.279334,0.563705,0.441975,0.134593,0.886872
0.020680,0.000819,0.785562,0.977418,0.042641,0.206970
-0.107467,0.022023,0.654151,0.537109,0.765904,-0.353419
-0.430089,-0.651985,0.401824,0.239737,0.509616,0.826328
0.368168,0.448297,0.213757,-0.380315,0.090113,0.920456
0.048630,0.069347,0.013161,0.921792,0.201985,0.330911
0.055092,-0.823560,0.189321,0.542931,-0.213601,-0.812158
0.592452,0.097004,0.142723,0.073184,-0.584902,0.807796
-0.769451,0.769475,0.586937,0.750885,-0.202979,0.628467
0.311241,0.033752,0.776732,0.120226,0.471438,0.873666
-0.184562,-0.342074,0.412224,-0.388079,0.226978,0.893239
0.089992,0.153444,0.790902,-0.618580,0.783655,-0.056949
0.156758,0.490294,0.687052,0.785918,0.502919,-0.359730
0.054113,-0.102638,-0.959144,0.110702,-0.087463,-0.989998
0.159597,-0.734802,-0.128444,0.411388,0.560250,-0.718943
-0.736117,-0.045992,0.165408,-0.471717,0.266534,0.840501
0.047016,0.049117,0.829459,0.931525,0.289400,-0.220248
-0.080056,0.419821,-0.439129,0.644489,0.761380,-0.070250
0.416921,-0.115544,0.135012,0.707018,0.124553,0.696141
0.298710,0.190320,0.356115,-0.132349,-0.979923,-0.149114
0.130669,-0.131575,0.521815,0.785379,0.446303,-0.428944
0.417215,0.139155,0.529502,-0.119719,0.551019,0.825861
0.220881,-0.563175,-0.195719,0.955401,-0.029211,-0.293863
-0.837833,0.051780,0.426771,0.434462,0.293803,0.851424
-0.183045,-0.521485,0.124795,0.190807,0.372675,0.908133
0.623241,-0.311908,0.172852,-0.251220,-0.858342,0.447368
-0.745271,-0.019309,0.430238,-0.344503,-0.210319,-0.914923
0.074182,-0.100333,0.334793,-0.488870,-0.662769,0.567224
0.425047,-0.016799,0.652156,0.378717,0.323298,-0.867209
0.219707,0.176031,0.139208,0.022550,0.040243,0.998935
-0.462199,0.223047,0.533491,-0.276201,0.796182,0.538337
0.851392,0.166556,0.130487,0.374733,-0.260815,0.889691
-0.156171,0.055211,0.647084,-0.371493,0.888317,0.269975
0.122201,0.081997,0.626297,0.930420,0.098931,0.352890
0.357694,0.130858,0.659344,0.087891,-0.418513,0.903948
-0.358624,-0.199232,0.176707,-0.122921,-0.398858,0.908737
0.157542,0.257311,0.337773,-0.596157,0.391866,-0.700741
-0.394308,-0.069603,0.675728,-0.503911,0.039032,-0.862873
0.031743,0.587298,0.667263,-0.154413,-0.369506,0.916309
-0.752760,0.880973,0.580490,0.600833,0.409975,0.686236
0.367238,0.409373,0.587302,0.687564,-0.187312,0.701548
0.440417,0.487273,0.110953,0.794398,-0.501873,0.342132
-0.025135,0.073086,-0.295445,0.020493,-0.499108,0.866298
0.145647,0.548835,0.800462,-0.503394,-0.458773,0.732203
0.084167,0.676978,0.695761,-0.778318,0.627518,0.021036
0.381483,-0.416799,0.021091,0.831633,0.499129,0.243428
0.207273,0.387554,0.621395,0.122206,-0.807261,0.577404
-0.092636,0.537465,0.308958,0.097435,-0.824307,0.557696
0.686581,-0.629296,0.149182,0.124207,-0.277711,0.952601
-0.512421,0.220384,0.458821,0.673224,0.641374,0.367981
0.328911,0.183662,0.348598,0.122210,0.969894,0.210643
0.230279,0.079539,0.520878,0.351997,0.383404,-0.853873
0.081084,0.055826,0.692720,0.852997,0.497611,0.157414
0.771800,0.122868,0.286164,0.010896,-0.510111,0.860040
0.518686,0.658028,0.044469,-0.622730,0.757853,-0.194593
-0.190289,-0.612907,0.199659,0.801136,0.508024,-0.316373
0.702636,0.119744,0.146980,0.106407,-0.404364,0.908387
0.081426,-0.635954,0.014645,0.520623,0.066111,-0.851223
0.112557,0.539923,0.664733,0.491128,0.641052,-0.589784
0.317408,-0.012497,0.775613,0.492205,0.067388,-0.867867
0.342568,-0.388835,0.592653,0.750554,0.656678,0.073772
0.126019,0.164353,0.781889,-0.424704,-0.877858,0.221341
-0.067133,0.166351,0.820507,-0.437805,-0.348913,0.828606
-0.218679,-0.025045,0.859770,-0.402402,0.868077,0.290714
-0.175653,-0.773316,0.453141,-0.523147,-0.223925,-0.822299
0.388482,0.374853,0.754339,0.875192,0.046793,-0.481507
-0.003892,0.150371,-0.406264,0.996223,-0.015012,0.085525
-0.028170,0.194930,0.095931,0.894744,-0.446282,-0.016307
-0.097188,0.170141,0.786012,-0.265478,0.932703,0.244102
-0.557748,0.269757,0.456778,0.926848,0.272259,0.258511
0.068552,0.087068,-0.322265,0.108735,0.954438,0.277894
0.645562,0.871908,0.227221,-0.365117,-0.241137,-0.899190
0.985169,0.025455,0.266582,-0.723479,-0.361190,0.588319
-0.083189,0.673854,0.770346,-0.337964,0.877643,-0.339886
0.271739,0.484866,0.128298,-0.040088,0.292219,0.955511
0.510022,-0.611370,-0.067007,0.075412,-0.855731,0.511896
-0.829756,0.915800,0.565250,0.645564,0.759385,0.081125
-0.251916,-0.006607,0.182448,0.108627,0.345265,0.932197
0.097286,-0.716825,0.186876,-0.739613,0.206437,-0.640590
0.022003,0.292650,0.732202,0.135626,0.526932,0.839016
-0.048778,-0.073803,-0.959715,-0.058038,0.147831,0.987308
-0.303115,0.069501,0.537712,-0.632047,-0.370885,-0.680413
0.394454,-0.530704,0.012601,0.581804,-0.784604,-0.214243
-0.122201,-0.372292,0.287563,0.675545,0.133617,0.725111
0.773562,-0.643227,0.163364,0.374757,0.775611,-0.507923
-0.328031,0.021357,0.839190,-0.059974,0.994891,0.081215
0.784135,0.109142,0.135912,0.211303,-0.705827,0.676136
0.034484,0.267759,-0.526887,0.414890,0.909026,0.039215
-0.024009,0.485019,0.217466,-0.162670,-0.629861,0.759482
-0.091510,0.305147,0.885653,0.851543,0.498768,-0.161570
0.852224,0.662791,0.236319,-0.042971,-0.482876,0.874634
0.324017,0.267964,0.673709,-0.386229,0.921932,0.029484
0.757361,0.579821,0.221833,-0.704567,0.569934,-0.422801
0.268949,-0.219616,0.548282,0.929804,0.253941,-0.266417
0.355295,0.190218,0.673198,-0.022515,-0.838707,0.544117
0.078245,0.000717,0.820532,0.799834,0.557167,-0.223228
0.277955,-0.055416,0.430384,-0.242312,-0.671024,0.700722
-0.414083,-0.243841,0.621553,0.157182,-0.115786,0.980759
0.359064,-0.133316,-0.949583,-0.090057,0.037525,0.995229
-0.002325,0.244763,-0.106076,0.593141,-0.795484,0.124052
0.522504,0.144635,0.661072,0.473959,0.005685,-0.880528
0.308548,0.288246,0.318397,-0.793847,-0.073012,-0.603718
0.246873,-0.329475,0.337980,-0.183572,0.340751,0.922058
0.382266,0.535211,0.220167,-0.463600,0.638268,0.614564
0.857657,0.232522,0.144365,0.685928,0.176380,0.705969
0.836755,0.553035,0.515113,-0.774805,0.252371,0.579643
-0.168017,-0.125583,-0.333114,-0.146376,-0.453609,0.879098
0.063854,0.025557,0.713957,0.794212,0.473087,0.381335
0.074770,0.360051,0.820227,-0.560410,-0.347517,0.751780
0.080300,-0.284251,0.477346,0.256819,0.964774,-0.057047
0.138452,-0.602407,0.551493,-0.260878,0.520863,0.812801
-0.392056,0.107759,0.681153,0.708494,-0.662014,-0.244486
0.183044,0.272010,0.661655,-0.235845,0.932193,0.274580
-0.392888,0.064840,0.776695,-0.664962,0.020024,-0.746609
0.628527,-0.030576,0.229800,-0.302176,-0.720556,0.624091
-0.314716,-0.818694,0.117181,0.629746,0.432510,-0.645256
-0.434690,0.515134,0.720185,-0.045258,-0.397395,0.916531
0.245062,0.037746,0.776075,-0.515716,0.221940,0.827514
0.202819,-0.519898,0.335462,-0.681292,0.464565,0.565703
-0.141046,-0.340384,0.311427,-0.151714,-0.951228,0.268604
0.290340,-0.277439,0.404221,0.510137,0.761662,-0.399539
0.129298,0.488092,0.367865,0.891701,0.122935,0.435610
0.679630,0.692855,0.290701,0.802781,0.027761,0.595628
0.805673,-0.224789,0.020033,-0.126987,-0.966723,0.222082
-0.253384,-0.819565,-0.050623,0.062141,-0.776437,0.627123
0.522260,0.679539,0.578617,-0.195648,0.913367,-0.357048
-0.355491,-0.585096,0.126558,-0.282664,0.175661,0.942998
0.566900,0.436517,0.497573,0.101318,-0.348277,-0.931900
0.033310,0.352574,0.714140,0.505737,0.732449,0.455794
0.019066,0.379718,0.662337,-0.597603,0.024283,-0.801424
0.427788,0.552778,0.224679,-0.295873,0.567669,-0.768252
-0.672533,0.023406,0.594806,0.644088,0.293970,0.706210
-0.161164,-0.334545,0.103911,0.310283,0.231189,0.922104
0.236056,-0.766761,0.027611,0.335258,0.365921,-0.868161
-0.029003,0.349654,0.820495,0.259679,-0.947945,0.184300
0.842923,0.571933,0.524965,-0.736915,0.299616,0.605959
0.140507,0.452036,0.676045,-0.609346,-0.678807,0.409778
0.602731,0.715493,0.328760,0.487322,-0.417434,0.766985
0.470765,-0.140282,0.460524,0.640240,0.720531,0.266321
-0.691378,0.352727,0.353962,-0.092010,0.989257,0.113601
0.596417,-0.093675,0.461692,-0.082872,-0.194162,0.977463
0.075112,0.593649,0.820921,-0.719838,-0.687255,0.097538
-0.402090,-0.107657,0.657325,0.201590,-0.966096,-0.161304
0.039868,0.171319,0.681323,0.893427,-0.115255,0.434171
-0.307668,0.110423,0.775978,0.177769,0.955298,0.236231
-0.194156,-0.239437,0.472736,-0.316015,-0.035053,-0.948106
0.123180,-0.378028,0.185939,0.872868,-0.167486,0.458312
-0.067965,-0.583816,0.112303,0.258496,0.159718,0.952717
-0.997259,0.890243,0.554765,0.747493,0.027942,0.663682
-0.543748,0.660691,0.443277,0.104430,-0.602144,0.791528
-0.065371,-0.395647,0.410691,0.103489,0.259326,0.960229
-0.338849,-0.151549,-0.109007,0.188315,0.765405,0.615380
0.402775,0.506172,0.625993,-0.748526,0.175878,-0.639355
-0.721775,0.394725,0.401630,0.079652,0.353099,0.932189
-0.778409,0.110935,0.425421,-0.218612,-0.210747,-0.952783
0.021268,-0.209475,0.810047,0.778522,-0.626990,-0.028064
0.031058,-0.779411,0.255282,0.832694,0.054779,0.551018
-0.141193,0.155288,0.927410,0.296998,-0.938156,-0.177919
-0.842532,0.928348,0.595098,-0.592002,-0.542308,-0.596184
0.702489,0.642151,0.294010,0.751258,-0.037967,0.658916
-0.062189,0.027862,0.562464,0.670139,0.358592,0.649866
-0.028660,0.567734,0.805145,-0.150123,-0.430511,0.890013
0.138354,-0.120717,-0.954595,0.069191,-0.076134,-0.994694
0.575125,0.033086,0.372402,0.083634,0.752127,0.653690
0.016569,0.704789,0.721499,-0.083365,-0.791864,0.604981
0.170709,-0.788067,0.165931,0.268464,0.700823,-0.660888
0.702685,0.087273,0.556979,-0.198709,0.486208,0.850950
0.004625,-0.601383,0.244590,-0.608488,0.214494,-0.764025
-0.274726,0.427503,0.197738,0.903878,0.040044,0.425913
0.069434,0.308323,0.917947,0.891508,-0.120734,0.436619
0.231993,-0.083431,0.513775,-0.682646,-0.695827,-0.223202
0.535133,-0.414085,0.082661,-0.255649,-0.206472,0.944464
-0.247999,-0.519437,-0.019996,0.150017,-0.018638,0.988508
0.412810,0.396261,0.484510,-0.556125,0.820381,0.133040
-0.457648,0.583508,0.623949,0.869292,0.063461,0.490209
-0.007612,-0.907298,0.255209,0.162124,0.705241,0.690182
0.549867,0.569577,0.597470,-0.755916,0.170106,-0.632183
0.617612,-0.504379,0.088208,0.289006,0.594528,-0.750341
0.409481,0.477951,0.116183,0.797227,-0.461490,0.389174
-0.093860,0.501767,0.742553,0.762842,-0.621401,-0.178701
-0.355148,0.234417,0.794709,0.789174,0.146943,0.596332
-0.262880,-0.254699,0.615423,0.083447,0.387638,0.918027
-0.159108,-0.137670,0.414997,0.452244,-0.326213,0.830096
0.088132,0.033496,0.660524,0.536555,0.807283,0.245771
0.046134,0.597542,0.698875,0.155342,-0.829798,0.536007
-0.765829,-0.337004,0.315891,-0.386629,-0.165360,-0.907290
0.194106,0.399590,0.331387,0.399905,-0.592126,0.699616
0.417656,-0.077644,0.471033,0.889220,0.433726,0.145494
-0.013779,-0.821716,0.185307,0.208553,0.076555,-0.975010
0.605718,-0.577414,0.146993,0.770749,0.610509,0.182275
-0.010206,0.248809,0.046488,-0.664857,0.684457,-0.299139
0.563817,0.091677,0.548063,0.214997,-0.368807,-0.904299
-0.537972,-0.127017,0.707462,0.358573,0.665108,0.655024
-0.502533,0.037132,0.162233,-0.212848,0.479180,0.851517
-0.048680,-0.669859,0.245977,0.958181,0.140322,0.249396
0.435767,0.565634,0.323968,-0.282157,0.825812,-0.488285
0.154360,-0.798156,0.155154,0.508436,0.779403,-0.366092
0.111334,-0.024789,0.712680,0.685770,0.410982,0.600677
0.161604,-0.156312,0.002725,0.593750,0.565397,0.572528
0.055826,0.800307,0.726364,-0.014255,-0.729056,0.684306
-0.345212,-0.085583,0.675485,0.329410,0.149262,0.932314
-0.370420,0.138335,0.762513,0.761186,0.620371,0.189041
0.759368,0.183867,0.157562,-0.113255,0.485543,-0.866846
-0.466703,0.061357,0.783957,0.835561,-0.537082,0.115670
0.558726,0.735365,0.613136,0.981268,0.173474,-0.083789
-0.362540,0.006658,0.776403,-0.020385,0.830436,0.556741
0.892215,-0.259770,0.020556,0.539093,-0.659433,0.523954
0.467926,0.218643,0.137688,0.115401,0.041459,0.992453
0.550551,0.565787,0.214134,0.460950,0.212711,0.861556
0.710419,-0.601280,0.143052,-0.043914,-0.167035,0.984972
0.581830,-0.150986,0.452302,0.041719,-0.795107,0.605032
0.301843,-0.098745,0.415739,0.602800,0.797584,0.022196
0.073937,0.666837,0.687344,-0.068460,0.352832,0.933179
-0.031352,0.244763,-0.056474,-0.203981,0.977383,0.055809
0.829463,0.177465,0.285471,0.532585,0.111627,0.838983
0.400034,0.164558,0.660938,0.188828,0.710155,-0.678251
-0.535329,0.064328,0.558596,-0.001724,0.947243,0.320512
-0.021023,0.286453,-0.376574,0.964711,0.253516,-0.071155
-0.119460,-0.580128,0.422113,-0.479828,0.876077,-0.047475
0.433809,0.622894,0.055732,0.212300,-0.488760,0.846193
-0.074183,0.199078,0.901344,-0.660020,0.722427,-0.206089
-0.306690,-0.741306,0.116755,0.936544,0.007741,-0.350464
0.017841,0.175826,-0.350337,0.850275,0.515453,0.106492
0.079468,0.251626,0.612565,-0.308042,0.645849,0.698563
-0.409090,0.504686,0.746287,-0.182905,-0.584846,0.790254
-0.391958,0.508169,0.739719,-0.169782,0.720142,-0.672733
0.456374,0.116261,0.359253,0.498962,0.830976,0.245999
-0.649086,-0.340487,0.284498,-0.469783,0.307957,-0.827325
0.083335,-0.767990,-0.140279,0.364970,0.616370,-0.697771
0.408894,-0.088348,-0.949328,-0.092949,0.142605,0.985406
0.055337,0.286146,-0.955677,0.000501,-0.247466,0.968897
-0.787219,0.358668,0.409378,0.077714,0.419688,0.904335
-0.693874,-0.300487,0.188542,0.054642,0.121062,0.991140
0.580264,-0.283278,0.428280,-0.420907,-0.340816,0.840644
0.383636,0.462996,0.632719,-0.218493,0.879920,-0.421903
-0.287207,-0.685173,-0.025299,-0.538696,-0.463729,0.703393
0.291515,0.075083,0.530305,-0.320350,-0.236802,0.917225
0.731368,0.874878,0.216481,-0.505008,-0.266023,-0.821096
0.271200,-0.272113,-0.951104,-0.075587,0.065105,0.995012
-0.249811,0.010243,0.791814,0.874650,-0.228762,-0.427383
0.065518,0.118822,0.688998,0.957822,0.286616,0.020682
0.687804,0.716978,0.089631,0.661142,0.748562,-0.050453
0.108789,-0.087119,0.193517,0.534320,0.361795,-0.763941
-0.067623,-0.596569,0.415532,0.905670,-0.171210,0.387879
-0.610025,-0.191242,0.517850,-0.233857,0.086000,-0.968460
0.430823,0.530704,0.618768,0.788629,-0.506801,0.348161
-0.533714,0.269552,0.430420,-0.578245,-0.668168,-0.468172
-0.090531,0.170346,0.752867,0.911821,0.081749,0.402368
0.526665,0.082254,-0.496637,0.907944,0.397196,-0.133694
-0.047163,0.528963,0.592094,0.721293,0.513344,0.464989
-0.100419,-0.223560,0.660926,-0.507146,-0.571047,-0.645529
0.284221,-0.262484,-0.950800,-0.108922,0.059092,0.992292
0.111481,0.175570,0.725233,0.836382,-0.323786,-0.442298
0.140948,0.273854,-0.956784,0.310082,0.202514,-0.928890
0.634891,0.414853,0.492805,0.130614,0.988190,0.080129
0.276536,-0.026325,0.640418,0.160933,0.425127,0.890712
-0.154361,0.358105,0.873259,0.244726,0.947219,-0.207089
-0.618395,0.645941,0.445539,0.222163,-0.757004,0.614482
-0.709930,0.553086,0.538673,-0.607799,0.331790,-0.721454
-0.208253,-0.770960,-0.056656,-0.491039,0.495307,-0.716625
-0.680022,0.386223,0.404245,-0.303294,0.066075,0.950604
0.373748,0.426018,0.322557,-0.479764,0.228719,-0.847062
-0.213001,-0.556108,-0.360117,0.399146,0.601395,-0.692103
0.128124,0.548835,0.446062,0.996936,0.068870,-0.037091
-0.406055,-0.611472,0.385830,0.289713,0.591482,0.752473
0.117991,0.235647,-0.191060,-0.017600,0.987995,0.153483
-0.312709,-0.660589,-0.040613,0.486363,0.569946,-0.662278
0.147262,0.041076,0.760092,-0.344235,-0.493214,0.798901
-0.148976,0.194417,0.915928,-0.778151,0.553985,-0.295942
0.441200,0.583713,0.057411,0.213828,0.682397,-0.699008
-0.750606,0.567836,0.571368,0.803955,-0.343537,0.485426
0.175066,-0.199437,0.726875,0.256623,0.830234,0.494829
0.182407,-0.307554,0.509603,-0.520822,0.031085,0.853099
0.142074,-0.465198,0.210290,0.879516,0.304887,0.365370
-0.522260,0.087375,0.484534,0.181846,0.154980,0.971037
-0.180548,0.414238,0.789783,-0.653742,-0.062915,-0.754098
-0.206736,0.283227,0.921973,-0.746726,0.123685,-0.653531
-0.585355,0.079898,0.548185,0.284842,0.579318,0.763712
-0.316675,-0.402868,-0.355908,0.427202,0.064482,-0.901854
-0.298074,0.386940,0.703059,-0.151226,0.225784,-0.962368
0.496120,0.098335,0.378751,0.078625,0.513014,0.854772
-0.832449,-0.072574,0.138564,-0.702112,-0.329933,0.631017
-0.855797,-0.447887,0.177036,-0.038563,0.230749,0.972249
0.626716,0.862586,0.217527,0.319604,-0.188713,0.928569
-0.010695,-0.211985,0.557721,0.884012,0.027958,0.466628
0.200470,-0.122356,0.721523,-0.508660,-0.597826,-0.619571
-0.107957,-0.155595,0.351773,-0.569138,-0.267404,0.777545
-0.101006,0.534853,-0.992434,0.302634,-0.181608,-0.935645
0.229203,-0.441434,0.353962,0.819466,0.000623,0.573127
-0.871657,0.127939,0.426285,-0.539205,-0.091560,-0.837182
0.676350,0.033547,0.367950,-0.186183,-0.982358,-0.017573
0.340806,0.069347,0.770966,0.136534,0.413282,0.900309
0.301843,-0.358207,0.085666,0.841432,0.519811,-0.147612
0.341002,0.094955,0.474816,0.384811,0.080111,0.919512
0.407279,-0.396620,0.128030,0.664051,0.380035,-0.643902
0.718201,-0.074161,0.354704,0.547733,0.517282,-0.657577
-0.522211,0.664328,0.444384,-0.515740,0.773932,-0.367480
0.425438,0.488912,0.652959,0.934237,-0.194547,-0.298920
0.179960,0.500743,0.360384,0.893343,0.216334,0.393875
-0.049022,0.180999,0.821188,0.463429,0.410020,-0.785568
0.049316,-0.060538,0.823998,0.710008,0.339312,-0.617054
0.054602,-0.757593,0.196254,-0.679447,0.211673,-0.702529
0.369637,-0.970397,0.151298,-0.045475,0.533651,0.844481
0.204288,-0.479334,0.164739,0.886357,0.114513,0.448617
-0.542622,-0.211831,0.309335,-0.463417,0.326556,-0.823775
0.086762,0.401946,0.473940,0.869130,-0.058674,0.491091
0.020436,0.276876,0.149401,-0.018863,-0.995738,0.090279
0.041582,0.098694,0.938637,-0.475428,0.419901,0.773079
0.623926,0.509501,0.304859,-0.646949,0.723048,-0.242196
-0.428572,0.089629,0.777133,-0.520518,0.263851,-0.812061
0.663477,0.791652,0.237171,0.313887,0.133634,0.940009
-0.040408,-0.852190,0.329672,-0.602734,-0.403704,-0.688284
0.565677,0.509501,0.582680,-0.494676,0.766595,-0.409423
-0.558629,0.252958,0.398419,0.962539,0.268853,0.035176
-0.294550,-0.651216,-0.026637,0.298291,0.523759,-0.797935
-0.327101,-0.372292,0.641744,-0.270539,0.639119,0.719955
-0.023471,0.419667,0.762403,-0.115487,-0.235326,0.965031
0.322206,-0.212599,0.141495,-0.544726,-0.124977,0.829249
0.292690,-0.249117,0.756212,-0.808819,0.468903,0.354883
-0.322793,-0.082868,0.666326,-0.142842,0.987477,0.066973
-0.775521,0.766504,0.589503,0.866717,-0.219472,0.447921
0.589613,-0.265762,0.419802,0.150551,-0.421308,0.894335
0.541937,0.552727,0.102998,-0.714922,0.699008,0.016561
0.026212,0.147093,0.926619,-0.115641,0.604714,0.788003
-0.095181,-0.261152,0.411069,-0.304081,-0.284636,-0.909130
-0.259551,0.150013,0.744353,-0.413989,0.780247,-0.468857
0.468171,0.586376,0.661972,0.803739,-0.553617,-0.217969
-0.965345,0.924661,0.545399,-0.631150,-0.141002,-0.762737
-0.483296,0.459360,0.520890,0.499935,-0.188467,0.845308
0.366945,0.355851,0.750228,0.391138,0.393766,-0.831841
-0.353289,0.018284,0.844080,0.015324,0.993914,0.109087
-0.184023,-0.416440,0.462093,-0.430663,0.054458,-0.900868
-0.106782,-0.708323,0.321596,-0.277000,0.411544,0.868275
-0.811498,0.839334,0.601581,-0.737418,-0.230701,-0.634816
0.009520,0.185659,-0.226102,0.777555,-0.609535,-0.154516
-0.684378,0.371063,0.403795,-0.467482,-0.051704,0.882489
0.407768,0.337977,0.745010,0.766204,0.365052,-0.528837
0.308059,-0.293316,0.695785,-0.015805,0.490182,0.871477
0.114711,-0.622484,0.329940,0.904094,-0.259131,-0.339802
0.261606,-0.819052,-0.125379,-0.188128,0.409591,-0.892661
0.214371,0.295211,0.735973,-0.130616,-0.557784,0.819644
0.771996,-0.497977,0.101490,0.298848,-0.751171,0.588585
-0.056218,-0.513291,0.123347,0.136685,-0.294137,0.945939
0.567145,0.379821,0.490057,-0.121324,0.787667,-0.604037
0.270760,0.344277,0.737639,-0.221953,-0.369806,0.902209
0.392153,0.235954,0.464173,-0.188324,0.836039,-0.515338
0.337870,0.278259,0.554412,0.274996,0.546882,-0.790757
-0.017646,0.371268,0.925975,-0.368107,0.920396,-0.131790
0.080300,0.722100,0.402433,-0.203753,-0.244932,0.947889
0.602682,-0.013572,0.026346,0.155693,0.538853,0.827887
0.107809,-0.151242,-0.571562,0.999965,0.000467,0.008392
0.692797,0.152266,0.286006,-0.352237,0.524517,-0.775120
0.611298,0.471652,0.486943,0.287461,-0.848007,0.445253
0.282361,-0.013265,0.071836,0.066366,0.619817,0.781935
0.180841,-0.781511,-0.132385,0.509202,0.479231,-0.714878
0.658142,0.110474,0.541544,0.216317,-0.931122,-0.293632
-0.119411,0.527478,0.555337,0.006122,-0.891920,0.452152
-0.104922,0.097670,-0.967013,-0.084909,-0.015132,0.996274
0.517462,-0.593496,-0.071398,-0.403941,0.755427,-0.515909
-0.029149,0.165327,-0.426272,0.974584,-0.211074,0.075055
-0.300424,0.157490,0.331205,-0.585212,0.810224,-0.032629
0.020436,-0.192625,0.829617,0.691990,0.665471,0.279818
0.685699,0.091780,0.555300,0.354285,-0.423739,-0.833623
0.333268,0.115749,0.778909,-0.188306,0.584521,0.789225
-0.202917,0.223918,0.258517,0.205877,0.140672,0.968414
0.523385,0.139718,0.687101,0.555192,0.754085,-0.350882
0.609389,0.201588,0.146932,0.147566,0.428035,0.891633
-0.253971,0.501818,0.483342,-0.152021,0.144041,-0.977825
0.015394,0.235186,-0.214426,-0.816288,0.404889,0.411993
0.014954,0.483892,0.489692,-0.660944,-0.197802,-0.723897
0.003402,0.401946,-0.513313,0.038643,-0.999252,-0.001678
0.219315,-0.108323,0.586012,0.910336,0.408228,0.068101
-0.746739,-0.033086,0.507584,-0.175856,-0.872329,-0.456198
0.251083,0.434981,-0.515697,-0.136029,0.990400,0.024575
-0.048043,-0.258387,0.579906,0.664825,-0.156746,0.730369
0.098999,0.522458,0.449894,0.868540,-0.360163,0.340471
-0.372770,-0.470781,-0.355482,-0.148794,-0.229834,0.961788
0.274040,0.224072,0.810473,0.039507,0.999051,-0.018325
-0.071245,0.349245,-0.890750,0.247212,0.959828,0.132730
-0.754864,-0.346325,0.290580,0.861026,0.098958,0.498841
0.715020,0.627810,0.238959,0.553200,-0.629220,-0.545942
0.389999,0.530090,0.311695,-0.064774,0.991924,0.109046
0.390195,0.550525,0.038655,0.256097,-0.713031,0.652687
0.526958,0.642100,0.606738,-0.122562,-0.153196,0.980566
-0.164689,-0.295109,0.308241,0.192240,-0.739420,0.645215
-0.032087,0.270269,-0.367366,0.945373,0.314271,-0.086623
-0.337086,0.018233,0.828073,0.018356,0.989108,0.146043
0.161458,-0.089782,0.658602,0.105704,0.086059,0.990667
-0.099783,0.154878,-0.965833,0.244808,0.116817,-0.962509
0.020632,-0.202817,0.826844,0.775966,0.567494,0.275368
0.495583,0.604046,0.604427,-0.484371,0.101375,0.868969
0.832301,-0.157286,0.041781,0.127382,0.397842,0.908568
-0.009815,-0.031754,0.784942,-0.325003,0.319100,0.890252
-0.098706,0.655928,0.778374,0.331968,-0.930186,0.156691
-0.705769,0.797337,0.463942,-0.081531,0.222430,0.971534
0.038058,0.040922,-0.191218,0.912194,0.391370,-0.121373
-0.631905,0.108169,0.300505,0.445834,0.553213,-0.703696
0.668029,-0.568195,0.151785,-0.076295,-0.336585,0.938557
0.252943,0.399641,0.720282,0.317529,-0.813994,-0.486405
0.294843,0.247734,0.440601,-0.470062,0.567891,-0.675679
0.122592,-0.149910,-0.198042,-0.808552,-0.209757,0.549768
-0.068260,-0.218182,0.651961,0.509366,0.471368,0.719971
0.192540,-0.619513,-0.113398,0.310838,0.210981,0.926751
0.532490,0.542894,0.325585,0.507687,-0.759713,0.406312
-0.357107,-0.689936,-0.051888,-0.603231,-0.461064,0.650793
0.745319,0.467401,0.504786,-0.270816,0.316231,-0.909207
0.380650,0.523585,0.332312,-0.694801,0.522289,-0.494436
0.273648,0.189910,0.145083,0.027322,-0.197919,0.979838
0.643701,0.471549,0.505090,-0.056043,-0.835519,0.546596
0.019408,-0.292036,0.575041,-0.716430,-0.223788,-0.660793
0.904941,0.100896,0.393760,0.615519,0.087451,-0.783255
-0.412957,0.370551,0.378775,0.458196,0.388568,0.799419
0.339778,0.471549,0.331095,-0.572507,0.452277,-0.683872
0.056951,0.079846,0.672031,0.876211,0.479703,-0.046252
-0.045890,0.469808,0.671654,0.847394,0.030090,-0.530111
0.083042,-0.089321,-0.570091,0.864688,0.097985,0.492660
0.199246,0.382125,0.333710,0.399905,-0.592126,0.699616
-0.200813,0.081076,0.715174,0.055662,-0.948817,0.310881
-0.019016,0.554469,0.671617,0.296630,-0.112264,-0.948371
-0.331996,-0.566761,-0.368899,0.205316,0.244131,-0.947758
0.644289,-0.188271,0.444493,0.330998,0.680848,-0.653366
0.224258,-0.210602,0.538491,0.924454,0.221995,-0.310004
-0.177807,-0.132907,0.462604,-0.641318,-0.222208,-0.734394
0.654764,-0.376850,0.118336,0.357438,0.772770,0.524466
-0.271348,-0.409014,0.474378,0.009598,0.506905,0.861949
0.729166,-0.126709,0.360153,0.717494,0.670986,-0.187029
-0.638709,0.332292,0.403041,0.393643,0.918792,0.029433
0.070804,0.407375,0.651195,0.537025,-0.803082,0.258193
0.741012,-0.081332,0.352466,0.544049,0.627368,-0.557153
0.006143,0.300538,0.769701,0.880970,-0.413911,0.229281
0.130620,-0.245429,0.236928,0.821272,-0.395912,0.410811
-0.142270,0.307913,-0.969239,-0.542770,0.215696,0.811711
0.554076,-0.052855,0.458919,-0.156364,0.052031,0.986328
0.017841,0.131063,-0.547394,0.906215,0.415180,0.080002
0.480604,0.762510,0.084571,-0.011751,-0.843583,0.536871
0.050148,0.029501,-0.313507,-0.300050,0.407727,0.862397
0.194498,-0.893880,0.122253,0.729236,0.304955,0.612550
-0.175653,0.210141,0.774421,-0.180772,0.268356,0.946206
0.227685,0.311242,0.703521,0.927259,0.256541,-0.272723
0.261803,-0.179872,0.679742,0.585593,0.804503,-0.099274
0.246677,-0.791088,-0.121231,-0.122693,0.285180,-0.950589
-0.279278,0.147247,0.140145,-0.177993,0.692166,-0.699446
0.393377,-0.111344,0.448848,0.270974,0.831222,-0.485430
-0.921340,0.832574,0.518251,-0.534078,0.666252,-0.520452
-0.519029,0.171524,0.484218,-0.641473,0.662749,0.386362
0.311975,0.191959,0.668236,0.221824,0.964050,-0.146295
0.549475,-0.088707,0.460451,-0.273040,-0.395910,0.876758
0.106831,0.457977,-0.968789,-0.532824,0.234290,0.813146
0.889376,0.006812,0.246670,-0.026967,-0.655981,0.754295
0.794366,0.220538,0.285763,-0.417186,0.191194,0.888482
0.685749,0.105506,0.536994,0.932101,0.200896,-0.301377
0.015052,0.403329,0.760105,0.343415,-0.063915,0.937006
0.528672,0.446709,0.469306,0.914539,-0.280397,-0.291542
-0.273061,-0.518259,-0.022599,0.066825,-0.022136,0.997519
-0.665974,0.347042,0.403333,-0.341158,-0.939941,0.011042
-0.399888,-0.133624,0.672128,0.097160,-0.959125,0.265782
-0.140508,0.389398,0.806179,0.945741,0.311440,-0.092625
-0.208253,0.373316,0.841294,0.088758,-0.976903,0.194378
0.985462,0.120051,0.094618,0.931817,-0.282401,0.227960
-0.768227,0.395288,0.401022,0.077714,0.419688,0.904335
0.078881,-0.407939,-0.116767,-0.079507,-0.176067,0.981162
-0.714825,-0.186274,0.541154,-0.801095,-0.000361,-0.598537
0.789374,-0.423508,0.100979,0.251552,-0.687985,0.680734
-0.436501,0.018028,0.776403,0.267946,0.923646,-0.274014
0.057197,0.088656,0.789211,0.797835,-0.587130,0.136886
0.022443,0.253419,-0.590671,0.978835,0.184865,0.087787
0.407180,-0.464123,0.032743,0.824863,0.457989,0.331433
0.306836,-0.271908,0.778799,-0.797571,0.472042,0.375574
-0.801121,0.615365,0.488694,-0.372120,-0.014035,-0.928079
-0.623388,0.701255,0.461692,-0.359372,0.142613,-0.922233
0.036197,0.140589,0.939403,0.974201,-0.003966,-0.225646
0.324604,-0.073700,0.135535,-0.285322,0.052581,-0.956988
-0.090531,-0.329270,0.593882,-0.365908,0.812219,0.454325
0.104579,0.364712,0.403977,0.890252,-0.327453,0.316585
-0.012017,0.389245,0.728127,0.199023,0.679685,0.705988
0.754033,-0.162612,0.048130,0.002638,0.241845,0.970311
-0.222889,0.550935,0.662774,0.011441,-0.978311,0.206824
-0.610221,0.134392,0.315916,-0.087756,0.537039,0.838981
-0.583005,0.443534,0.378763,-0.325373,0.836107,0.441653
-0.364987,0.416953,0.610339,-0.122924,-0.988779,-0.084883
-0.858147,0.864789,0.599441,0.908211,0.235477,0.345981
-0.123866,-0.229859,0.646220,-0.355408,-0.788118,-0.502548
0.650212,0.577465,0.320611,-0.672410,0.369056,-0.641610
0.551678,0.538848,0.589759,0.022509,-0.639527,0.768439
-0.191708,-0.309962,-0.330426,-0.207952,-0.063655,0.976066
0.602095,0.028579,0.373484,0.142414,0.832500,0.535409
0.200910,-0.553188,0.358621,0.098908,0.562629,0.820771
-0.794122,0.759898,0.574311,0.864431,-0.082658,0.495909
0.705720,-0.131165,0.438205,-0.221152,0.966358,0.131319
-0.320493,0.161434,0.139780,-0.129515,0.614276,-0.778390
0.420887,0.026889,0.261850,0.135378,-0.626515,0.767562
0.226315,0.460333,0.647157,0.353916,-0.741734,0.569713
-0.016129,-0.552369,0.313641,0.974241,0.005661,0.225439
0.504882,0.626889,0.218537,-0.575236,0.483815,-0.659565
-0.327150,-0.028835,0.847947,0.071448,0.967338,0.243214
-0.043883,0.127580,0.823609,0.369185,0.437226,-0.820083
0.388042,-0.115134,0.177437,0.210445,0.977463,-0.016733
-0.635870,-0.263355,0.517156,-0.394247,-0.101388,-0.913395
-0.358281,0.103150,0.687223,0.333977,0.728055,0.598661
0.450158,0.137465,0.362233,0.201345,0.794348,0.573124
0.583348,-0.577567,0.058043,-0.494027,-0.820431,0.287803
0.549671,0.120051,0.271350,0.039688,-0.824461,0.564525
-0.233903,-0.802049,0.130572,-0.238714,-0.325153,0.915036
0.369686,0.370807,0.744694,0.610422,0.593040,-0.525060
-0.452116,-0.095570,0.504008,-0.296129,-0.089665,-0.950930
-0.128907,0.115544,0.551870,-0.464311,-0.425180,-0.776941
0.088230,0.594315,0.688025,0.924390,-0.098603,0.368483
-0.369882,0.422228,0.466168,-0.587432,0.257326,-0.767272
0.271005,-0.094699,0.388652,-0.701210,-0.264265,0.662170
0.664945,0.385864,0.501539,0.553532,0.761290,-0.337700
-0.220050,0.105147,0.780660,-0.332817,0.850259,0.407790
0.317213,-0.283944,0.144475,0.562452,0.555616,-0.612322
0.508798,-0.441588,0.153743,0.701009,0.393814,-0.594556
-0.704154,-0.356569,0.185088,-0.200213,-0.080996,0.976399
0.550601,-0.506837,0.148136,0.424085,0.432182,-0.795846
0.420201,0.253880,0.140534,-0.032450,0.243546,0.969346
-0.334786,-0.314008,0.084899,-0.449823,0.598461,0.662950
0.141339,0.655723,0.390355,-0.511796,0.359190,-0.780415
0.730732,0.209168,0.282564,0.116953,0.383133,0.916259
0.247950,-0.064738,0.137153,0.050684,0.052160,0.997352
0.211924,0.200410,0.687247,-0.341533,0.938508,0.050577
0.494261,0.122561,0.142784,-0.142699,-0.086094,0.986015
0.163611,-0.208656,-0.952734,0.144020,-0.120024,-0.982269
0.592648,0.836978,0.225762,0.022649,0.134892,0.990601
0.084951,-0.634161,0.023183,0.520623,0.066111,-0.851223
-0.086125,-0.441793,0.417552,-0.776115,0.168351,-0.607703
-0.822267,0.893419,0.610327,0.792406,0.320556,0.518976
0.489121,-0.513393,0.157246,-0.423729,-0.433296,0.795429
-0.036345,0.230935,0.868248,-0.483973,0.183645,-0.855596
-0.121467,-0.411063,0.413063,0.809397,-0.586984,-0.018041
-0.788492,0.860077,0.593456,-0.481285,-0.528015,-0.699689
-0.116131,-0.024994,0.757258,0.874716,0.192609,-0.444718
0.024450,-0.149347,0.520051,-0.177516,0.207867,0.961914
-0.016570,0.340282,0.772608,-0.652544,0.751316,-0.098545
0.063267,0.170602,0.866083,-0.167725,-0.781425,0.601035
0.033261,0.259565,0.787533,-0.397579,-0.701195,0.591824
-0.238650,-0.321383,-0.331764,0.370555,0.034979,-0.928152
0.313884,0.210602,0.512632,-0.103708,-0.364071,-0.925579
-0.887957,0.960512,0.527240,0.768736,0.469859,0.433909
0.360581,0.533675,0.338187,0.799649,-0.427816,0.421348
0.035708,-0.713700,0.222757,0.946893,0.204529,0.248116
0.476639,0.588323,0.600827,-0.051883,0.033471,0.998092
-0.046232,-0.640256,0.412297,0.968860,-0.207854,0.134562
0.061162,0.483175,0.486493,0.889720,-0.154672,0.429505
0.007318,0.774750,0.745594,-0.723927,0.563121,-0.398529
0.560635,0.152522,0.312376,-0.186624,0.409755,-0.892901
0.734502,-0.618335,0.163425,0.493377,0.336169,-0.802228
-0.246384,0.598873,0.404634,-0.639510,-0.093478,-0.763079
-0.044861,-0.485736,-0.285848,-0.241220,-0.851917,0.464813
0.620451,-0.182177,0.447583,0.260082,0.745681,-0.613447
-0.478450,0.537362,0.740899,0.006963,-0.830418,0.557098
0.034680,0.137209,0.374786,0.137378,0.574657,0.806782
-0.150983,0.628937,-0.993651,-0.186717,0.181269,0.965546
-0.016863,0.157490,0.824132,-0.411163,-0.530131,0.741557
-0.922416,0.960000,0.539403,0.546922,0.169475,0.819851
0.097531,0.242817,-0.958779,-0.142273,-0.169783,0.975158
0.657603,0.065711,0.143842,0.266298,-0.859405,0.436473
0.641596,0.664123,0.097938,0.773462,-0.555789,0.304722
-0.757557,0.839334,0.587034,0.619384,0.148065,0.770999
0.060133,-0.532190,0.018075,-0.620439,-0.232790,0.748909
-0.365819,0.312625,0.587180,-0.390097,0.463591,-0.795555
-0.122446,0.412907,-0.987338,0.292916,-0.419993,-0.858956
0.383049,-0.243944,0.141264,-0.498719,-0.629584,0.595738
-0.684330,-0.205378,0.152636,0.794630,0.606005,0.036347
0.797939,0.099411,0.147114,0.198074,-0.480664,0.854242
0.582417,-0.511037,0.148890,0.432986,-0.838113,-0.331797
-0.881251,0.106479,0.435164,0.634385,0.118195,0.763928
-0.583152,0.630986,0.521912,0.588363,0.310472,0.746617
