0.242257,0.832514,-0.822368,0.806371,-0.520885,-0.280078
0.220369,0.763212,-0.599406,0.584822,-0.811067,-0.012375
0.204335,0.775481,-0.669491,0.853776,-0.488176,-0.180972
0.252764,0.794926,-0.654338,0.508263,-0.834312,-0.213522
0.234050,0.805584,-0.742694,-0.018254,0.884350,0.466467
0.405385,0.756731,0.758609,-0.484662,0.870657,0.084020
0.391267,0.767041,0.696535,-0.550131,-0.781120,-0.295309
0.184416,0.723190,-0.502369,0.026563,0.996943,-0.073473
0.469519,0.771434,0.797716,0.440333,0.894370,-0.078793
0.357887,0.785921,0.902607,-0.250218,-0.685621,-0.683604
0.352960,0.809282,0.910855,0.326439,0.826013,0.459500
0.348966,0.835906,0.929323,0.938826,-0.065020,0.338199
0.270494,0.778700,0.420575,0.794010,-0.127937,-0.594290
0.147971,0.698697,-0.358371,-0.225764,0.968562,0.104487
0.084327,0.644665,-0.111889,-0.181179,0.971731,0.151372
0.086134,0.554397,0.092644,0.926518,0.145453,-0.346998
0.083671,0.584675,0.123227,0.885782,0.418557,-0.200499
0.083616,0.619696,0.173502,-0.607725,0.790754,0.073337
0.069171,0.636575,0.668359,0.405289,-0.673351,-0.618336
0.069224,0.669942,0.716069,0.831817,0.415049,0.368531
-0.006621,0.551264,0.164662,-0.855303,0.366475,-0.366268
0.060141,0.687691,0.694680,0.876147,-0.044068,0.480026
0.005308,0.768824,0.530675,0.122133,0.388096,0.913490
0.006459,0.498191,-0.062206,-0.021013,0.532977,0.845869
0.041317,0.586589,0.239641,0.516262,0.817130,0.256460
0.020467,0.623915,0.186801,0.114796,0.966683,-0.228792
0.011165,0.808586,0.400055,-0.368235,-0.158526,0.916118
-0.060413,0.511546,0.206058,-0.744878,0.456293,-0.486779
-0.004049,0.635444,0.664058,-0.376045,0.780343,-0.499654
-0.052260,0.592680,0.360987,0.079292,0.951564,0.297049
-0.077925,0.853830,0.427323,0.087331,-0.172652,-0.981104
0.047773,0.616780,0.730117,0.209593,0.874868,0.436666
0.036938,0.631701,0.696811,-0.471611,-0.875576,0.104642
-0.031300,0.523161,0.199784,0.779732,-0.441173,0.444279
0.033546,0.659588,0.718239,-0.252709,0.847485,-0.466805
-0.058442,0.618565,0.196587,-0.451996,0.882132,-0.132451
0.083726,0.595159,0.683749,0.649913,0.751835,-0.111158
-0.015266,0.433110,-0.045869,-0.219530,0.657609,0.720664
-0.075572,0.510720,0.573413,0.391171,0.250234,-0.885646
-0.121209,0.435155,0.240825,-0.180788,0.356952,0.916461
-0.078581,0.539998,0.599024,0.539915,0.495031,-0.680762
-0.115299,0.547740,0.425982,-0.444446,0.891954,-0.082985
-0.124603,0.565969,0.404672,0.298914,-0.529677,0.793784
-0.135000,0.584153,0.378430,0.084950,0.862185,0.499420
-0.025171,0.505020,0.582489,-0.578640,-0.416282,0.701345
-0.093411,0.494406,0.224803,-0.093703,0.536214,0.838865
-0.081864,0.580847,0.403646,0.800383,-0.418000,0.429724
-0.091113,0.600554,0.384428,0.945496,0.240458,0.219584
-0.108351,0.677119,0.196035,0.449726,0.833185,0.321790
-0.112728,0.864662,0.435453,0.812991,0.406620,0.416780
-0.129583,0.938270,0.453921,0.230870,-0.322372,0.918028
-0.131552,0.966025,0.482215,-0.481775,0.263024,-0.835889
-0.094232,0.437417,0.592315,0.801021,-0.436792,0.409363
-0.107858,0.447510,0.538094,0.728116,0.057435,-0.683044
-0.153714,0.404006,0.250374,-0.242584,0.735791,0.632269
-0.118419,0.497582,0.554826,0.622450,0.689610,-0.370128
-0.145672,0.520639,0.451237,0.987638,-0.103417,-0.117795
-0.149885,0.548262,0.468088,0.337397,0.914540,0.223115
-0.159571,0.567143,0.446068,-0.250469,0.803298,0.540349
-0.059319,0.470131,0.598313,0.425444,-0.809642,-0.404323
-0.163674,0.448249,0.520454,0.431653,-0.688341,-0.582977
-0.171719,0.469479,0.510115,-0.654210,0.653901,0.380031
-0.174072,0.498931,0.539159,-0.247157,-0.468604,0.848129
-0.173744,0.532645,0.587895,-0.684259,0.413274,-0.600828
-0.194429,0.533211,0.485017,-0.474530,0.814741,-0.333194
-0.187644,0.576409,0.578937,0.823247,0.403200,0.399618
-0.228467,0.580673,0.380639,-0.376791,0.727477,0.573416
-0.146874,0.466346,0.515956,0.264561,-0.539846,-0.799108
-0.152565,0.490447,0.521046,0.886284,-0.460834,-0.046185
-0.153442,0.523509,0.562126,0.729030,0.668186,0.148465
-0.155356,0.553092,0.593420,0.833548,-0.403651,0.377177
-0.177903,0.551351,0.479058,-0.237324,0.969095,0.067315
-0.206031,0.575843,0.372826,-0.087579,0.642045,0.761648
-0.240396,0.415752,0.478190,0.998456,-0.055146,0.006599
-0.251778,0.430151,0.441845,0.921476,-0.386534,0.038379
-0.243297,0.477787,0.550091,0.760688,0.183984,0.622498
-0.248111,0.504281,0.563153,0.421518,-0.906242,0.032365
-0.345955,0.587590,0.191734,-0.099035,0.976932,0.189196
-0.190708,0.427063,0.516587,0.727383,-0.476930,-0.493409
-0.199573,0.445508,0.498158,0.738383,-0.571139,-0.358595
-0.214676,0.455122,0.435808,-0.702667,0.550976,0.450205
-0.214621,0.524640,0.533240,0.754879,-0.621147,-0.210558
-0.299332,0.594201,0.205545,0.068167,-0.986863,-0.146473
-0.343767,0.404702,0.573334,0.990749,-0.041616,0.129169
-0.341414,0.442985,0.636710,0.985122,-0.166770,-0.041493
-0.378132,0.450511,0.469351,-0.583446,0.260742,0.769159
-0.410966,0.500148,0.377917,0.501185,-0.689916,-0.522330
-0.287403,0.420276,0.539436,0.729450,-0.655743,0.194688
-0.271259,0.482051,0.703875,-0.559214,0.828880,-0.015373
-0.441993,0.422060,0.796730,0.919196,-0.309675,0.243268
-0.503063,0.423408,0.513470,0.772465,0.498347,0.393635
-0.628433,0.607340,0.166833,0.225909,0.682409,0.695185
-0.397230,0.430848,0.740220,0.980623,-0.145248,0.131457
-0.817828,0.413446,0.572860,-0.210899,0.452676,0.866375
-0.839061,0.449075,0.523966,0.800873,0.538659,-0.261628
-0.754514,0.404440,0.589711,0.947681,0.196892,0.251264
-0.765841,0.452773,0.598708,0.661523,0.675240,-0.326249
-0.880595,0.584283,0.506366,0.728282,-0.525247,-0.440138
-0.844752,0.633050,0.471639,0.830311,-0.549760,-0.091364
-0.948177,0.405094,0.553879,-0.407770,0.224278,0.885112
-0.926288,0.423234,0.527045,-0.611737,0.790136,0.038242
-0.947247,0.426149,0.440543,0.954040,0.201248,0.222054
-0.958519,0.443986,0.413748,0.988711,-0.122919,-0.085678
-0.957754,0.508458,0.493817,0.148992,-0.914268,0.376716
-0.923442,0.483269,0.440346,0.879262,0.074880,-0.470416
-0.927875,0.508370,0.451711,0.961658,0.225724,-0.155765
-0.930174,0.536299,0.474757,0.976947,-0.168990,-0.130452
-0.840320,0.362373,0.563508,-0.144260,0.537886,0.830583
-0.839662,0.335880,0.577398,0.650513,0.493656,-0.577180
-0.901717,0.397002,0.612283,-0.631945,0.731705,0.255447
-0.899528,0.361069,0.574478,-0.593106,-0.768539,-0.239945
-0.731257,0.381949,0.544960,0.581594,0.674441,0.454838
-0.729342,0.244392,0.628897,-0.656132,0.627581,0.419087
-0.730163,0.205240,0.691721,-0.880107,0.410598,0.238370
-0.840757,0.389911,0.548473,0.508385,0.035312,-0.860405
-0.620498,0.373336,0.650838,0.241773,0.932782,-0.267325
-0.615683,0.357370,0.536989,0.390782,0.919812,0.035155
-0.617106,0.315173,0.608455,0.784036,0.571191,0.242959
-0.617433,0.281327,0.648865,-0.421451,0.586946,-0.691283
-0.615902,0.265535,0.622741,0.753637,-0.534670,0.382309
-0.615409,0.240434,0.633514,-0.680881,0.449703,-0.578073
-0.613275,0.228688,0.587659,-0.706876,0.561822,-0.429748
-0.608405,0.036621,0.628305,-0.381530,-0.860928,-0.336508
-0.598664,0.078514,0.343900,-0.448201,0.438826,-0.778812
-0.601839,0.026180,0.470219,0.246814,0.956916,0.152953
-0.598774,0.019046,0.398634,-0.253748,-0.848470,0.464447
-0.607420,-0.096456,0.718318,0.711071,0.412695,0.569264
-0.606872,-0.121252,0.728065,0.762743,0.493324,0.418156
-0.598227,-0.117816,0.500881,-0.537323,-0.651484,-0.535586
-0.604300,-0.185463,0.712083,0.812058,0.528677,-0.247109
-0.599212,-0.152053,0.552537,0.260175,0.938444,0.227226
-0.674018,0.384125,0.527558,-0.123807,-0.601199,0.789451
-0.675659,0.278063,0.671911,-0.586080,0.731570,0.348303
-0.674948,0.254703,0.672424,-0.547442,0.210294,0.809990
-0.674564,0.227035,0.690103,0.861731,-0.346237,0.370863
-0.672759,0.213897,0.650680,-0.062182,-0.290936,0.954720
-0.671499,0.195060,0.636592,0.069347,-0.468173,0.880911
-0.497865,-0.070223,0.631462,0.732391,0.265752,0.626881
-0.498138,-0.099370,0.659559,-0.442466,0.371099,-0.816400
-0.488945,-0.071615,0.427284,0.005733,-0.073672,0.997266
-0.497975,-0.179025,0.715635,-0.064819,0.809776,0.583148
-0.488015,-0.229140,0.522704,0.430883,0.403033,0.807406
-0.495730,-0.376399,0.813462,0.845860,0.047852,0.531255
-0.494089,-0.494728,0.866499,-0.402147,0.617988,0.675550
-0.562821,0.383646,0.580319,0.609876,-0.179503,-0.771901
-0.564573,0.340970,0.655849,-0.052393,0.718289,0.693770
-0.563314,0.323263,0.637776,-0.239184,0.827879,-0.507354
-0.560468,0.316782,0.572821,0.615376,0.693563,0.374543
-0.560304,0.289201,0.593183,0.848002,-0.172049,0.501290
-0.552806,0.201151,0.482373,-0.513196,0.824535,-0.238270
-0.552861,0.171568,0.506682,-0.491826,0.865958,0.090686
-0.545693,0.107053,0.385375,0.703810,-0.094436,-0.704083
-0.552861,0.030139,0.620452,0.361773,0.247021,-0.898944
-0.554284,-0.006099,0.682408,-0.849770,0.334073,-0.407782
-0.553190,-0.027459,0.675186,-0.542960,0.005702,-0.839739
-0.544379,0.004472,0.433361,0.378995,0.860151,0.341325
-0.550125,-0.062740,0.630475,-0.756706,0.477833,-0.446175
-0.550453,-0.092236,0.659835,0.779833,0.093619,0.618948
-0.550563,-0.121600,0.689590,0.968207,0.080763,-0.236755
-0.550672,-0.174195,0.730828,0.483021,0.655791,0.580197
-0.550727,-0.201298,0.753400,0.336919,0.764398,0.549710
-0.538469,-0.209434,0.461813,0.437695,-0.821299,-0.365912
-0.474498,0.377730,0.727000,-0.745166,-0.592584,0.305896
-0.474060,0.352889,0.733195,0.966870,0.255094,0.009417
-0.472092,0.283154,0.740022,0.730581,0.514854,-0.448527
-0.462733,0.323133,0.498000,-0.200120,0.788715,0.581275
-0.457425,0.332008,0.369472,-0.778634,-0.591769,0.208657
-0.466181,0.241217,0.636395,0.830240,0.136163,0.540519
-0.466126,0.212982,0.655968,0.213879,-0.096059,0.972126
-0.464102,0.199454,0.620531,0.666303,0.059184,-0.743329
-0.463663,0.175396,0.627871,0.762873,-0.452619,-0.461693
-0.462952,0.152079,0.628068,0.778197,0.005065,-0.628000
-0.462843,0.125106,0.647878,0.803743,-0.282579,-0.523590
-0.459615,0.118320,0.578898,0.439703,-0.186649,-0.878535
-0.457863,0.073294,0.572466,0.835253,0.469932,-0.285511
-0.453047,0.076905,0.459603,-0.531857,-0.819828,0.212156
-0.452063,0.055502,0.454829,0.030154,0.988720,0.146710
-0.456111,0.002819,0.584028,0.498060,-0.090108,0.862448
-0.454854,-0.017106,0.573531,-0.373126,0.376113,-0.848125
-0.445934,0.008997,0.350372,-0.625512,-0.700215,0.344142
-0.451078,-0.050342,0.512641,0.819523,0.425870,0.383428
-0.453977,-0.094802,0.610270,0.909798,0.071227,0.408895
-0.453758,-0.119469,0.621912,0.519291,0.411076,0.749236
-0.450037,-0.125124,0.544132,-0.345969,0.861481,-0.371694
-0.446646,-0.185899,0.507156,0.573643,0.812838,-0.101132
-0.439421,-0.202429,0.357278,-0.611693,0.790877,0.018594
-0.443909,-0.251806,0.493778,-0.046634,0.614478,0.787555
-0.507988,0.395219,0.512049,0.799815,-0.050400,0.598127
-0.511545,0.338925,0.636079,-0.341334,-0.090122,0.935612
-0.511218,0.312693,0.646734,-0.386418,-0.259383,0.885100
-0.507442,0.312214,0.558180,0.224921,0.793805,0.565053
-0.508591,0.274758,0.616466,-0.059079,0.787646,-0.613289
-0.509247,0.242652,0.654389,-0.448974,0.496933,-0.742617
-0.508427,0.219727,0.653008,0.085107,-0.085788,-0.992672
-0.504486,0.219509,0.563902,0.897490,0.438997,0.042338
-0.504267,0.192928,0.576570,0.940855,0.152476,-0.302560
-0.504212,0.163999,0.600721,-0.576295,0.365198,0.731105
-0.503501,0.141159,0.598669,-0.338253,-0.376943,0.862264
-0.502298,0.121844,0.586001,0.291533,-0.573763,0.765379
-0.500876,0.103572,0.568638,0.979044,0.093593,-0.180865
-0.499069,0.087563,0.537739,0.998756,0.006220,0.049471
-0.496333,0.077601,0.483912,-0.245220,0.867106,-0.433583
-0.499616,0.000470,0.617295,-0.588496,-0.355829,-0.725987
-0.499287,-0.025502,0.630357,0.894139,-0.124271,0.430200
-0.498194,-0.045035,0.618715,0.783820,0.061321,0.617953
-0.486976,0.024266,0.306135,0.550421,0.449359,0.703643
-0.370910,-0.143526,0.656284,-0.730392,-0.609651,-0.307982
-0.371566,-0.174544,0.695154,0.361164,0.757609,0.543681
-0.362591,-0.152749,0.483478,-0.560412,-0.816247,0.140280
-0.358323,-0.184463,0.410157,-0.291804,0.931070,0.218996
-0.358979,-0.214697,0.444292,0.046793,0.958373,0.281660
-0.363685,-0.289740,0.600326,0.562082,0.118485,-0.818550
-0.362646,-0.310970,0.591289,0.086087,-0.150792,0.984810
-0.434168,0.391042,0.783234,0.677316,-0.655281,0.334441
-0.427985,0.379818,0.655100,-0.262718,0.560575,-0.785325
-0.429461,0.342275,0.712320,0.000941,0.821503,0.570203
-0.423772,0.324742,0.600484,0.925380,-0.333826,0.179535
-0.427985,0.267232,0.733235,-0.352756,-0.172829,-0.919616
-0.429627,0.228557,0.797953,0.443576,0.797193,0.409541
-0.423224,0.217247,0.664373,-0.367595,0.026108,0.929619
-0.419886,0.212722,0.592355,0.307283,0.920507,-0.241337
-0.421253,0.174831,0.651824,-0.440723,0.843533,0.306946
-0.417040,0.174221,0.558851,-0.306813,0.727276,0.613951
-0.417641,0.142290,0.593262,-0.104158,-0.078317,0.991472
-0.418080,0.112099,0.626371,-0.462868,-0.711656,0.528487
-0.417478,0.089303,0.628463,0.937410,-0.265613,0.225192
-0.416658,0.066029,0.628502,-0.616899,-0.270421,-0.739126
-0.412005,0.068248,0.522664,0.243957,0.958602,0.146862
-0.412882,0.034229,0.569388,0.844447,-0.437684,-0.308776
-0.413045,0.006038,0.590697,0.757100,-0.653267,0.006410
-0.404672,0.027790,0.389400,-0.084938,-0.957584,0.275350
-0.408832,-0.024022,0.520612,0.951585,0.200624,-0.232886
-0.409871,-0.056432,0.566901,-0.389590,0.604543,0.694800
-0.406806,-0.066612,0.508024,0.969459,0.223830,0.100249
-0.402811,-0.070267,0.420062,0.854517,0.446739,0.264999
-0.414139,-0.159970,0.733511,0.197498,0.861536,0.467708
-0.400951,-0.115553,0.412130,0.936674,-0.223454,0.269647
-0.400896,-0.142569,0.429573,0.866864,0.433014,0.247075
-0.401225,-0.170498,0.455065,0.293129,0.338046,0.894315
-0.401499,-0.198035,0.479887,-0.258594,-0.961000,-0.098025
-0.400514,-0.220614,0.476296,0.352162,-0.684316,-0.638509
-0.401280,-0.250065,0.512838,-0.394630,0.831940,0.390054
-0.403414,-0.287739,0.587146,-0.709333,-0.145585,0.689675
-0.401499,-0.304662,0.557430,0.810230,0.219211,-0.543575
-0.348036,0.322090,0.731459,0.967368,0.135365,0.214184
-0.347707,0.296553,0.740693,0.746568,0.084545,0.659915
-0.347324,0.270321,0.752729,0.895882,0.441437,-0.050284
-0.345901,0.253180,0.732485,0.931086,-0.156535,0.329509
-0.344916,0.232647,0.725856,0.983849,-0.142811,-0.107917
-0.345409,0.202020,0.756044,0.703344,0.710073,0.033219
-0.344752,0.180095,0.755531,0.208945,-0.673543,0.709001
-0.343274,0.161301,0.738405,-0.270140,-0.311097,0.911177
-0.326857,0.264404,0.317500,0.936680,-0.225462,0.267952
-0.329594,0.189360,0.429336,-0.128366,-0.600672,-0.789123
-0.330524,0.130283,0.486951,0.276916,0.044058,0.959884
-0.333370,0.084910,0.580832,-0.368526,0.814014,-0.448965
-0.327678,0.063506,0.474402,0.202253,-0.346556,-0.915965
-0.327733,0.035621,0.493778,-0.001424,0.578471,0.815702
-0.327296,0.010041,0.503525,0.473424,0.392254,0.788674
-0.326803,-0.013712,0.509050,-0.761286,-0.319459,0.564260
-0.326037,-0.035725,0.507037,-0.229929,-0.157442,0.960388
-0.324722,-0.056302,0.494094,0.776703,-0.348824,0.524457
-0.324504,-0.081360,0.506485,-0.686069,0.011786,0.727441
-0.323465,-0.103721,0.501986,0.389972,0.436777,-0.810646
-0.326693,-0.147267,0.598669,0.675836,0.712874,0.187233
-0.331017,-0.196078,0.723133,-0.376332,-0.926162,0.024472
-0.315310,-0.142308,0.353055,0.743169,-0.668182,0.035102
-0.319963,-0.191814,0.485885,0.855252,0.378593,0.353853
-0.322261,-0.229749,0.559483,0.787703,0.454276,-0.416121
-0.320783,-0.248108,0.539594,0.934848,0.316965,0.159976
-0.389953,0.391652,0.694325,0.930467,0.290633,-0.223077
-0.390991,0.354717,0.745626,0.869275,0.190073,0.456326
-0.390335,0.332400,0.745981,-0.201966,0.359426,0.911056
-0.388530,0.318175,0.715516,0.836094,-0.531809,0.134635
-0.380375,0.345668,0.520020,-0.573047,0.812318,0.108428
-0.386669,0.275149,0.706243,-0.694903,-0.307487,-0.650047
-0.387655,0.240390,0.751664,0.281624,-0.458987,-0.842626
-0.388147,0.209677,0.782760,-0.665674,-0.570307,-0.481277
-0.388201,0.181138,0.805254,-0.572273,-0.612448,-0.545354
-0.380212,0.207067,0.611099,0.870064,0.178954,-0.459309
-0.379500,0.184837,0.610349,0.166113,-0.071055,-0.983543
-0.368829,0.223598,0.354081,0.808338,-0.169767,0.563709
-0.367845,0.202804,0.345479,0.884142,-0.149968,0.442497
-0.366694,0.180443,0.337862,0.913211,-0.173641,0.368639
-0.364834,0.163520,0.307910,0.976738,-0.147601,0.155557
-0.364889,0.134808,0.328391,0.999549,0.025797,-0.015363
-0.364288,0.110315,0.334863,0.965289,-0.120833,-0.231554
-0.363740,0.086911,0.337231,0.951927,-0.121086,-0.281376
-0.362755,0.064115,0.333679,0.998107,-0.025626,0.055908
-0.369268,-0.000444,0.520770,-0.309844,-0.392347,-0.866061
-0.369049,-0.026329,0.532530,0.071830,0.494435,0.866241
-0.360786,-0.007970,0.341730,0.511598,-0.496318,-0.701381
-0.361770,-0.041120,0.385809,0.903430,-0.216177,-0.370245
-0.250519,-0.207824,0.655336,-0.042468,0.655776,0.753760
-0.248385,-0.222789,0.620176,-0.760801,-0.247431,0.599966
-0.246688,-0.239973,0.595591,-0.712705,0.676671,0.184845
-0.243405,-0.302400,0.568006,0.562308,0.507523,0.652863
-0.299935,0.393130,0.599379,-0.427220,-0.256322,-0.867054
-0.298894,0.373249,0.589040,0.349719,0.559062,0.751762
-0.302014,0.325352,0.686038,-0.244274,-0.737893,-0.629162
-0.302067,0.269885,0.725066,-0.344270,-0.231901,0.909780
-0.301958,0.242392,0.742509,0.620355,-0.586064,-0.521239
-0.301740,0.216159,0.754860,-0.676161,0.057702,-0.734491
-0.300810,0.194624,0.749138,0.192199,0.304794,0.932824
-0.282149,0.310474,0.282655,-0.559092,0.680571,-0.473540
-0.300207,0.172438,0.749928,-0.246647,-0.688741,0.681763
-0.282149,0.282893,0.300847,-0.492692,0.480174,-0.725732
-0.295447,0.175353,0.647444,-0.130585,0.820209,0.556961
-0.298019,0.131415,0.732209,-0.510944,0.761672,0.398487
-0.295501,0.120234,0.686314,-0.226047,-0.924144,0.307994
-0.288826,0.131110,0.542593,0.993479,-0.066527,0.092599
-0.288989,0.103094,0.562482,0.768276,-0.513377,0.382357
-0.284338,0.102224,0.466194,-0.908404,0.410095,0.081390
-0.284009,0.076905,0.478309,0.638004,-0.713803,-0.288853
-0.285214,0.043973,0.524045,0.109184,-0.204682,0.972720
-0.282861,0.028921,0.487148,0.065596,0.238015,0.969044
-0.282313,0.005951,0.489358,-0.586347,-0.473339,-0.657379
-0.282149,-0.020368,0.502499,0.171120,-0.221768,0.959967
-0.281712,-0.045992,0.513193,-0.095856,0.271311,0.957707
-0.280671,-0.067308,0.504117,0.164772,0.459942,0.872527
-0.280726,-0.094107,0.524598,0.400990,0.238650,-0.884451
-0.278373,-0.107940,0.484544,0.846996,-0.450922,-0.281546
-0.276020,-0.123689,0.448278,0.867530,-0.429075,-0.251569
-0.281656,-0.177415,0.600444,-0.522993,-0.818165,0.238922
-0.279632,-0.193729,0.567178,0.377392,0.515310,0.769435
-0.276950,-0.207737,0.522349,-0.575819,0.701042,0.420682
-0.280234,-0.249674,0.617216,-0.251282,0.948011,-0.195275
-0.277059,-0.260159,0.557352,-0.131710,-0.214568,-0.967788
-0.346010,0.392565,0.637697,0.866366,0.420587,0.269289
-0.346502,0.361764,0.668754,0.709421,0.660333,0.246337
-0.212378,0.203543,0.451593,-0.684040,0.408881,0.604074
-0.210407,0.188143,0.420694,0.995099,0.098509,-0.008573
-0.225621,0.073512,0.806003,0.961682,-0.260274,0.086174
-0.207617,0.176266,0.370932,0.969587,-0.145109,0.197088
-0.227919,0.034141,0.880153,-0.025822,0.557169,0.829997
-0.206249,0.155776,0.359843,0.988502,0.116137,-0.096830
-0.204935,0.135025,0.345834,0.973540,0.226015,0.033729
-0.205975,0.101615,0.387388,0.974178,0.106446,0.199116
-0.206961,0.067899,0.431546,0.551894,0.631416,0.544726
-0.207781,0.036969,0.468364,0.765662,0.631254,0.123610
-0.206194,0.019046,0.448949,0.847475,0.522209,0.095310
-0.191364,0.097525,0.095288,-0.100268,0.329521,0.938809
-0.196837,-0.014539,0.281313,-0.867926,0.495858,0.028785
-0.206194,-0.116380,0.539751,-0.546061,-0.248250,-0.800118
-0.206249,-0.142177,0.556326,-0.484735,-0.678464,-0.552013
-0.206139,-0.167888,0.573294,-0.114267,0.461820,0.879582
-0.204771,-0.187551,0.557115,0.276034,0.262955,-0.924478
-0.205154,-0.214959,0.582686,-0.104821,-0.001002,0.994491
-0.264145,0.364636,0.555536,-0.290103,-0.952059,0.097081
-0.267101,0.317130,0.647918,-0.389360,-0.920531,-0.031964
-0.267865,0.229254,0.722975,0.739904,0.506657,0.442539
-0.249534,0.344407,0.264068,0.464034,-0.171527,0.869052
-0.266115,0.213332,0.698784,0.700555,-0.631634,0.332056
-0.249207,0.318087,0.277564,-0.813766,-0.040198,-0.579801
-0.266224,0.185271,0.718792,0.930378,-0.224052,0.290169
-0.248221,0.295422,0.271408,0.871388,-0.077000,0.484514
-0.265022,0.166521,0.704743,0.889782,-0.148056,-0.431703
-0.247673,0.271626,0.273578,0.923251,-0.024502,0.383414
-0.264693,0.141159,0.714451,-0.750167,0.227625,0.620835
-0.246525,0.250178,0.262884,0.865585,0.105965,-0.489422
-0.266663,0.102311,0.779643,0.174375,0.877734,-0.446292
-0.247837,0.213332,0.314737,0.888224,0.441193,-0.128090
-0.252982,0.154297,0.463352,0.912631,-0.248567,-0.324529
-0.252106,0.132850,0.457788,0.892420,-0.451066,-0.011211
-0.251120,0.111012,0.454197,-0.503649,0.322342,-0.801520
-0.255937,0.056546,0.588842,0.933816,-0.350908,-0.069649
-0.249315,0.067073,0.443897,0.557404,0.655559,0.509454
-0.248330,0.044364,0.440228,-0.604511,-0.658896,-0.447686
-0.249151,-0.015278,0.496895,-0.549393,-0.112811,-0.827914
-0.248604,-0.038552,0.500605,0.501919,0.026265,-0.864516
-0.247729,-0.060217,0.498277,-0.334726,-0.217645,0.916837
-0.246743,-0.082100,0.491371,0.951986,-0.297998,0.070148
-0.246414,-0.133607,0.519270,0.778407,-0.127998,-0.614572
-0.246087,-0.158796,0.529294,-0.241342,0.767360,0.594065
-0.199791,0.243697,0.788443,-0.085847,-0.882811,-0.461817
-0.178285,0.377121,0.262174,-0.176901,0.242667,0.953844
-0.191966,0.263620,0.617729,0.775897,0.471653,0.418959
-0.179107,0.342710,0.302701,-0.154497,0.881895,0.445412
-0.181076,0.302165,0.368603,0.533004,0.697533,0.478909
-0.181515,0.271147,0.400647,0.489434,-0.599470,-0.633317
-0.181131,0.246393,0.408303,-0.301466,0.523710,0.796773
-0.193881,0.142856,0.738483,-0.268279,0.899757,0.344185
-0.194265,0.114404,0.764963,0.752605,0.305909,0.583100
-0.177903,0.209590,0.366867,0.979540,-0.188363,-0.070856
-0.193881,0.090174,0.770803,0.976382,-0.200497,0.080488
-0.191583,0.049106,0.750362,-0.708214,0.223173,-0.669796
-0.190598,0.028399,0.744955,-0.442449,0.129929,-0.887332
-0.189557,0.008431,0.735721,0.310616,-0.215368,0.925815
-0.174838,0.088738,0.381942,0.919727,0.341477,0.193636
-0.162143,0.129675,0.094380,-0.825834,0.347355,0.444232
-0.174620,0.035490,0.412328,0.763344,0.452873,0.460665
-0.174564,0.008170,0.429218,0.981424,-0.180823,0.064115
-0.169913,-0.313667,0.548591,0.737246,0.675068,0.027397
-0.223213,0.387387,0.550722,-0.528472,0.403437,0.746965
-0.225456,0.344973,0.623096,0.390130,-0.498443,-0.774179
-0.228083,0.301729,0.704309,-0.045015,0.958236,0.282412
-0.230655,0.258226,0.787772,-0.012539,0.939841,0.341382
-0.208492,0.367985,0.262923,0.251711,0.164649,0.953694
-0.209806,0.331269,0.316434,-0.237134,0.835776,0.495224
-0.223596,0.219943,0.668241,0.776671,0.042568,0.628466
-0.223869,0.189796,0.696338,-0.212275,-0.968760,0.128234
0.667124,0.386735,0.745271,-0.097369,0.816368,0.569265
0.668437,0.364940,0.738957,0.111666,-0.834796,-0.539117
0.089089,0.260924,0.685959,-0.633111,0.744588,0.211565
0.104192,0.385343,0.183841,0.997519,-0.036541,0.060168
0.090403,0.243739,0.664807,-0.624821,0.780052,-0.033423
0.105944,0.370118,0.149825,0.997030,-0.016392,-0.075244
0.095054,0.222989,0.561850,0.999637,0.023047,-0.013925
0.101183,0.240999,0.387979,0.821059,0.524949,0.224256
0.096421,0.174135,0.569861,0.960807,0.169016,-0.219736
0.099159,0.166435,0.502578,0.991005,0.055818,-0.121627
0.098118,0.130893,0.558614,0.577227,0.525431,-0.625085
0.114972,0.286069,0.621754,0.314900,-0.882046,0.350474
0.114972,0.256965,0.648904,-0.612260,0.789076,-0.049966
0.116942,0.245046,0.605890,0.961511,-0.043112,0.271363
0.119295,0.234038,0.554510,-0.065865,0.254418,0.964849
0.119898,0.181138,0.582647,-0.186186,-0.005248,0.982501
0.120882,0.159517,0.574557,0.436706,0.616496,-0.655149
0.146438,0.291855,0.639749,0.257313,-0.930367,0.261167
0.148682,0.281239,0.588014,-0.155270,0.971041,0.181578
0.149284,0.256703,0.596222,-0.426811,-0.740956,0.518475
0.149832,0.232733,0.602141,-0.699093,-0.030198,0.714392
0.151035,0.213548,0.584581,0.991757,-0.074516,0.104235
0.151199,0.186708,0.603365,0.001925,-0.044986,0.998986
0.176371,0.302948,0.665439,-0.530914,0.780143,-0.330917
0.178123,0.287026,0.635408,0.534796,-0.801646,0.267125
0.179272,0.266622,0.622819,-0.295363,0.564990,-0.770420
0.216538,0.371639,0.523848,0.896512,0.133294,-0.422492
0.216812,0.343798,0.542751,-0.699175,0.197580,0.687107
0.216374,0.310213,0.582529,0.028133,0.698871,0.714695
0.294190,0.346799,0.575899,-0.204084,-0.082462,-0.975474
-0.031465,0.364462,0.520218,-0.550300,0.782776,0.290572
-0.026649,0.345886,0.412920,0.745701,0.662796,-0.068053
-0.024678,0.242522,0.449659,0.306461,0.731094,0.609577
-0.019754,0.251265,0.313751,-0.302827,-0.710223,0.635514
0.004926,0.358153,0.472981,-0.517310,-0.772665,0.367940
0.008428,0.329007,0.406408,0.699456,0.546207,0.460889
0.008538,0.298684,0.432256,0.670057,0.370031,-0.643506
0.010398,0.284720,0.395319,0.897148,-0.213496,0.386710
0.011110,0.261098,0.393899,0.932324,0.194330,-0.304971
0.013626,0.249700,0.341493,-0.106366,-0.924874,0.365096
0.015431,0.233734,0.307634,-0.250693,-0.739030,0.625290
0.017020,0.216290,0.283365,0.233238,0.759288,-0.607521
0.035241,0.319784,0.565796,0.206257,0.216586,0.954227
0.040550,0.334488,0.415761,0.657366,0.662680,0.358784
0.042192,0.318175,0.385059,-0.728002,0.100479,-0.678172
0.043013,0.294900,0.386322,0.851330,-0.304179,0.427449
0.044545,0.276890,0.361855,-0.575656,0.644253,-0.503547
0.042739,0.175309,0.492160,0.997200,0.073474,-0.013898
0.064464,0.360459,0.448396,0.214609,0.850850,-0.479580
0.067090,0.352237,0.389874,-0.109621,-0.681035,0.723999
0.065832,0.313171,0.454750,0.736847,0.384124,-0.556331
0.061345,0.245654,0.632290,0.948692,-0.303615,0.088328
0.061453,0.218812,0.649733,-0.830529,0.413587,-0.373052
0.064573,0.184402,0.598511,0.678503,0.460890,-0.572026
0.066051,0.167218,0.572387,0.831593,0.357752,-0.424815
0.069443,0.135765,0.513391,0.961809,0.248253,0.115300
0.069827,0.082386,0.545710,0.729771,-0.311467,-0.608623
-0.083561,0.396350,0.646339,0.906605,-0.324684,-0.269534
-0.082850,0.372728,0.650522,0.838200,-0.454955,-0.300727
-0.078910,0.375076,0.551156,-0.448403,-0.682207,0.577519
-0.078143,0.351628,0.550367,-0.685329,0.355385,-0.635630
-0.076392,0.334749,0.524164,-0.399695,-0.558501,0.726856
-0.075079,0.316782,0.504788,0.284073,-0.600803,0.747220
-0.056692,0.368159,0.012772,-0.759771,0.581391,0.291088
-0.056145,0.342231,0.017508,-0.704538,0.540203,0.460225
-0.056255,0.310561,0.046828,-0.144286,0.541869,0.827985
-0.055816,0.282850,0.059535,-0.206491,0.581035,0.787248
-0.055926,0.253398,0.084751,-0.354082,0.655706,0.666840
-0.051494,0.346408,0.508773,0.782877,-0.570592,0.248049
-0.032285,0.377686,-0.003407,-0.671915,0.661646,0.332798
-0.040822,0.254225,0.312291,-0.302256,-0.777539,0.551430
-0.032833,0.193103,0.164110,-0.055816,0.821453,0.567538
-0.036828,-0.280344,0.647681,0.426277,0.840569,-0.334262
-0.014062,-0.275907,0.618873,-0.165965,-0.828817,0.534338
-0.103863,0.393782,0.594564,-0.154730,0.774113,-0.613847
-0.102385,0.375598,0.574044,-0.378992,-0.910973,0.162765
-0.102222,0.348191,0.592631,0.276045,0.808304,0.520043
-0.096857,0.303382,0.496659,-0.772117,-0.007637,0.635435
-0.095545,0.284502,0.477440,-0.419334,-0.495075,0.760959
-0.095326,0.227035,0.518521,0.594679,-0.553455,-0.583134
-0.078581,0.347843,0.021178,-0.704538,0.540203,0.460225
-0.086352,0.263490,0.272750,0.091785,0.755001,-0.649268
-0.079566,0.311430,0.073426,0.084499,0.563661,0.821673
-0.077925,0.293246,0.050103,-0.145099,0.622484,0.769065
-0.105395,0.072598,0.882126,0.782453,-0.278410,-0.557006
-0.077980,0.263142,0.073702,-0.163449,0.559977,0.812225
-0.077432,0.237214,0.083646,0.566595,-0.525515,-0.634668
-0.088322,-0.033637,0.555378,-0.197933,0.652641,0.731356
-0.056308,0.220596,0.123701,-0.784922,0.375290,0.493006
-0.057349,0.183792,0.177685,0.057675,0.873130,0.484063
-0.061398,-0.314972,0.681973,-0.072115,-0.258039,0.963439
-0.057459,-0.320367,0.589513,-0.372576,-0.873833,0.312414
-0.134835,-0.258157,0.631620,0.446295,-0.231027,0.864550
-0.133359,-0.276385,0.611454,-0.475740,-0.868178,0.141201
-0.123344,0.267362,0.762792,0.002213,0.806416,0.591344
-0.093521,0.333400,0.027215,-0.448029,0.613203,0.650578
-0.120936,0.118929,0.819973,-0.468041,0.719743,0.512745
-0.093247,0.305862,0.039449,-0.292957,0.503877,0.812579
-0.121594,0.086172,0.861803,-0.575923,0.422738,0.699718
-0.093302,0.274410,0.067743,0.056154,0.441208,0.895646
-0.121757,0.058503,0.886704,-0.514629,0.039984,0.856480
-0.093356,0.245394,0.090276,0.566595,-0.525515,-0.634668
-0.120390,0.041319,0.867367,-0.560729,0.304080,0.770142
-0.115355,-0.035725,0.812041,0.975484,-0.176433,0.131540
-0.098117,-0.255677,0.581108,0.925699,0.354147,0.132896
-0.098280,-0.283432,0.606009,0.209780,0.970786,-0.116480
-0.084710,-0.256852,0.643300,-0.555940,-0.736367,0.385608
-0.161650,0.394609,0.571795,0.158331,0.939638,0.303334
-0.163948,0.322742,0.671200,-0.019946,0.852077,0.523036
-0.166138,0.279326,0.752966,-0.046456,0.844700,0.533220
-0.150104,0.302383,0.384388,0.990823,0.075506,0.112111
-0.150431,0.271278,0.413827,0.705728,-0.325868,-0.629093
-0.149337,0.248829,0.408105,0.819602,-0.304233,-0.485484
-0.159898,0.154167,0.705690,-0.850021,0.187561,0.492225
-0.162196,0.112230,0.788127,-0.274309,0.840867,0.466581
-0.150597,0.157473,0.500250,0.097198,-0.943933,0.315505
-0.164003,0.048106,0.871866,-0.238911,0.392548,0.888160
-0.163073,0.026311,0.868788,0.259743,-0.202589,-0.944188
-0.159242,0.022309,0.787338,-0.021711,-0.990662,0.134602
-0.158749,-0.027024,0.808924,0.863181,0.498838,0.077966
-0.135219,0.082430,0.216753,0.895831,-0.442108,-0.045024
-0.135274,0.053631,0.237786,-0.909039,0.414183,0.045828
-0.142716,-0.231446,0.608100,0.881853,0.460111,-0.103113
-0.141238,-0.277473,0.608258,0.558515,0.807507,0.189718
-0.154426,0.389172,0.594841,-0.048962,0.989289,0.137512
-0.155137,0.326874,0.657625,-0.126426,0.945390,0.300425
-0.156944,0.286025,0.729486,-0.212924,0.896319,0.388941
-0.145014,0.256530,0.476651,0.742031,-0.669860,-0.026044
-0.140418,0.260619,0.366433,0.603782,0.145935,0.783677
-0.152019,0.151992,0.719344,-0.664385,0.657821,0.354774
-0.154262,0.110055,0.802373,-0.098278,0.909454,0.404023
-0.140745,0.201455,0.419036,-0.695046,0.205575,0.688949
-0.155192,0.048236,0.871787,-0.096638,0.329263,0.939280
-0.150597,-0.029330,0.821907,0.938159,0.201952,0.281199
-0.128050,0.084344,0.211070,0.880201,-0.473546,-0.031628
-0.199025,0.275889,0.753558,-0.153944,0.861116,0.484541
-0.194319,0.388214,0.583278,-0.358120,0.885797,0.295152
-0.195085,0.356240,0.618755,-0.775807,-0.264117,-0.573032
-0.196453,0.318914,0.672581,-0.238941,0.885242,0.399067
-0.153825,0.060417,0.263239,0.944860,-0.291584,0.149055
-0.154591,0.028355,0.304753,0.928126,-0.339770,0.152111
-0.160064,-0.242627,0.611178,0.789523,0.374676,0.486078
-0.182006,0.335184,0.670687,0.145529,0.782746,0.605087
-0.182280,0.305471,0.695470,-0.164735,0.764203,0.623583
-0.164058,0.396392,0.247533,-0.339940,0.649641,0.680006
-0.184469,0.235561,0.792428,-0.009041,0.927406,0.373948
-0.165535,0.330486,0.323419,-0.272027,0.834504,0.479170
-0.166958,0.291463,0.383994,-0.705520,-0.165047,-0.689204
-0.166794,0.265491,0.395911,0.419893,-0.587176,-0.692037
-0.167123,0.233995,0.427244,-0.647811,0.713834,0.266048
-0.178778,0.134416,0.742745,-0.621002,0.781373,0.061743
-0.179653,0.101528,0.785444,-0.035628,-0.997594,0.059477
-0.175057,0.102746,0.687222,0.999873,-0.004463,0.015295
-0.181405,0.038926,0.865907,0.481513,-0.323635,-0.814497
-0.175713,0.045626,0.738957,0.654765,-0.036927,0.754930
-0.175276,0.022439,0.744640,0.213253,-0.052318,0.975595
-0.174235,0.000600,0.740101,-0.383616,0.438986,-0.812484
-0.148462,0.147250,0.091381,-0.833725,0.464335,0.298825
-0.148297,0.119190,0.107363,0.762400,-0.092164,-0.640509
-0.954250,0.495014,0.396622,0.961433,-0.116004,-0.249378
-0.953375,0.471175,0.398319,0.903149,-0.308557,-0.298520
-0.952609,0.445725,0.403409,0.993312,-0.055818,0.101072
-0.906041,0.586981,0.516232,0.728282,-0.525247,-0.440138
-0.905111,0.563315,0.518008,-0.727611,0.024666,0.685546
-0.900897,0.483139,0.465917,0.706048,0.151822,-0.691698
-0.900732,0.448771,0.508813,-0.636221,0.407234,0.655273
-0.846831,0.548132,0.565520,0.664745,0.733794,-0.140212
-0.843055,0.461647,0.538765,0.782161,-0.095116,-0.615774
-0.842563,0.431674,0.561890,0.778101,-0.553483,-0.297011
-0.792983,0.512243,0.593696,0.060506,-0.285919,0.956342
-0.791998,0.492970,0.581345,-0.349171,0.099886,-0.931720
-0.790029,0.450511,0.567493,0.502073,0.543380,-0.672801
-0.726878,0.660327,0.136841,0.289560,0.673914,0.679702
-0.727099,0.624263,0.176817,0.289560,0.673914,0.679702
-0.732296,0.400699,0.559443,0.510204,-0.056448,0.858199
-0.668709,0.629918,0.152824,0.289560,0.673914,0.679702
-0.609499,0.598640,0.170029,0.167586,0.767722,0.618481
-0.563806,0.436372,0.560469,0.100004,0.929750,0.354352
-0.434825,0.413533,0.782563,0.588064,-0.238946,0.772713
-0.419174,0.503237,0.369945,0.501185,-0.689916,-0.522330
-0.393947,0.447466,0.742785,0.907408,-0.398057,0.134766
-0.391813,0.436198,0.702494,0.843618,-0.484426,0.231602
-0.382949,0.470914,0.488135,-0.746727,0.347647,0.567046
-0.349293,0.453251,0.666820,0.954423,-0.117221,0.274475
-0.346558,0.445465,0.612638,0.912653,-0.311238,0.264944
-0.346613,0.416970,0.634579,0.964482,0.215645,-0.152550
-0.287293,0.597029,0.197061,0.134263,-0.963828,-0.230238
-0.301084,0.472611,0.566980,-0.773814,-0.334742,-0.537736
-0.300865,0.416231,0.600957,0.315331,0.466515,0.826396
-0.254896,0.601294,0.202388,-0.136105,0.979103,0.151108
-0.266935,0.430543,0.567296,-0.525374,0.053884,-0.849164
-0.267538,0.398437,0.602615,-0.299453,0.737550,0.605267
-0.261847,0.408008,0.477164,0.910850,-0.289183,0.294493
-0.238372,0.511719,0.774197,-0.570347,0.812679,0.119404
-0.225018,0.518420,0.499579,0.875642,-0.469244,0.114285
-0.225456,0.488185,0.526610,-0.669429,-0.209373,-0.712760
-0.226167,0.454252,0.563034,-0.325859,-0.459566,-0.826205
-0.220204,0.465564,0.436005,-0.742824,0.653188,0.146827
-0.219492,0.441027,0.437860,-0.419390,0.445057,0.791224
-0.203019,0.553961,0.652732,0.745428,-0.605162,0.279492
-0.199135,0.553744,0.572781,0.811527,0.209135,0.545607
-0.190653,0.585022,0.378114,0.145269,-0.909181,-0.390240
-0.190161,0.501149,0.422825,0.556840,-0.529927,-0.639614
-0.190379,0.470696,0.447054,-0.661677,0.746299,0.072264
-0.192732,0.426715,0.522901,0.779123,-0.471361,-0.413263
-0.178723,0.404093,0.252821,0.071268,0.491770,0.867803
-0.195468,0.996259,0.492712,-0.660266,0.212301,-0.720401
-0.194866,0.941358,0.516784,0.963548,0.171834,0.205056
-0.186111,0.562489,0.597919,0.914996,0.403134,-0.016278
-0.185673,0.537648,0.605456,0.927996,-0.359281,0.098693
-0.178011,0.563489,0.426376,-0.565230,0.817992,0.106788
-0.175494,0.521596,0.404159,-0.756219,0.180680,-0.628878
-0.177081,0.482529,0.463273,-0.751860,0.607003,0.257399
-0.178723,0.443333,0.524164,-0.645942,0.516701,0.561943
-0.179107,0.411575,0.554668,-0.019523,0.604655,0.796248
-0.164549,0.422800,0.239167,0.133629,0.391815,0.910288
-0.175057,0.943229,0.471284,-0.688851,0.471231,-0.550841
-0.174509,0.916518,0.478545,0.867719,-0.056246,0.493862
-0.173963,0.890372,0.484110,-0.728209,-0.051344,0.683430
-0.173142,0.866968,0.484425,-0.284764,0.071659,0.955915
-0.154755,0.682992,0.212175,-0.385157,-0.854372,-0.348858
-0.167231,0.555180,0.580042,0.743477,0.409984,0.528352
-0.165152,0.541737,0.542395,-0.660406,0.356799,0.660726
-0.161431,0.541477,0.460156,0.940476,0.102007,0.324189
-0.160939,0.515287,0.471403,0.966103,0.104125,-0.236226
-0.159187,0.499452,0.441806,0.891895,-0.435864,-0.120607
-0.161321,0.454818,0.523217,0.515815,-0.718318,-0.466856
-0.161814,0.422364,0.555970,0.035032,0.513809,0.857189
-0.147641,0.435502,0.234116,-0.277065,0.284467,0.917776
-0.146984,0.410793,0.238536,0.269931,-0.667298,-0.694155
-0.158586,0.561836,0.558851,-0.744936,-0.666884,0.018364
-0.158148,0.537038,0.566546,0.942413,-0.037480,0.332344
-0.153606,0.543347,0.457196,0.988186,0.145614,0.047807
-0.153113,0.518420,0.464299,0.979191,0.190459,-0.070078
-0.152565,0.491534,0.475033,-0.614493,0.422931,0.665979
-0.153442,0.455514,0.520731,0.294331,-0.710460,-0.639231
-0.154810,0.413795,0.587619,-0.368024,0.811557,0.453798
-0.140363,0.436894,0.230485,-0.229060,0.443063,0.866733
-0.140581,0.406442,0.257912,0.311075,-0.780817,-0.541808
-0.169311,0.956019,0.507037,0.841574,0.071576,0.535378
-0.166465,0.919650,0.470811,-0.719659,0.265316,-0.641637
-0.165972,0.894679,0.476849,0.846776,0.145078,0.511784
-0.165097,0.871405,0.473257,0.223252,0.972440,-0.067218
-0.133412,0.959194,0.467338,-0.207318,0.062234,-0.976292
-0.133085,0.930178,0.481860,0.333525,-0.278323,0.900720
-0.136642,0.864967,0.615519,0.998905,0.045353,-0.011484
-0.133467,0.864184,0.540975,0.990669,0.066190,-0.119137
-0.133522,0.832122,0.566428,0.969275,-0.001900,-0.245971
-0.134398,0.793099,0.615716,0.776997,-0.425721,-0.463721
-0.133193,0.774741,0.600326,0.983895,0.031524,-0.175944
-0.131059,0.701786,0.610941,0.734284,-0.102938,0.670993
-0.129473,0.595246,0.654429,0.208229,-0.960307,0.185610
-0.128269,0.576714,0.639512,0.437270,0.802202,-0.406531
-0.125533,0.569100,0.582726,0.187571,0.933760,-0.304812
-0.122031,0.568840,0.501749,0.671198,-0.697357,0.251371
-0.117707,0.573103,0.399937,0.403466,-0.452264,0.795407
-0.119842,0.525641,0.485057,0.883238,-0.467878,0.031328
-0.119952,0.493971,0.513943,0.931620,-0.283806,-0.227021
-0.111524,0.531166,0.289837,-0.632618,0.662038,-0.401870
-0.118310,0.419449,0.532845,0.239146,0.368537,0.898326
-0.106654,0.479354,0.216437,0.279181,0.269350,0.921688
-0.106325,0.450424,0.233840,0.061873,0.604689,0.794055
-0.117707,0.974812,0.468048,0.256690,-0.176822,0.950181
-0.120827,0.877714,0.622070,0.985861,0.162179,-0.042151
-0.117215,0.882237,0.530044,0.124947,0.929552,0.346875
-0.113275,0.858528,0.455697,0.809189,0.341404,0.478180
-0.118801,0.773958,0.653995,0.974058,-0.213831,-0.074075
-0.115355,0.777395,0.566388,0.718545,0.222402,0.658962
-0.115737,0.710704,0.629173,0.415866,-0.888607,-0.193475
-0.114206,0.693738,0.606009,0.781666,-0.207992,0.587995
-0.112509,0.588198,0.650048,0.238642,-0.890385,0.387639
-0.111196,0.570014,0.631462,-0.152486,-0.863145,0.481383
-0.097953,0.653888,0.246191,0.727080,0.625810,0.282341
-0.103808,0.572973,0.449580,0.085940,0.874493,0.477365
-0.101181,0.564751,0.395872,0.458975,0.085031,-0.884371
-0.101126,0.536343,0.414695,0.623352,-0.729338,0.281954
-0.105012,0.473872,0.557036,0.734852,0.174364,-0.655431
-0.094341,0.530775,0.258662,0.626177,-0.585454,0.514924
-0.105286,0.412706,0.612204,0.698594,-0.408346,-0.587554
-0.090620,0.468130,0.217858,-0.814141,0.494417,0.304510
-0.096093,0.859920,0.577398,0.969179,0.242617,-0.042771
-0.095107,0.805498,0.598353,-0.036968,0.577430,0.815603
-0.089909,0.826423,0.453053,-0.201643,0.118542,0.972259
-0.089034,0.804367,0.448751,0.753702,0.631958,0.180449
-0.092370,0.740417,0.582015,0.395805,0.645366,0.653331
-0.091605,0.716447,0.585370,0.177973,0.755451,0.630571
-0.090291,0.665983,0.594486,0.464579,0.071439,0.882645
-0.084765,0.565185,0.539475,0.832642,0.520302,-0.189719
-0.074531,0.655803,0.213793,-0.591934,-0.629762,0.503005
-0.079675,0.579237,0.402067,0.767638,-0.567559,0.297672
-0.083943,0.510632,0.564889,-0.193433,0.321939,-0.926790
-0.083561,0.484138,0.575307,-0.167503,0.031694,0.985362
-0.068785,0.517767,0.185577,-0.706455,0.704793,0.064722
-0.068566,0.488707,0.206532,-0.485505,0.873780,0.028186
-0.056637,0.398786,-0.015601,-0.210635,0.710966,0.670940
-0.062055,0.496537,0.645471,0.689790,-0.161726,-0.705715
-0.050071,0.602685,0.257517,0.171180,0.957580,0.231814
-0.061014,0.445465,0.663663,0.995223,0.006742,-0.097394
-0.057623,0.444116,0.581700,0.949238,-0.301805,-0.088668
-0.044435,0.526120,0.181079,-0.861855,0.418491,-0.286481
-0.032669,0.436982,-0.041173,-0.276341,0.551966,0.786746
-0.032614,0.406225,-0.018048,-0.275000,0.595414,0.754889
-0.096146,0.988081,0.473060,0.272368,-0.096363,0.957356
-0.094232,0.942707,0.465010,0.105384,-0.235131,0.966234
-0.092918,0.924479,0.448159,-0.063149,-0.378751,0.923342
-0.069607,0.950973,0.463905,-0.153487,-0.326131,0.932781
-0.068621,0.927394,0.461143,0.059431,-0.039374,0.997456
-0.068621,0.801757,0.563034,-0.177192,-0.798479,0.575356
-0.066706,0.789314,0.524282,0.396508,-0.861876,0.316150
-0.066105,0.763560,0.529491,-0.765584,-0.337915,-0.547444
-0.066487,0.727409,0.570256,0.096402,0.770342,0.630301
-0.066487,0.696914,0.595748,0.133519,0.549855,0.824519
-0.062000,0.677467,0.500368,0.876299,-0.269002,0.399673
-0.062711,0.578585,0.598945,-0.022035,-0.452467,0.891509
-0.062602,0.549307,0.618755,0.424688,0.357412,0.831803
-0.062329,0.522509,0.633395,0.543973,-0.612773,-0.573239
-0.049468,0.637880,0.215214,0.034199,-0.552117,0.833065
0.711012,0.522595,0.768948,-0.108515,-0.368165,0.923406
0.716319,0.509109,0.642669,0.264420,0.177244,0.947980
0.718782,0.424453,0.703875,-0.148480,0.756690,0.636690
0.766335,0.410227,0.736510,-0.045242,0.711518,0.701210
0.666740,0.421451,0.700481,0.103577,0.871094,0.480070
0.378790,0.785747,0.918747,-0.418205,0.329562,-0.846459
0.356409,0.816939,0.935992,0.515114,-0.327137,0.792236
0.357995,0.803888,0.902449,0.018276,-0.066283,0.997633
0.358817,0.777699,0.915906,0.051911,-0.485300,0.872805
0.365985,0.815634,0.893689,0.163594,0.374904,-0.912515
0.367025,0.793099,0.894794,0.251300,-0.357931,-0.899296
0.346942,0.817547,0.902134,0.736567,0.254176,0.626789
0.348146,0.797101,0.895780,0.819938,0.071452,0.567975
0.344699,0.820289,0.929836,0.995668,-0.018203,0.091184
0.345793,0.799277,0.922457,-0.700244,-0.372561,0.608980
0.347160,0.780483,0.906790,-0.393615,-0.676780,-0.622122
0.344644,0.800842,0.926324,-0.523413,-0.392582,0.756253
0.346504,0.787922,0.894596,-0.235293,-0.542852,-0.806194
0.372224,0.562705,0.460748,-0.494141,-0.204076,0.845090
0.328281,0.798755,0.923640,-0.103059,-0.436468,0.893798
0.329430,0.779004,0.912709,-0.159771,-0.426341,0.890341
0.211120,0.598684,0.463786,0.661366,-0.522127,0.538496
0.175605,0.631006,0.393307,0.409459,0.721707,0.558106
0.177958,0.405659,0.531819,0.259076,-0.945078,0.199266
0.184634,0.435372,0.326142,0.214992,-0.975090,-0.054567
0.164716,0.554615,0.753834,-0.147987,-0.741562,-0.654359
0.101675,0.647102,0.661887,-0.506914,-0.356541,-0.784804
0.100909,0.608776,0.712912,0.870428,0.491794,0.022220
0.112073,0.688169,0.348399,-0.263216,-0.815554,0.515353
0.101183,0.549525,0.759951,-0.443465,-0.565255,-0.695576
0.113003,0.666505,0.342045,-0.027730,-0.676986,0.735474
0.114260,0.648624,0.321643,-0.552989,0.670749,-0.494266
0.146109,0.657500,0.323616,0.615164,-0.743412,0.262509
0.041699,0.950102,0.544724,0.996093,-0.045616,-0.075620
0.042793,0.929481,0.532727,0.996093,-0.045616,-0.075620
0.049633,0.746247,0.511339,0.292002,0.898605,0.327481
0.043396,0.650583,0.755413,0.713804,0.000098,-0.700346
0.045694,0.643186,0.699771,0.456410,-0.126783,0.880691
0.045475,0.609254,0.735958,-0.183842,-0.728127,-0.660329
0.082029,0.743810,0.455578,-0.356293,-0.927380,0.114113
0.076393,0.654150,0.682250,0.679648,0.264681,0.684122
0.085204,0.711095,0.400844,0.337767,-0.817085,0.467210
0.087173,0.697305,0.363868,-0.117545,-0.900396,0.418892
0.076064,0.558660,0.772460,0.536982,0.440630,0.719371
0.088214,0.676771,0.353410,-0.178815,-0.828326,0.530943
0.094451,0.642491,0.219318,0.751214,-0.660057,-0.001606
0.101565,0.424539,0.218607,0.999850,0.015991,-0.006655
0.105122,0.423365,0.125674,0.900373,-0.200422,0.386213
0.045366,0.578889,0.763305,0.501487,0.488167,0.714286
-0.013571,0.833469,0.546263,-0.624853,0.766084,-0.150580
0.017512,0.671116,0.723764,-0.578150,0.799617,0.162341
0.018496,0.648842,0.719423,-0.501149,0.450760,-0.738691
0.018442,0.617825,0.745153,0.456267,0.841443,0.289472
0.021945,0.621957,0.650719,0.308065,-0.943679,0.120687
0.045366,0.619434,0.055628,0.922987,-0.322916,-0.209331
0.045475,0.590636,0.074096,0.727747,0.361192,0.583030
-0.047992,0.762690,0.605732,0.854687,0.363194,-0.370946
-0.043997,0.773479,0.492357,0.405262,0.840432,0.359772
-0.015158,0.629614,0.759793,0.480746,0.832673,0.274842
-0.015924,0.590113,0.815751,0.680720,0.554070,0.479194
-0.005253,0.694652,0.452461,-0.717640,0.286821,-0.634608
0.000493,0.594333,0.388098,-0.353210,0.934599,0.042046
-0.007551,0.490360,0.679961,0.852257,-0.283617,-0.439567
0.003885,0.594245,0.299584,-0.746256,-0.161046,-0.645884
0.011547,0.569144,0.125318,0.649778,0.755905,0.079972
0.021560,0.495319,-0.068086,-0.518947,-0.390596,-0.760348
-0.045584,0.724277,0.577319,0.129035,0.590775,0.796451
-0.045255,0.696392,0.590618,-0.293872,0.821338,0.488920
-0.040440,0.680730,0.482373,0.859538,-0.389050,0.331414
-0.043176,0.623871,0.600523,0.415301,-0.413875,-0.810082
-0.044762,0.547088,0.707979,0.814781,0.421517,-0.398065
-0.042683,0.536213,0.662755,0.823842,0.455692,-0.337090
-0.040493,0.526250,0.613427,0.175307,0.580425,0.795219
-0.028894,0.633747,0.223106,-0.275727,0.444625,-0.852222
-0.031136,0.580673,0.327721,-0.206631,0.967841,-0.143485
-0.039782,0.472001,0.643103,0.289417,0.672075,0.681581
-0.032888,0.412314,0.518600,-0.755025,0.428650,-0.496181
-0.031081,0.397741,0.483399,0.975727,-0.115020,0.186353
-0.012586,0.492144,-0.072703,0.209989,0.480740,0.851348
-0.012367,0.463432,-0.054985,0.181815,0.381172,0.906450
-0.012038,0.434415,-0.039002,-0.219530,0.657609,0.720664
-0.011983,0.405006,-0.016983,-0.262521,0.605887,0.750988
-0.047663,0.926437,0.459603,0.738028,0.672342,-0.057194
-0.047062,0.900117,0.465049,0.723514,0.602136,0.337580
-0.209367,-0.993058,0.833232,0.764831,-0.641017,0.064272
-0.186111,0.388736,0.593262,-0.449267,0.822917,0.347803
-0.297909,0.278587,0.720686,-0.558021,0.135761,-0.818646
0.988946,0.496711,0.501947,-0.603371,-0.407194,-0.685665
1.000000,0.464389,0.556247,-0.575047,-0.467208,-0.671593
0.976415,0.524597,0.516666,-0.622959,-0.372715,-0.687754
0.981121,0.482007,0.539672,0.587394,0.442390,0.677686
-0.264090,0.504759,0.519862,0.302771,0.611571,0.730965
-0.321713,0.484314,0.561495,0.938357,-0.006901,0.345600
-0.381360,0.447378,0.666267,0.936930,-0.232019,0.261399
-0.455236,0.412837,0.822143,0.955051,-0.199867,0.218929
0.571523,0.197584,0.509129,0.650616,0.700581,0.293061
0.401664,0.074599,0.601904,-0.006457,0.238807,0.971046
-0.432254,-0.145179,0.678935,0.283263,-0.889897,-0.357555
0.813888,0.365332,0.755058,-0.277070,0.490832,0.826024
0.745923,0.361764,0.708295,0.577951,0.031831,-0.815450
0.748167,0.365028,0.749336,-0.102277,0.466826,0.878415
0.700285,0.370465,0.676370,-0.218499,0.809384,0.545120
0.693062,0.385039,0.744718,-0.050004,0.720348,0.691809
0.654482,0.382341,0.716621,-0.001795,0.805506,0.592585
0.658477,0.374163,0.727631,-0.097369,0.816368,0.569265
0.642498,0.200759,0.447962,0.756836,0.649164,0.076069
0.821878,0.446465,0.658730,0.354556,0.665236,0.657077
0.804969,0.462430,0.676528,-0.302059,-0.680914,-0.667170
0.800974,0.424017,0.698074,0.113727,0.825543,0.552762
0.755829,0.459342,0.682842,0.148083,0.659661,0.736830
0.703186,0.499626,0.659401,0.264420,0.177244,0.947980
0.706250,0.506891,0.738523,-0.081368,0.747457,-0.659309
0.482873,0.618565,0.606127,-0.477983,-0.865466,-0.150003
0.460710,0.638270,0.618400,0.935076,0.309560,0.172643
0.762177,0.405050,0.733866,0.021096,0.680834,0.732134
0.564901,0.548394,0.585764,-0.211627,0.696776,0.685359
0.716374,0.401700,0.714530,-0.012566,0.799965,0.599915
0.702090,0.416317,0.736274,-0.140234,0.866399,0.479257
0.568841,0.511242,0.622504,0.494055,-0.195371,-0.847195
0.535242,0.539041,0.622662,-0.390468,0.384416,0.836516
0.444292,0.605339,0.557115,-0.414841,0.326483,0.849303
0.410310,0.633268,0.555891,0.498146,-0.301568,0.812962
0.391704,0.650843,0.574044,-0.317570,0.511769,-0.798275
0.428259,0.630614,0.652219,0.567919,-0.254301,0.782815
0.701598,0.401352,0.732446,0.368912,-0.857563,-0.358454
0.613003,0.471002,0.706401,0.985220,0.089685,0.145936
0.452993,0.584544,0.561890,-0.336344,-0.326608,0.883289
0.416767,0.614040,0.559956,-0.294218,-0.894967,0.335364
0.411733,0.627178,0.631777,0.581373,0.719433,-0.380027
0.659188,0.403179,0.667688,0.183413,0.614278,0.767478
0.386342,0.613127,0.547328,0.329455,0.575905,-0.748193
0.293478,0.681122,0.480321,-0.626680,-0.059603,0.776994
0.343495,0.613648,0.516271,0.705795,0.638258,-0.307376
0.317391,0.626263,0.489753,0.580397,0.548279,-0.602105
0.331072,0.621653,0.544290,0.640262,0.458695,-0.616168
0.284557,0.642926,0.487622,0.550221,0.482316,-0.681637
0.265898,0.645275,0.473179,-0.250141,-0.656628,0.711526
