0.428748,0.733847,0.312172,-0.562328,0.038409,-0.826022
-0.384851,0.745653,0.486943,0.229962,-0.958493,0.168548
-0.304852,-0.144820,0.461318,-0.593625,-0.126951,0.794665
-0.059401,0.113934,0.857524,-0.565982,-0.466386,0.679814
-0.142504,0.061361,0.879239,0.056918,0.827710,0.558262
-0.368817,-0.361610,0.791128,-0.749643,0.360636,0.554956
0.716274,0.082152,0.623071,-0.408076,0.306567,0.859936
-0.062969,0.277940,0.442993,0.787580,-0.229108,-0.572038
-0.187626,-0.054647,0.781378,-0.080282,0.634754,-0.768532
-0.089306,-0.080055,-0.592692,0.863223,-0.478070,-0.162160
-0.233158,-0.066837,-0.144348,0.024413,-0.021484,0.999471
0.502896,0.256935,0.291100,-0.701720,0.711979,0.025994
0.613800,0.044937,0.512381,-0.133669,0.308097,-0.941918
-0.694035,-0.431377,0.219131,0.679375,0.502016,0.535191
0.128577,-0.400193,0.674654,0.307054,0.951329,-0.026291
-0.244103,-0.618651,0.266017,0.899940,0.403933,-0.164154
-0.105458,-0.107347,0.774099,-0.211261,-0.516663,0.829716
-0.265756,-0.573180,0.579497,0.104447,0.361661,0.926441
-0.188679,0.167704,0.774011,0.171489,-0.175863,0.969363
-0.241585,-0.255439,0.132682,-0.655970,0.096840,0.748549
-0.099840,-0.177628,-0.806317,0.981006,-0.152846,-0.119441
-0.985776,-0.185628,-0.994793,-0.103885,0.150115,0.983196
-0.207058,-0.601712,0.315297,0.915526,-0.352746,-0.193347
0.054547,-0.158337,0.984091,0.286194,0.295158,0.911578
-0.812954,-0.510298,0.639523,-0.553186,0.780201,-0.292013
-0.152631,-0.066667,0.096742,-0.137235,-0.201183,0.969893
-0.786036,-0.267716,0.090947,0.355991,-0.129843,0.925425
-0.356704,-0.245813,-0.145201,-0.493300,-0.666509,0.558946
-0.072567,-0.120393,0.926003,0.731320,0.067517,0.678685
-0.010239,-0.159618,0.987780,-0.266612,0.539565,0.798616
-0.335457,-0.423377,0.799559,0.813669,0.458297,0.357641
-0.338969,-0.029622,-0.980944,-0.263323,0.194607,0.944875
0.521917,-0.024617,0.512580,0.789933,0.377653,0.483099
-0.405394,-0.329998,0.610430,-0.247488,0.104542,0.963235
-0.030667,-0.243845,0.789422,-0.784672,0.501737,0.364074
-0.396264,-0.481939,0.248712,-0.377921,-0.175996,0.908956
0.286299,-0.435312,-0.963052,0.040985,0.074410,0.996385
-0.347749,-0.380473,0.646758,0.175615,0.182912,0.967317
-0.143033,-0.189991,0.925616,0.617224,0.591351,-0.518978
-0.631707,-0.587339,0.014713,0.731214,0.255833,0.632357
0.290864,-0.760198,0.682842,0.924736,0.336690,-0.177491
-0.381926,-0.422095,-0.001961,0.934573,-0.149859,-0.322669
0.460525,0.062390,0.630893,0.071404,0.617494,0.783328
-0.221981,0.012854,0.492594,-0.516147,-0.220662,-0.827587
-0.478374,-0.262583,0.058730,-0.275313,0.406830,0.871029
-0.071985,0.418116,0.328603,0.084110,-0.045800,0.995403
-0.278455,0.126897,0.808167,0.887909,0.380019,0.259236
0.764382,0.352242,0.516790,0.194030,0.070146,0.978485
-0.270086,0.180623,0.564119,0.827497,-0.413218,-0.380131
-0.530872,0.420855,0.158895,0.614872,0.315596,0.722725
0.086559,-0.110383,0.629331,0.769376,0.503492,0.393137
-0.273422,-0.384408,-0.976036,-0.113178,-0.006442,0.993554
0.083573,0.528521,0.335471,0.289959,-0.392181,0.872993
-0.011997,-0.175148,0.612169,0.239826,0.969303,-0.054171
0.254287,-0.248552,0.527758,-0.185069,0.813688,0.551055
-0.121847,-0.226135,0.938744,0.908148,0.418649,-0.000432
0.030432,0.118085,0.131020,0.103720,0.030875,0.994127
-0.010943,-0.789372,0.612036,0.828128,0.557993,-0.053353
0.075965,0.275715,0.740685,0.358366,-0.698944,0.618910
-0.187919,-0.181007,0.910437,0.329668,0.828235,0.453152
0.665770,0.175103,0.536677,-0.111661,0.512895,-0.851158
-0.219638,-0.341203,-0.150752,0.895356,-0.250212,-0.368418
-0.087377,-0.206930,0.649694,-0.085991,-0.645817,0.758634
-0.071457,-0.506322,0.837560,-0.651405,0.074341,-0.755079
0.190262,0.433902,0.583064,0.317375,-0.523854,0.790475
-0.187218,-0.183445,0.470225,0.491628,-0.342485,-0.800629
-0.382512,-0.180751,0.847032,0.098431,-0.287234,0.952790
-0.384737,-0.201241,-0.031553,0.441433,0.186470,0.877705
0.222742,-0.482751,0.063870,0.913700,0.102828,-0.393166
-0.050096,-0.137118,-0.556619,0.925944,-0.375464,-0.040679
-0.657575,-0.420169,0.063361,0.344874,0.009873,0.938597
0.211741,0.722085,0.331959,0.079328,0.319313,-0.944323
-0.620062,-0.451995,-0.978119,-0.017474,0.108859,0.993904
0.463747,-0.436638,0.650912,-0.741855,0.096285,0.663611
0.186226,-0.000406,0.866288,0.767430,0.098683,-0.633492
-0.286181,-0.519196,0.077619,-0.358234,0.750098,0.555897
0.028442,-0.071586,0.696425,0.998690,-0.004317,0.050987
0.121908,-0.298900,0.652928,0.307240,0.651834,0.693337
-0.665709,-0.110085,0.245078,-0.632141,-0.156280,-0.758930
-0.437582,0.090535,0.739345,-0.655109,-0.023266,0.755176
0.247032,-0.185756,0.864316,-0.848337,0.321954,-0.420320
-0.325859,0.075350,0.190304,-0.095551,0.835492,0.541132
-0.461696,-0.547557,0.069919,0.991762,-0.054173,-0.116078
-0.289811,-0.329656,-0.176522,0.808559,0.550955,-0.206593
-0.251769,-0.062816,0.785201,0.229722,-0.422704,0.876669
0.075497,-0.819057,0.625674,-0.177335,0.362074,0.915125
-0.805582,-0.474537,0.664672,0.223675,-0.577673,-0.785025
-0.281031,-0.296717,0.259459,-0.577519,0.218126,-0.786697
-0.027270,-0.613004,-0.126555,-0.061355,-0.042812,0.997197
-0.286767,-0.279308,0.609687,-0.347306,0.867451,0.356240
-0.175570,-0.302236,0.604779,-0.515842,-0.850854,0.099767
-0.279745,0.181179,0.566446,0.827497,-0.413218,-0.380131
-0.555215,-0.000150,-0.986550,-0.258014,0.074689,0.963250
-0.290454,0.138444,0.850024,-0.512957,-0.809237,-0.286373
-0.246561,-0.538232,0.294435,-0.493910,0.326393,0.805929
0.259673,0.342702,0.523515,-0.085056,-0.756668,0.648243
-0.351728,-0.139685,0.593689,-0.513422,-0.175950,0.839904
0.646574,-0.228490,0.771008,0.190581,0.482790,0.854747
-0.106337,-0.322254,0.586732,0.961757,-0.125124,-0.243653
0.443143,-0.495155,0.670079,-0.702472,0.091114,0.705855
0.389595,-0.708866,0.690940,0.941234,0.070356,-0.330345
0.337569,-0.067693,-0.972114,-0.034110,0.023469,0.999143
-0.122726,-0.098493,0.961312,0.630585,0.774036,0.056831
-0.548018,-0.409091,0.208805,-0.213229,0.815881,0.537467
0.007024,-0.297487,0.256168,-0.000247,-0.999990,0.004515
-0.370220,0.274047,0.514419,-0.863584,0.050758,0.501644
0.541581,-0.644402,0.732797,0.833800,0.517325,0.192748
-0.290571,-0.323708,0.077076,-0.421243,0.198841,0.884882
-0.216713,-0.389029,0.754955,0.795008,-0.328574,0.509903
-0.127055,-0.542124,0.582610,0.589069,-0.180910,-0.787572
-0.206822,0.094642,0.789953,0.660027,0.044733,0.749909
-0.222157,0.247696,0.306323,-0.109647,0.048821,0.992771
-0.145783,-0.346295,0.868902,0.919729,-0.317512,-0.230835
-0.390413,-0.549268,0.026711,-0.522960,0.592106,0.613126
-0.265053,-0.623912,0.261874,0.924091,0.230673,-0.304705
-0.804178,-0.184471,-0.989763,-0.154683,0.137837,0.978302
-0.244514,0.039973,0.501723,-0.739258,0.627181,-0.245240
-0.163575,0.231485,0.773834,-0.155471,-0.656210,0.738388
0.478553,0.099775,0.516037,-0.103607,0.448967,0.887521
0.053550,0.491649,0.328303,-0.017443,-0.305311,0.952093
-0.133142,-0.259288,0.688570,-0.167276,-0.132650,-0.976946
-0.558202,-0.277553,0.693478,0.267699,0.330140,0.905177
-0.100075,0.164540,0.752495,-0.579856,-0.108556,-0.807454
0.059462,-0.031462,0.606862,-0.102081,0.196768,0.975121
0.006264,-0.088825,-0.969566,0.278891,0.314154,0.907484
-0.050564,-0.038647,-0.624146,0.696640,-0.716123,0.043138
-0.197577,-0.104866,0.314942,-0.477923,-0.834118,-0.275385
-0.028149,0.100590,0.850844,0.453658,0.817632,-0.354502
-0.292618,-0.370463,0.790219,0.475904,0.319778,0.819303
0.055715,0.113294,0.646780,0.989863,0.128353,-0.060796
-0.073682,-0.051524,-0.778786,0.589648,-0.801244,0.101601
0.177446,-0.396472,0.080943,-0.047734,0.128539,0.990555
-0.065370,-0.316865,0.813962,0.834763,-0.345436,-0.428771
-0.107155,-0.165566,0.550215,-0.514924,0.710354,-0.479845
0.672267,-0.255651,0.753515,0.918992,-0.390694,-0.053021
-0.283488,-0.105167,0.736331,0.209459,-0.198718,0.957412
-0.556623,-0.380943,0.069111,0.313897,0.417752,-0.852615
-0.341837,-0.462817,0.656585,-0.006197,0.053374,0.998555
-0.466729,-0.268186,0.613864,0.293244,0.090614,0.951734
-0.070346,-0.178868,0.554060,-0.589328,0.792349,-0.157719
-0.103237,0.507603,0.717807,0.818060,-0.128546,0.560583
-0.005092,-0.456700,0.609599,-0.123573,0.024475,0.992034
0.852872,0.367171,0.511306,-0.085809,-0.123184,0.988667
-0.734945,-0.192643,0.699737,0.056848,0.449738,0.891349
-0.364137,-0.497424,0.581225,0.782247,0.474765,-0.403346
0.656229,0.355835,0.531381,0.274062,0.210009,0.938502
-0.291389,0.146616,0.821396,-0.055517,0.897605,0.437292
-0.050621,-0.120351,-0.306267,0.865297,-0.501044,0.014717
-0.199567,-0.185583,0.924519,0.666390,0.720886,-0.190388
-0.058465,-0.092248,-0.332214,0.818454,-0.572271,0.051362
0.387548,-0.263395,0.822758,-0.398092,-0.907461,0.134301
0.473520,0.044681,0.530672,0.709751,0.243118,0.661172
-0.757124,-0.047931,0.279766,-0.697243,-0.090910,-0.711047
-0.028442,0.280848,0.446250,-0.164400,0.283894,0.944657
-0.052553,-0.063458,0.941370,-0.526342,0.822021,-0.217362
-0.428162,0.690217,0.607106,-0.158272,-0.427558,-0.890025
-0.030667,-0.123388,0.675474,-0.671546,0.740270,0.032030
-0.046934,0.595466,0.324470,-0.399386,0.417740,0.816079
0.139989,0.422095,0.722693,-0.387860,0.524876,0.757674
-0.775148,-0.238970,0.712091,-0.429272,-0.568520,-0.701791
-0.086909,-0.830094,0.627835,-0.534857,0.452204,0.713751
0.023059,-0.922917,0.629962,-0.219803,-0.213498,0.951896
0.278752,-0.202867,0.901308,0.797519,0.222413,-0.560800
0.090246,0.397198,0.504637,-0.297189,0.907133,-0.297973
-0.704512,-0.083862,0.270028,-0.392583,-0.204465,-0.896701
0.062155,-0.533140,0.629574,-0.871794,0.348245,-0.344529
-0.154034,-0.059396,-0.903779,-0.576772,0.803222,0.148890
0.361619,0.431975,0.318343,-0.046756,0.055490,0.997364
-0.614093,-0.008876,0.144470,0.351375,0.611463,0.708977
0.631475,0.148540,0.597113,-0.120477,0.515542,0.848352
0.070463,0.359599,0.453629,0.435898,0.132789,-0.890146
-0.035408,-0.137719,0.970364,0.716260,-0.277900,-0.640112
-0.244864,0.073340,0.460697,0.471620,0.205245,-0.857583
-0.264703,-0.140797,0.369351,0.175575,0.775915,0.605911
0.394864,-0.223057,0.554237,0.867642,0.444708,-0.222334
-0.172702,0.331023,0.697710,0.820972,0.089336,0.563937
-0.174048,-0.378249,-0.126190,0.035138,0.319675,0.946876
-0.644409,0.017732,0.105416,0.586582,0.798487,0.135426
-0.020248,0.435612,0.768205,0.837048,-0.417618,0.353478
0.218120,-0.552946,0.076489,0.876503,0.393601,-0.277165
0.375314,0.776153,0.454260,0.462588,0.718812,-0.518961
-0.085326,-0.332906,0.800489,0.109753,0.804784,0.583333
-0.423422,-0.249748,0.064834,-0.121800,0.394926,0.910603
0.030843,0.012768,0.599229,0.891724,0.348894,-0.288274
0.007257,0.010074,0.923898,-0.650812,-0.032947,0.758524
-0.130273,-0.930191,0.611238,-0.045777,0.122559,0.991405
-0.210219,-0.596879,0.322886,0.935148,-0.341310,-0.094895
-0.450341,-0.525955,0.073354,0.580475,0.537576,0.611606
-0.057354,-0.381585,0.137867,0.328169,0.116128,-0.937454
-0.182300,-0.175148,0.567432,0.547997,-0.018941,-0.836266
-0.231697,-0.192301,0.203488,-0.266618,0.521566,0.810484
-0.311464,-0.582634,-0.973931,-0.042917,0.215160,0.975635
0.049921,-0.107689,0.660806,0.972883,0.230521,-0.018932
-0.185168,0.116372,0.566900,0.322024,0.790422,-0.521088
-0.216012,-0.315411,0.689123,-0.639126,0.446578,0.626168
0.044949,-0.062860,0.928308,0.767484,-0.324230,0.553031
-0.098497,-0.830394,-0.959385,-0.105396,0.111319,0.988180
-0.577748,0.034371,0.130056,0.928519,0.287659,-0.234745
-0.506875,0.179168,0.162274,0.007466,-0.296744,0.954928
-0.879791,0.075734,-1.000000,-0.114236,0.054422,0.991962
-0.013636,0.359171,-0.821839,0.980724,-0.182738,-0.069197
-0.042723,-0.209154,0.938656,-0.133294,0.371326,0.918885
-0.804178,-0.252487,0.720123,-0.583249,-0.530836,-0.614845
-0.275590,-0.459439,0.769768,0.955538,0.289201,-0.057535
-0.282377,-0.176302,0.465084,-0.226621,0.245145,0.942628
-0.067713,-0.075437,0.886042,0.652230,0.757978,-0.008012
0.391642,0.017089,0.339283,0.224962,-0.153465,0.962206
0.297244,0.923131,0.358527,0.212685,0.418318,-0.883049
-0.060690,-0.381499,0.746679,0.055493,-0.541019,0.839178
0.167612,-0.210609,-0.970608,0.004792,0.027551,0.999609
-0.025867,0.310578,0.704878,-0.020598,-0.823634,0.566748
0.423247,0.006609,0.638836,0.200356,-0.499230,-0.842987
-0.171298,-0.227634,0.827589,-0.257679,0.716948,-0.647755
0.755720,0.193071,0.531558,0.493559,-0.192114,0.848229
-0.073800,0.321314,0.528822,-0.103981,0.982707,0.153217
-0.498213,-0.115688,0.013627,0.865535,-0.481381,0.138284
0.269036,0.149439,0.775861,0.221506,-0.465448,0.856909
-0.367413,0.011400,0.751864,0.667976,0.526203,0.526230
-0.312929,-0.472313,0.073719,0.632794,0.767692,0.101098
-0.055479,0.550466,0.734813,-0.903368,0.421937,0.076778
-0.375021,-0.454261,0.174439,-0.634112,0.551731,-0.541752
-0.198278,-0.253257,0.663753,0.648132,-0.433984,0.625766
0.098440,0.606461,0.327450,-0.049379,-0.289211,-0.955991
-0.255223,0.256465,0.775861,0.097204,-0.805027,0.585220
0.190905,-0.256207,0.891780,0.791932,-0.161063,-0.588984
-0.020952,0.294109,0.683385,-0.091881,-0.845694,0.525699
-0.408380,-0.265747,0.609344,0.272189,0.413923,0.868666
-0.207643,0.394546,0.307353,0.332137,0.057995,-0.941446
-0.158542,-0.250390,0.853492,-0.440029,-0.724373,-0.530714
-0.812605,-0.318620,0.731445,0.810447,-0.037822,0.584590
-0.828875,-0.129677,-0.993397,-0.128102,0.135745,0.982427
0.242289,-0.696932,0.703449,0.452901,0.076673,-0.888258
0.114942,0.969030,0.512724,-0.320227,0.117576,-0.940016
-0.789311,0.023293,-0.996355,-0.127427,0.043577,0.990890
-0.321294,-0.410503,0.205825,0.610124,0.641173,-0.465452
-0.618304,-0.417903,0.658656,0.521852,-0.579411,-0.626062
-0.266282,0.046819,0.093961,0.681488,0.562002,-0.468752
-0.468601,-0.715198,-0.112862,0.568064,-0.555037,-0.607649
-0.755602,-0.403102,0.084045,0.406241,0.338547,0.848737
-0.151809,-0.263523,0.767352,0.615294,-0.331844,0.715048
-0.318897,-0.061448,0.147616,0.098329,0.147628,-0.984143
-0.013811,-0.024575,-0.640487,-0.677506,0.735174,-0.022488
0.787265,0.129633,0.523316,0.423428,-0.442233,-0.790657
0.122901,0.697488,-0.843365,0.932890,-0.359041,0.028369
-0.684730,-0.176772,0.710207,0.273139,0.357748,0.892979
0.903905,0.256207,-0.107112,-0.093283,-0.596847,0.796914
0.244982,-0.161587,0.826071,0.307110,0.796523,-0.520802
-0.504536,-0.407378,0.654546,0.124404,-0.054985,0.990707
-0.227014,0.172281,0.795050,0.126225,0.897813,0.421899
-0.132031,-0.722341,0.274781,0.984919,-0.168991,0.037114
-0.005031,-0.135366,0.983304,0.684989,-0.644015,-0.340639
-0.288464,-0.570742,0.578123,0.032213,0.253618,0.966768
0.072746,0.536349,0.702673,-0.495985,0.039908,-0.867414
-0.164686,-0.058712,0.779218,-0.053239,-0.531810,0.845188
-0.266224,-0.284825,0.076744,0.545642,-0.185546,-0.817219
-0.023466,0.417046,0.713730,-0.708960,0.087407,-0.699811
-0.527886,-0.037880,0.150907,0.140338,-0.086054,0.986357
-0.371742,0.674601,0.613155,0.029487,0.609035,0.792595
-0.187451,0.335686,0.719314,0.174914,0.848254,0.499871
-0.522853,-0.304202,0.703538,0.079728,0.300424,0.950468
0.000820,-0.027528,-0.683906,-0.644914,0.755238,0.117053
-0.213437,-0.501058,0.573105,0.374615,-0.421242,-0.825965
0.585242,-0.207956,0.603793,-0.280378,0.580160,0.764724
-0.062969,-0.203379,0.548011,-0.577713,0.503942,-0.642098
-0.667934,-0.184343,0.695760,-0.113551,0.058327,0.991819
-0.243635,-0.609325,0.266937,0.955338,0.127882,-0.266411
0.194652,0.286623,0.323816,0.005946,0.000954,-0.999982
-0.090827,0.053192,0.558226,0.130087,-0.475544,0.870020
-0.121025,0.058367,0.516136,0.649345,0.758668,0.052671
-0.114531,-0.216640,0.200928,-0.149901,0.866285,0.476528
-0.060748,0.465428,0.319241,0.531938,-0.078740,-0.843115
0.344941,-0.245599,0.844828,0.939732,0.288459,0.183562
0.083048,-0.195379,0.678610,0.912945,0.368511,-0.175304
0.633407,0.358529,0.532057,0.256997,0.470608,0.844086
0.029203,0.173224,-0.029326,0.497039,0.143224,-0.855826
0.667934,-0.027227,0.616889,-0.115698,0.008021,0.993252
-0.078597,-0.046049,-0.937991,-0.341172,0.939973,-0.007271
-0.036461,0.156710,0.861546,0.644257,0.736805,-0.205066
-0.083219,-0.130831,0.362859,-0.603847,-0.079838,-0.793092
-0.301341,-0.020982,0.514264,-0.655335,0.405530,0.637245
-0.544449,-0.279906,0.541940,0.699368,-0.290727,-0.652964
0.046177,0.060892,0.728299,0.911840,-0.096927,-0.398939
-0.235030,-0.659545,0.253310,0.709821,0.678707,-0.188444
-0.177502,-0.292313,0.491131,0.813427,-0.438528,-0.382139
-0.268039,-0.235803,0.119564,0.987157,-0.084907,0.135322
0.017441,-0.069703,-0.191943,-0.646633,0.762156,-0.031359
0.904724,0.432745,0.522474,-0.343642,-0.238531,0.908302
0.266285,-0.676186,0.697311,0.608905,-0.022711,-0.792918
-0.497806,0.064484,0.746668,0.543178,0.811251,-0.216402
-0.054311,-0.805283,0.304827,0.845632,-0.091414,-0.525880
0.402997,-0.271094,0.771285,0.665937,0.068141,-0.742890
0.163165,-0.241451,0.873877,0.281290,0.892542,0.352484
-0.182360,0.264935,0.344501,-0.165423,0.737403,0.654883
0.469248,-0.050239,0.606186,-0.223874,-0.645012,0.730644
-0.851640,-0.293125,0.739899,0.863861,-0.094337,0.494817
-0.889682,-0.586269,0.645539,0.084016,0.790051,0.607256
-0.090242,-0.060121,-0.712977,0.738320,-0.669644,-0.080373
0.068417,-0.059738,0.531237,-0.840581,0.199137,-0.503754
-0.088077,-0.021922,0.799581,0.840446,0.384337,-0.382014
-0.649499,0.263992,0.072667,0.950691,0.060378,-0.304207
0.010593,0.090449,0.703538,0.991046,0.119724,-0.059102
0.145665,-0.529334,-0.963185,-0.047013,0.004044,0.998886
-0.349563,0.505807,-0.147018,0.985959,-0.156543,-0.058136
-0.381401,0.027611,0.439614,-0.575271,0.801643,0.162576
0.722829,0.133311,0.611593,-0.552447,0.397396,0.732720
0.474395,-0.030734,0.731290,0.079442,0.459371,0.884685
-0.398079,-0.608555,0.579719,-0.028280,0.003717,0.999593
-0.580966,0.287349,0.096985,0.954212,0.168690,0.247028
-0.604845,-0.253385,-0.977111,-0.168033,0.100056,0.980690
0.816702,0.084076,-0.137280,-0.851921,0.456160,-0.257195
-0.356468,-0.516543,0.025371,-0.610749,0.545967,0.573503
0.067420,0.540798,0.709454,-0.495985,0.039908,-0.867414
-0.758471,0.116586,0.027310,0.554548,0.558379,-0.617001
-0.332768,-0.381544,-0.974817,-0.053510,-0.065889,0.996391
0.682740,-0.183959,0.752495,-0.009572,0.573097,0.819432
0.223210,0.322682,0.513478,0.100565,0.267810,-0.958209
-0.111077,-0.234777,0.684171,0.539663,0.253490,0.802812
-0.517002,-0.842628,-0.967827,-0.092810,0.041080,0.994836
-0.170130,-0.466112,-0.969633,-0.162670,-0.020747,0.986462
0.002927,0.027655,0.553595,-0.655583,0.076341,-0.751254
-0.147305,-0.874925,0.625985,0.766729,-0.372011,-0.523196
0.350092,0.350743,0.557428,0.862718,0.089410,0.497719
-0.008835,0.321656,0.558868,-0.046446,-0.300872,0.952533
-0.159125,-0.417560,0.392174,0.005250,-0.996208,0.086846
-0.414524,0.671693,0.613255,0.041632,0.608293,0.792620
0.391935,0.598161,0.522806,-0.100716,-0.008395,0.994880
-0.093932,0.290088,0.484882,-0.020254,-0.654189,0.756060
-0.237841,-0.270324,0.476806,-0.353452,0.459796,0.814653
-0.111545,-0.091862,-0.806262,0.835695,-0.513512,-0.194729
-0.531983,-0.338637,0.605610,0.906204,-0.238533,-0.349138
0.319308,0.767086,0.450981,0.260784,-0.740460,0.619444
0.486043,-0.302450,0.657238,0.884249,-0.167281,-0.436028
0.018612,-0.154872,-0.965500,0.120327,0.087904,0.988835
0.274187,0.433771,0.316172,-0.150076,0.115497,0.981905
-0.229472,-0.059437,0.858433,-0.030301,-0.586363,0.809482
-0.461928,-0.274859,0.786164,-0.396174,-0.450730,-0.799931
-0.047988,-0.168219,0.970397,-0.393886,0.817024,0.421100
-0.471587,-0.403402,0.075547,0.077689,0.270494,0.959582
0.280741,-0.128393,0.748152,-0.282519,-0.382717,-0.879608
-0.635921,0.402289,0.182493,0.663548,-0.208409,0.718519
0.183297,-0.367855,0.014735,-0.514655,-0.012702,-0.857304
0.257330,0.116631,0.775817,0.098740,-0.529950,0.842261
-0.122315,0.590292,0.325367,-0.512027,0.200490,0.835244
0.086148,0.483949,0.573171,0.025528,0.337201,0.941086
0.018730,-0.041472,0.544543,0.864175,-0.147233,0.481169
-0.213787,0.171297,0.587263,-0.611514,-0.746556,0.262117
0.762978,0.128693,0.517278,-0.170175,0.239390,0.955894
-0.033300,0.003701,0.518518,0.549052,0.738613,0.391143
-0.012522,-0.173991,0.878995,0.974535,0.048146,0.219004
-0.316147,-0.213987,0.638825,-0.230671,0.923540,-0.306374
-0.125183,-0.045793,0.895038,-0.502203,-0.856471,0.119375
-0.168722,-0.299242,0.563710,0.081599,0.285102,0.955018
0.247968,0.170143,0.331461,0.308175,0.087341,0.947312
0.285599,0.171169,0.778154,-0.006566,-0.530476,0.847674
-0.432434,-0.288931,0.841892,0.335046,0.860346,0.384121
-0.342951,-0.103796,0.874852,0.240802,0.595263,0.766601
-0.455727,-0.332478,0.068867,0.057217,-0.102757,0.993060
-0.301163,0.339579,0.303963,0.111246,-0.235686,0.965441
-0.179549,-0.272935,-0.657250,0.926677,-0.367634,-0.078201
-0.240884,-0.325805,0.489369,-0.650074,0.733025,0.200198
0.125944,0.598417,0.321235,0.037143,0.042790,0.998393
-0.542867,-0.403913,0.595085,-0.366804,-0.501403,-0.783613
0.153510,-0.172665,0.786009,0.130905,0.906679,0.400994
-0.270204,-0.152178,0.861845,0.267518,0.403542,-0.874979
0.365309,-0.393734,0.676139,0.055962,0.670596,0.739709
-0.088545,0.128648,0.574501,-0.121652,0.641437,-0.757469
0.404694,-0.309892,0.782253,0.790041,0.608154,0.077358
-0.211562,-0.043096,0.879771,-0.722213,0.170183,-0.670407
0.657811,-0.052464,0.726426,0.183098,0.507539,0.841950
0.383859,0.306813,0.494721,0.570964,-0.612125,0.547086
-0.857669,-0.260956,0.730404,0.963259,-0.118344,0.241095
-0.284717,-0.116158,0.781910,-0.273526,0.219212,-0.936552
-0.192719,0.175832,0.568894,-0.392014,0.437218,0.809423
0.439693,0.712459,0.461074,0.409265,0.254673,-0.876153
-0.074968,-0.332436,0.865523,0.897033,-0.102167,-0.429993
-0.281323,-0.707498,-0.967849,0.053780,0.065743,0.996386
0.113946,-0.301808,0.684914,0.353561,-0.322195,0.878171
-0.139286,0.111882,0.565870,-0.114177,-0.683077,0.721366
-0.049978,-0.141781,0.291931,0.973957,0.088040,0.208941
-0.024870,-0.148755,0.714572,0.774284,-0.616885,-0.141197
0.394571,-0.329441,0.562037,0.829460,0.295245,0.474159
-0.435360,-0.333977,0.557494,-0.021831,-0.467104,0.883933
-0.340433,-0.334188,0.348079,0.001269,0.541986,0.840387
-0.028674,-0.617497,0.269086,-0.432505,0.559840,0.706766
-0.250483,-0.170185,0.209260,0.991677,-0.125745,0.027669
0.117343,0.425218,0.319684,-0.370706,0.097899,-0.923576
-0.340901,-0.240338,0.774676,0.160822,0.470402,0.867674
0.085212,-0.065254,0.453806,-0.792278,0.579257,-0.191721
-0.167612,0.555640,-0.125049,0.830196,0.053483,-0.554900
-0.170130,0.197862,0.833771,-0.733895,0.679225,0.007247
0.171127,-0.280890,0.617155,-0.417445,0.036233,0.907979
-0.088838,-0.285895,0.917273,0.892173,-0.365717,0.265099
0.027214,0.676014,0.317834,-0.463415,0.076403,0.882842
0.003920,0.428938,0.760949,-0.601415,-0.467921,0.647572
-0.431320,-0.278794,0.561582,0.416692,-0.682048,0.600982
-0.285188,-0.401861,0.646060,-0.545892,-0.056609,-0.835941
0.347049,0.330554,0.510785,-0.236382,0.870727,-0.431228
0.164804,0.816491,-0.716090,0.981296,-0.192435,0.005166
-0.057997,-0.364988,0.788358,0.589756,0.373866,0.715830
0.139932,-0.302620,0.239372,0.429908,-0.629572,0.647161
0.341255,-0.274175,0.779262,-0.233986,-0.936475,-0.261277
-0.168608,-0.186568,0.933515,-0.294292,0.855255,0.426534
0.449348,-0.308865,0.650314,-0.673223,0.201287,0.711515
0.630714,-0.098963,0.620932,-0.181669,-0.154424,0.971159
-0.118218,-0.163556,0.590454,-0.212251,0.975707,-0.054270
-0.065430,-0.230884,0.846988,0.020185,0.525824,0.850354
-0.360390,0.246797,0.509511,-0.420945,-0.500730,0.756356
-0.054604,-0.373886,0.131973,0.328169,0.116128,-0.937454
-0.049978,-0.464827,-0.964148,-0.045601,-0.072748,0.996307
-0.602737,-0.433132,0.654336,-0.738033,0.131309,0.661865
-0.298298,-0.544649,-0.168999,0.491806,-0.731971,-0.471535
-0.297769,0.048701,0.865822,0.645136,-0.731761,-0.219828
0.330075,0.078387,0.344689,-0.117254,0.444197,0.888223
-0.027856,-0.101015,0.469760,0.961371,-0.203639,0.185193
-0.081522,-0.951493,0.599052,-0.251885,0.466798,0.847735
-0.143440,-0.544262,0.829583,-0.425200,0.885387,0.187870
-0.114649,-0.465725,-0.965877,-0.120799,-0.084421,0.989081
0.292386,0.943279,0.506686,0.039828,-0.002643,0.999203
0.677768,0.065382,0.617609,0.322586,-0.192058,-0.926851
0.035933,-0.028896,-0.622284,-0.560822,0.827933,-0.002374
-0.194180,-0.900033,0.601755,-0.642444,-0.056430,-0.764252
-0.153624,-0.201541,0.662490,-0.368720,-0.258263,-0.892942
-0.346284,0.298513,0.310466,0.332966,0.067259,-0.940537
-0.109438,-0.077147,-0.855441,0.767874,-0.630632,-0.112579
-0.551004,-0.582078,-0.976756,-0.151738,0.245821,0.957365
-0.337976,0.237129,0.162384,0.294027,-0.445501,0.845622
-0.735002,-0.346723,0.712113,-0.307479,0.395851,-0.865308
-0.003334,-0.103668,0.734991,0.957139,-0.099653,-0.271946
-0.124829,-0.446862,0.581192,-0.175777,-0.116970,0.977456
-0.115292,-0.206204,0.941536,-0.186015,0.409773,0.893020
-0.322527,-0.319604,-0.188398,0.793764,0.503274,-0.341547
-0.190730,-0.165266,-0.941016,0.972701,-0.148755,-0.178114
-0.366302,-0.510256,0.581403,0.782247,0.474765,-0.403346
-0.490312,-0.646968,0.015112,0.475233,0.795525,-0.375890
0.054368,-0.907947,0.627380,0.302961,0.406620,-0.861902
0.011179,-0.566207,0.624057,-0.070518,-0.350580,0.933874
0.063852,-0.339666,0.232459,0.429908,-0.629572,0.647161
-0.372328,-0.259802,0.785876,0.001477,0.236529,0.971623
0.026688,0.015805,0.926014,0.705057,0.290619,-0.646866
0.454910,0.608385,0.529553,0.682723,0.632405,0.365996
0.012758,-0.162443,0.810438,-0.692260,-0.702599,-0.164716
0.165565,0.507306,0.566313,0.232886,0.039234,0.971712
-0.363198,-0.156068,0.779994,0.005925,-0.016585,0.999845
-0.151166,-0.270196,0.772836,-0.601818,0.208233,-0.771008
0.525196,0.060508,0.623049,-0.570701,-0.308907,-0.760840
0.316965,0.427784,0.314521,-0.046756,0.055490,0.997364
-0.221631,0.318277,0.717940,0.924747,0.304317,0.228549
-0.000584,-0.482323,0.658291,0.979178,-0.013132,0.202579
-0.195120,-0.283799,0.500404,0.872192,-0.253549,-0.418323
0.618833,-0.218052,0.229955,-0.151913,-0.602026,0.783892
-0.138293,-0.057555,0.932019,-0.298526,-0.909108,-0.290526
-0.511090,-0.490236,0.652009,0.269114,0.040856,0.962241
0.549775,0.231654,0.543191,0.318352,0.432204,-0.843713
-0.700707,-0.051824,0.274271,0.630985,0.048401,0.774284
-0.468719,-0.030350,0.785057,0.099320,0.300279,0.948666
0.466612,0.141353,0.330142,0.335744,0.656563,0.675426
-0.010825,0.128306,0.591884,0.963221,0.249701,-0.099267
0.270790,0.197990,0.131718,0.209907,0.012076,-0.977647
0.196874,-0.082794,0.118578,-0.156543,0.021789,0.987431
-0.241410,0.286793,0.784968,-0.290705,0.847021,-0.445024
0.061801,-0.189649,-0.966708,0.149955,0.049096,0.987473
0.381108,-0.223057,0.722128,0.484656,0.658497,-0.575752
-0.107041,-0.074453,0.480939,0.770966,0.564286,0.295285
-0.831683,-0.264935,0.732354,0.863959,0.367587,0.344171
-0.310996,-0.314468,-0.187911,0.793764,0.503274,-0.341547
-0.288521,0.008534,0.462237,-0.159922,0.019003,0.986947
-0.117693,-0.188495,0.602253,-0.341403,0.920624,0.189459
-0.619301,-0.434755,0.707758,0.719957,-0.576530,-0.386360
0.033300,0.719046,0.318576,0.892085,-0.111154,-0.437982
-0.070463,0.235889,0.452532,-0.050543,-0.996021,0.073401
-0.040616,-0.068421,-0.018967,-0.295508,0.462044,0.836176
-0.387838,-0.258732,0.256456,0.403015,-0.021020,-0.914952
-0.070110,0.202525,0.710938,-0.027294,0.554944,0.831440
-0.267103,-0.388901,0.283035,-0.124740,0.462312,0.877899
-0.272840,0.138188,0.345775,0.782568,0.239476,-0.574664
-0.166619,-0.218052,0.500127,0.816696,-0.301672,-0.491936
0.017441,-0.306555,0.700624,-0.692583,0.475278,0.542622
-0.141804,0.297359,0.717619,-0.340829,0.753437,0.562288
-0.089074,0.472399,0.739633,0.452679,0.517039,-0.726465
-0.358108,-0.317463,0.262284,0.044278,0.992854,-0.110820
0.033243,0.088783,0.640720,0.960595,0.100640,-0.259094
0.268625,0.144606,0.131784,-0.070449,-0.198458,0.977574
-0.500788,-0.467308,0.084909,-0.778731,-0.146117,-0.610105
-0.426229,-0.470088,0.214467,-0.692187,-0.690459,0.210104
0.019959,-0.620789,0.617808,-0.096607,0.185347,0.977913
-0.057761,-0.116673,-0.555356,0.925944,-0.375464,-0.040679
-0.762978,-0.050498,0.283290,-0.700544,-0.062808,-0.710840
-0.258616,0.231997,0.350040,-0.707666,0.680071,0.191604
-0.225786,0.010374,0.456354,0.942297,0.005097,-0.334738
-0.071692,-0.185884,0.703127,-0.810707,0.562248,-0.163189
-0.199449,0.578828,-0.125115,0.745590,0.280398,-0.604543
0.066952,-0.487072,-0.968004,-0.116805,0.027369,0.992778
-0.512083,-0.144820,-0.983791,-0.159720,0.068567,0.984778
0.003920,0.303476,0.734093,-0.525129,-0.729734,0.437866
0.070463,-0.049300,0.602730,-0.467330,0.107809,0.877485
0.561245,-0.360667,0.784015,0.771681,0.549087,-0.320954
-0.267278,0.531130,-0.148691,0.502689,0.282059,-0.817158
-0.087552,0.384964,0.572606,0.085366,0.340333,-0.936422
0.172002,-0.418887,0.072733,-0.111265,0.281487,-0.953092
0.338505,-0.258732,0.845138,0.939732,0.288459,0.183562
-0.487386,-0.278966,0.614307,-0.266707,0.045252,0.962715
-0.771405,-0.091091,0.287555,-0.697538,-0.158644,-0.698765
-0.038858,-0.041984,-0.910903,-0.441017,0.894657,0.071373
-0.021302,-0.131771,0.776592,-0.729806,-0.354918,0.584308
-0.413938,-0.363448,0.550935,-0.245973,-0.214114,0.945332
-0.347456,-0.276527,0.784347,0.055467,0.163617,0.984963
0.019898,-0.563640,-0.965733,-0.110363,0.054725,0.992384
-0.561302,-0.500802,0.629818,0.281187,-0.696005,-0.660690
0.200857,-0.509700,0.542194,0.872624,-0.132107,0.470186
-0.302102,0.677854,0.610862,-0.289916,0.602732,0.743413
-0.327560,-0.331494,0.858001,-0.739214,-0.174888,-0.650367
0.244457,0.260058,0.799459,-0.215017,-0.919612,0.328758
-0.182243,0.253298,0.311873,-0.353732,0.580355,0.733527
-0.159885,-0.260442,0.870077,0.457551,0.881979,0.112965
-0.481185,-0.081209,-0.005806,0.269294,-0.952301,-0.143537
-0.099547,0.494001,0.747034,0.966278,0.119657,-0.228012
-0.115410,0.052038,0.813685,-0.523503,-0.457536,0.718752
-0.856030,-0.303604,0.743233,0.821952,-0.177870,0.541070
-0.063616,-0.290002,0.889620,0.975212,-0.113723,0.189811
0.258209,-0.718490,0.707792,0.478840,-0.063424,-0.875608
-0.016094,-0.150851,-0.257055,0.978469,-0.192598,0.074189
-0.110552,-0.010116,0.466757,-0.650579,-0.503185,-0.568816
0.112953,-0.189777,0.754611,0.181362,0.978011,0.102965
-0.397261,-0.482793,0.248047,-0.377921,-0.175996,0.908956
0.052557,-0.031718,-0.441398,-0.756644,0.648891,0.080185
0.033886,-0.035697,-0.178571,-0.713100,0.565496,-0.414370
0.118629,0.361651,0.486190,0.593201,-0.780208,-0.198466
-0.323463,-0.316693,0.783151,-0.015171,0.250721,0.967941
0.036987,-0.052892,0.542837,0.919986,-0.106147,0.377305
0.316383,0.855975,0.507085,0.336020,-0.067809,0.939411
-0.233451,0.219934,0.764926,-0.207217,-0.771348,0.601733
-0.526832,-0.425346,0.616822,-0.753256,0.296705,-0.587002
-0.295194,-0.044381,0.894982,0.040275,0.875099,-0.482266
0.166326,0.081340,0.517222,0.637296,0.539847,-0.549926
-0.236262,-0.553761,-0.742657,0.981601,-0.190945,-0.000509
-0.667816,-0.469276,0.670356,-0.233846,-0.364805,-0.901240
-0.128226,-0.280548,0.232548,-0.648316,0.751487,-0.122284
-0.109673,0.229088,0.554558,-0.064332,-0.208619,0.975879
0.137239,-0.264465,0.057921,0.869688,0.476420,0.129098
0.076375,0.110085,-0.021837,-0.657872,0.166956,0.734391
0.011297,-0.127495,0.943851,0.891484,0.206225,0.403395
-0.454320,-0.172581,0.692447,-0.490946,-0.186006,-0.851102
-0.257330,-0.635762,0.582389,-0.512916,0.379508,0.769994
0.066367,0.401989,0.444843,-0.597323,0.046508,0.800651
-0.726222,-0.265919,0.085463,0.735901,-0.055291,0.674828
-0.084098,-0.498578,0.792734,0.712527,-0.177188,-0.678903
0.062680,0.184260,0.553307,0.122654,-0.039327,0.991670
-0.379936,-0.753525,-0.113682,-0.373283,0.575953,0.727282
-0.716624,-0.117913,0.274991,-0.264802,-0.542178,-0.797448
-0.371274,-0.329825,0.791737,0.114219,0.326960,0.938111
0.003220,-0.040402,-0.028551,0.949340,-0.047990,-0.310563
0.232633,-0.424189,0.061798,-0.395451,-0.432052,0.810524
0.313340,-0.245727,-0.965378,-0.002961,0.123351,0.992359
0.389009,0.074622,0.347326,0.194234,0.541664,0.817847
-0.015626,-0.209710,0.784913,-0.782201,0.596562,-0.179655
-0.225903,0.298215,0.792380,0.185035,-0.844209,0.503063
-0.050039,0.506833,0.737129,-0.378514,-0.036553,-0.924874
0.085152,-0.113506,0.880048,0.586551,-0.607458,-0.535679
0.594136,-0.213987,0.761901,0.082655,0.545904,0.833760
0.216363,0.993969,0.501700,0.429867,0.308906,0.848406
0.090596,-0.267032,0.692237,0.700327,-0.307074,-0.644398
-0.681804,-0.486087,0.227883,0.619877,0.721019,0.309652
-0.310000,-0.580921,0.242209,0.282929,0.815833,0.504348
0.132381,-0.254369,0.707238,-0.422767,-0.334619,0.842198
0.107452,-0.435014,0.305492,-0.477107,0.779769,0.405376
-0.005560,0.344670,0.504448,0.055864,-0.405937,0.912192
-0.326799,-0.368025,0.794884,0.358333,0.551196,0.753512
0.063616,-0.128649,0.904665,-0.480500,0.876993,0.001810
-0.210980,-0.212919,-0.029393,-0.181151,-0.142874,0.973022
-0.331832,-0.290386,0.271036,0.830599,-0.188567,-0.523973
-0.532101,-0.415678,-0.977643,-0.131497,0.094781,0.986775
0.134664,-0.533185,0.689600,-0.651795,-0.115009,-0.749624
-0.306195,0.016019,0.867872,0.856926,-0.262576,-0.443544
0.196467,0.480440,0.314743,-0.096073,0.206981,-0.973616
-0.337333,-0.266773,0.259924,0.732799,-0.274561,-0.622593
0.047170,0.669855,0.322088,-0.483096,0.067604,0.872954
-0.326038,-0.400107,0.809829,0.607322,0.596068,0.525226
-0.265874,-0.392321,0.072844,0.556735,0.123861,-0.821404
-0.239013,-0.532200,0.216018,0.535185,0.722195,-0.438190
-0.254112,-0.083222,0.882518,-0.101030,0.182535,0.977995
0.271143,0.257108,0.554625,-0.268511,0.428149,0.862896
-0.226897,0.116759,0.795360,0.871388,0.095278,0.481253
0.005149,-0.146486,0.638293,0.662032,0.747560,0.053556
0.395914,0.754637,0.312726,-0.596830,0.081209,-0.798248
-0.336922,-0.626606,0.765436,-0.401948,-0.911874,-0.083206
-0.026103,0.326319,0.683429,0.107168,-0.376251,0.920299
-0.081933,-0.767853,0.633496,0.227916,-0.495879,-0.837949
0.016447,-0.042028,0.443724,0.807631,-0.106402,-0.580009
0.326038,-0.038222,0.660717,-0.801722,0.521323,0.292343
-0.142272,0.231184,0.556818,0.032018,0.110915,0.993314
0.369406,-0.285595,0.814693,0.901634,0.373499,-0.218072
-0.238252,-0.300866,0.114922,0.995435,0.048513,0.082189
0.064727,-0.151321,0.982661,0.075648,0.528137,0.845783
-0.285538,0.116074,0.821606,0.208671,0.977963,0.006627
-0.038801,-0.141567,-0.569947,0.888253,-0.429959,-0.161686
-0.133667,0.329870,0.120196,-0.277864,-0.602997,-0.747788
-0.057647,-0.241067,0.730836,0.897126,-0.093895,-0.431682
-0.059576,-0.307111,0.755199,-0.341620,-0.587345,0.733704
-0.377536,-0.104096,-0.135551,0.008146,-0.078609,0.996872
-0.269386,-0.187808,0.688215,0.203069,0.779712,0.592294
-0.105458,-0.048958,-0.037414,0.172234,0.319254,0.931886
-0.177210,-0.297359,0.751587,0.822687,-0.391059,0.412624
-0.504125,-0.016875,0.789665,0.858228,0.034546,0.512104
0.367649,0.087713,0.818448,0.473271,-0.849440,-0.233378
-0.127405,-0.688418,0.282447,-0.242338,-0.490022,0.837348
-0.240006,-0.632682,0.591584,0.449832,-0.491152,-0.745936
0.197988,0.091647,0.332901,-0.114744,0.114538,0.986770
-0.809093,-0.421239,0.088266,0.407082,0.483257,0.775078
-0.103294,-0.267629,0.899990,-0.576769,0.816599,-0.022470
0.060340,0.414096,0.770654,0.379253,-0.668217,0.640041
-0.100893,-0.468764,0.788114,-0.610808,0.090641,0.786573
-0.248786,-0.015763,0.910548,-0.334844,0.911631,-0.238343
0.671856,0.094814,0.615548,-0.313304,0.387895,0.866821
0.197578,-0.501914,0.361352,0.508264,0.044387,-0.860057
-0.300519,-0.540628,-0.148026,-0.770668,0.614428,0.168965
0.374496,0.829281,0.437243,0.534850,-0.679357,-0.502403
-0.359865,-0.033217,0.351691,0.498155,0.148797,0.854225
-0.120265,-0.564324,0.290591,0.676170,-0.045516,0.735339
-0.051324,-0.337911,0.787106,-0.631064,-0.396661,-0.666647
-0.533504,-0.275159,0.250296,-0.008359,-0.403073,0.915130
0.373032,0.102856,0.527470,-0.378243,-0.417332,-0.826297
-0.257562,-0.210353,0.643888,0.098516,0.093317,0.990750
-0.334875,-0.449256,0.655909,0.005169,0.462848,0.886422
-0.217884,0.275329,0.766865,0.901934,-0.309030,0.301689
-0.440860,0.731667,0.466026,0.398492,0.734562,-0.549202
0.031779,-0.006907,0.725917,0.763663,-0.048548,-0.643787
-0.389652,-0.491991,0.569748,0.612789,0.385190,-0.690014
-0.387720,-0.221389,0.648641,0.219621,-0.284336,0.933231
-0.132499,0.205047,0.765613,0.079505,-0.621281,0.779544
0.064320,0.014823,0.930756,0.896904,0.206389,-0.391109
-0.302334,0.029324,0.891404,-0.147216,-0.694083,-0.704682
0.512319,0.727646,0.470336,0.397040,0.596543,-0.697492
-0.284777,0.718490,0.586410,0.866776,0.023070,0.498165
-0.548721,-0.783469,-0.966519,-0.178867,0.042845,0.982940
0.019959,0.270238,0.736896,0.655111,0.650722,-0.383916
0.078483,-0.028509,0.739024,0.279471,-0.592150,-0.755814
-0.320419,-0.319303,-0.171359,-0.717243,-0.667447,0.200192
-0.642416,-0.453449,0.621398,-0.305041,0.257927,-0.916746
0.340962,0.714856,0.324559,-0.607156,0.239683,-0.757571
0.383391,0.769950,0.465306,0.482135,0.410286,-0.774087
-0.033707,-0.121550,0.604779,0.760274,-0.636132,-0.131607
0.005678,-0.489552,0.580240,0.340539,-0.155676,0.927253
-0.118161,0.254113,0.250584,-0.303135,0.835739,0.457875
-0.255165,0.051224,0.793188,0.251549,0.777720,-0.576085
-0.570257,-0.398739,0.183845,0.200927,0.961155,0.189235
0.395857,0.479628,0.524867,-0.060764,-0.220160,0.973569
0.043366,-0.257191,0.366659,-0.585662,-0.728249,0.355885
-0.132145,-0.094898,-0.727557,0.762532,-0.643064,-0.070799
-0.415053,-0.650091,-0.969212,-0.059838,0.151891,0.986584
-0.444608,-0.298513,0.271103,0.844710,0.105516,0.524720
-0.356061,0.024405,0.212151,-0.566603,-0.575332,0.589876
-0.040966,0.528138,0.571077,0.046128,-0.127412,0.990777
0.123076,-0.866753,0.605588,0.067108,0.939742,0.335234
0.082637,0.485275,0.703715,-0.575780,0.233128,-0.783664
-0.548311,-0.134382,0.788148,-0.493463,0.406676,-0.768837
0.040030,-0.106448,0.570900,-0.488624,0.861132,-0.140354
-0.776731,-0.046647,0.281107,-0.700544,-0.062808,-0.710840
-0.110377,-0.336243,0.799138,-0.473695,-0.770623,-0.426325
-0.169837,0.261598,0.479277,-0.507496,0.355313,-0.784985
0.087613,-0.114748,0.929460,0.320779,0.829399,0.457382
-0.130155,-0.236960,0.925084,0.963582,0.239309,-0.119335
0.046995,-0.413923,0.873023,0.676745,0.284957,0.678834
0.064788,0.153418,0.730171,0.422224,0.052382,0.904977
0.015158,0.436468,0.779827,0.060332,-0.675618,0.734779
-0.344823,-0.004341,-0.983670,-0.200616,0.200366,0.958961
-0.584595,-0.442285,0.066640,-0.423441,-0.128584,0.896752
-0.540584,-0.030778,0.784458,0.580434,0.197619,0.789964
-0.661087,-0.457898,0.724632,0.080113,0.590526,0.803032
-0.055947,0.268313,0.413445,0.957635,0.138048,-0.252741
-0.270440,0.769866,0.585613,-0.134853,-0.006697,0.990843
-0.283195,-0.524843,-0.157565,0.834803,-0.526824,-0.159875
-0.240824,-0.432917,0.791704,-0.579422,-0.057363,-0.813007
-0.292093,0.046007,0.777811,0.867637,0.488078,0.094794
0.482882,-0.240380,0.640166,0.147007,0.559620,0.815607
0.206183,-0.004941,0.728554,0.181185,0.259148,0.948691
0.231990,0.988750,0.501058,0.429867,0.308906,0.848406
-0.056650,-0.247354,-0.021837,0.690468,-0.158127,-0.705869
0.380054,-0.301380,0.802107,0.271401,0.625049,0.731885
-0.066305,-0.139473,0.668694,0.668035,-0.729950,0.144574
-0.043073,-0.322468,0.358106,0.207650,-0.419020,-0.883914
-0.266985,-0.310192,0.479077,-0.060742,0.438436,0.896708
-0.134313,-0.233409,0.629530,0.532074,-0.811544,-0.241442
-0.408791,-0.415294,0.009262,0.927544,-0.244945,-0.282247
0.017208,-0.096183,0.621885,0.401532,-0.859348,0.316691
0.845089,0.410203,0.518784,0.308442,0.129979,-0.942321
-0.242756,0.758444,0.596171,-0.306208,0.822351,0.479558
-0.007781,-0.107133,0.425765,0.465738,-0.774681,0.427736
0.765436,0.161759,0.533719,-0.669181,-0.032419,-0.742392
-0.193187,-0.811444,0.604657,-0.329849,0.130706,0.934942
-0.458185,-0.408490,0.658789,-0.178542,0.051625,0.982577
0.108856,-0.112266,0.889343,-0.352372,0.879130,0.320880
-0.255223,-0.218394,0.680670,-0.637236,-0.762776,0.110013
0.108213,-0.346895,0.065565,-0.402387,0.067482,0.912979
-0.059344,-0.120095,0.136161,-0.466574,0.071504,-0.881587
-0.197984,-0.078943,0.022324,0.433717,0.863888,-0.256097
-0.811787,-0.152261,-0.991890,-0.139219,0.135653,0.980926
-0.134488,-0.229686,0.923344,-0.773505,-0.518292,0.364779
-0.256159,0.126126,0.809231,0.011137,0.995782,0.091070
0.327792,-0.649493,0.706994,-0.070310,0.015055,0.997412
-0.334521,-0.268998,0.488627,0.240319,0.774103,0.585672
-0.394449,0.741121,0.572861,0.328495,0.906544,-0.265083
-0.476502,-0.034412,0.019466,-0.110959,-0.092959,0.989468
-0.485865,-0.300952,0.692747,0.851228,-0.201852,0.484424
-0.038801,-0.106193,0.386590,0.743939,0.213985,-0.633060
-0.398546,-0.021880,0.786586,-0.192054,0.404184,0.894288
0.027214,-0.120095,0.654258,0.952065,0.199027,-0.232295
0.028503,0.503199,0.330973,-0.234789,-0.376731,0.896074
-0.003395,-0.130275,0.855220,-0.408193,-0.690782,0.596824
-0.384208,-0.317249,0.657515,0.773281,-0.045572,0.632424
-0.207936,-0.179639,0.093440,-0.379050,0.897420,-0.225739
-0.239713,-0.386546,0.291942,-0.022006,0.400173,0.916176
0.181543,0.031462,0.333776,-0.117441,0.219183,0.968590
-0.241117,-0.360539,-0.135009,-0.230128,0.200551,0.952271
-0.351903,-0.366270,0.562003,-0.092480,-0.218945,0.971345
0.340726,-0.145846,0.614097,0.942556,-0.311876,0.119670
-0.457188,-0.102898,0.000343,0.540186,0.821757,-0.181426
0.085505,-0.002375,0.856594,0.663594,-0.100884,-0.741259
-0.371042,-0.459394,0.240358,-0.299416,0.604161,0.738471
-0.121729,-0.719730,-0.963163,-0.104216,0.092728,0.990222
-0.236612,-0.610824,0.277340,0.883368,0.386576,-0.264991
-0.388716,-0.024489,0.788281,-0.108971,0.139646,0.984187
-0.726983,0.006523,-0.994461,0.126568,-0.011505,-0.991891
-0.748054,-0.380090,0.220106,-0.737829,-0.421846,-0.526929
-0.090302,-0.298855,0.852384,-0.690930,0.549775,0.469428
0.026921,-0.286109,-0.142443,0.067187,0.369316,0.926872
-0.428276,-0.346381,0.244546,0.733472,0.635028,-0.242399
-0.166033,-0.586483,-0.105539,-0.142777,-0.302304,0.942458
-0.288932,-0.163898,0.177895,0.453402,0.632957,0.627528
-0.096914,-0.241620,0.232448,0.760977,-0.303582,0.573369
-0.218527,0.150167,0.746191,-0.094819,-0.113353,0.989020
0.148652,-0.438137,0.070207,0.584161,0.410438,-0.700212
0.098732,0.556625,0.573093,-0.186025,-0.577330,0.795038
-0.218234,-0.562230,0.304960,-0.517476,0.376293,0.768520
-0.250365,0.804729,0.457240,0.671424,-0.711715,0.206524
-0.045006,-0.304247,0.873478,-0.743142,0.231497,0.627813
-0.439689,-0.369565,0.763419,0.142575,-0.987629,0.065276
-0.666062,0.002972,0.114069,0.873958,0.478565,-0.084696
-0.614268,-0.449812,-0.980667,-0.057082,0.096450,0.993700
0.014926,-0.130790,0.753005,0.783717,-0.613787,0.095148
-0.399600,-0.395744,0.074849,0.248931,-0.207977,0.945927
-0.107802,-0.194440,0.386656,0.083125,0.777338,0.623567
-0.615204,-0.313100,-0.977609,-0.186020,0.104447,0.976979
0.507168,-0.532929,0.716655,-0.497276,-0.450993,0.741163
-0.248550,-0.663310,0.593124,-0.353323,0.571546,0.740606
0.440511,-0.089637,0.522030,0.614179,-0.179294,0.768530
0.132381,0.218436,0.118202,-0.370754,0.665892,0.647402
-0.110141,0.143449,0.761724,-0.684003,-0.034870,-0.728645
0.323345,-0.393264,0.652463,0.252316,0.536084,0.805575
-0.190376,0.264549,0.760771,0.815900,-0.162184,-0.554980
0.245625,-0.581478,0.557760,0.977929,0.033354,0.206258
0.187629,0.893616,0.451745,0.338231,0.201971,0.919134
0.059873,0.421411,0.771053,0.379253,-0.668217,0.640041
-0.194416,-0.064957,0.733373,0.167360,0.036581,0.985217
-0.273951,-0.350101,0.362072,0.087052,0.580865,0.809331
-0.140632,-0.440703,0.830514,-0.670160,0.688291,0.277745
0.257973,-0.217454,-0.965733,-0.046776,0.089357,0.994901
0.288818,-0.022222,0.515693,-0.395812,0.817317,0.418719
-0.615204,0.079755,-0.123464,0.755580,-0.511990,0.408614
-0.417917,-0.001518,0.460143,-0.367014,0.656996,0.658527
-0.364719,-0.788557,0.587419,-0.344976,0.397567,0.850254
-0.759874,-0.316865,0.084499,-0.235053,0.135319,-0.962517
0.048635,0.033258,0.943054,0.899874,0.299372,-0.317181
0.683151,-0.141397,0.744541,-0.025361,0.619869,0.784295
0.008428,0.540842,0.574910,-0.062910,-0.148378,0.986928
-0.268039,-0.263353,0.607915,-0.431841,0.596551,0.676491
-0.408612,-0.522276,0.058120,-0.665123,0.469263,-0.580865
-0.143911,-0.164409,0.372043,-0.265262,0.375098,0.888221
-0.448819,-0.376795,-0.976934,-0.133285,0.031410,0.990580
-0.308185,-0.493959,0.056126,-0.316241,0.941188,-0.118983
-0.334757,-0.539344,0.202213,0.885346,-0.359591,-0.294714
0.130509,-0.401049,0.064103,-0.618849,-0.176380,0.765452
-0.303974,-0.064142,0.787616,0.054806,-0.277518,0.959156
-0.060865,-0.032616,-0.877134,-0.468814,0.883296,0.001336
0.289928,-0.111923,0.906183,0.950125,-0.257514,-0.175925
0.146719,0.194567,0.128383,-0.235399,0.082369,0.968402
-0.199506,-0.263053,0.690165,-0.615261,0.311988,0.723960
-0.213787,-0.393264,0.333987,-0.292051,-0.244050,-0.924741
-0.338911,-0.324222,0.263259,-0.237828,0.962285,-0.132079
-0.320066,-0.295691,0.780658,0.061826,0.368276,0.927658
-0.067184,0.142679,0.845969,0.241423,0.897726,-0.368516
-0.274594,-0.040446,0.739212,0.199706,0.264833,0.943388
-0.391174,-0.440317,0.623315,0.228872,0.751544,-0.618707
0.165215,0.285467,0.325866,-0.164488,-0.046708,0.985273
-0.133024,-0.722641,0.612945,-0.648593,0.376548,0.661467
0.193891,-0.329441,0.062607,-0.120490,0.178376,0.976557
-0.438753,-0.305784,0.562690,-0.359713,0.518022,-0.776054
-0.094457,-0.084760,0.856239,-0.362539,-0.788545,0.496752
0.133495,0.778378,-0.864017,0.932890,-0.359041,0.028369
0.132031,0.667160,0.436113,0.766549,-0.092934,-0.635426
-0.692688,-0.024105,0.268289,-0.535921,-0.218448,-0.815518
-0.237841,-0.279692,0.645362,0.865929,0.347503,-0.359734
0.045824,0.173393,0.730869,0.811421,0.583289,-0.037011
-0.501610,-0.404086,0.078229,0.309261,0.489342,0.815415
-0.032714,0.255865,0.244668,-0.290570,0.696224,0.656385
0.216773,0.026157,0.126389,-0.082522,0.377638,0.922269
-0.166733,-0.509572,0.589402,-0.398188,0.116248,0.909908
0.035408,-0.275715,0.687440,-0.583564,0.294538,0.756769
0.202728,-0.037065,0.139573,-0.156543,0.021789,0.987431
-0.092992,0.105978,0.846301,0.729462,0.611070,-0.307373
-0.092349,-0.149781,0.381471,0.477600,0.289528,-0.829501
-0.004156,-0.112994,0.677402,-0.803948,0.579074,0.135428
-0.528589,0.104610,0.156302,-0.070712,-0.060037,0.995688
-0.276994,-0.078387,0.478601,-0.874920,0.411955,0.254576
0.291918,0.013753,0.135540,-0.203809,0.349644,0.914446
-0.046934,-0.054861,0.941514,-0.710819,0.624343,-0.323932
0.104583,-0.271308,0.245698,0.303409,0.516022,0.801039
-0.072335,-0.126555,0.139495,0.636566,0.064131,0.768551
0.015276,0.282174,0.555666,0.076828,-0.161718,0.983842
-0.286006,-0.513293,0.754268,-0.607194,0.489004,-0.626251
-0.264353,-0.171511,0.602320,-0.023199,0.104255,0.994280
0.169837,0.169628,0.551058,0.080591,0.049523,0.995516
-0.655468,-0.253855,-0.985199,0.153077,-0.088108,-0.984279
-0.038333,-0.090922,0.968247,-0.187112,-0.948457,0.255771
-0.548311,-0.269512,0.539724,0.514832,-0.385733,-0.765610
-0.689177,-0.387275,0.698109,-0.459368,0.573058,-0.678664
-0.257505,0.102469,0.238453,-0.222357,-0.147645,0.963721
-0.612043,-0.081040,0.269009,-0.177133,-0.130184,-0.975539
0.182422,-0.259330,0.882873,0.878933,0.078997,-0.470358
-0.126705,-0.252870,0.790795,0.137225,-0.471518,-0.871114
-0.073621,-0.620661,-0.126932,0.059527,0.108537,0.992309
-0.380815,0.737912,0.466358,0.431151,0.783172,-0.448052
-0.216188,0.096352,0.831023,0.847955,0.391920,0.356891
-0.367531,-0.199614,-0.975626,0.324021,-0.079913,-0.942669
-0.488090,-0.623058,-0.967760,-0.062088,0.204881,0.976816
0.303856,0.761438,0.335904,-0.284892,0.515166,-0.808357
-0.359393,-0.355106,0.871661,0.745582,0.547129,0.380469
-0.446304,-0.080100,0.256567,-0.282810,-0.463404,-0.839807
-0.203486,-0.008364,0.876924,0.886284,0.458920,-0.062395
-0.562416,-0.280248,0.704989,-0.225615,-0.419601,-0.879223
0.506525,-0.611421,0.725064,0.833800,0.517325,0.192748
-0.634925,-0.415422,0.651411,-0.398242,0.553723,0.731296
0.269386,-0.072270,0.891226,0.404165,0.914672,-0.005100
-0.545853,-0.471971,0.070141,0.707476,-0.194087,-0.679564
-0.298062,-0.137975,0.139196,-0.286938,-0.587946,0.756298
-0.187979,-0.187296,-0.027420,-0.101488,-0.053522,0.993396
-0.002106,0.093402,0.598088,0.933204,0.322638,0.158227
0.287353,0.548241,0.327672,0.103317,-0.340802,0.934441
0.008078,-0.102812,0.590820,-0.321789,0.946108,0.036502
-0.810204,-0.541910,0.703072,0.811185,-0.470609,0.347141
0.149880,-0.558165,0.032384,0.893760,0.198253,-0.402354
-0.282495,0.134082,0.336602,0.556097,-0.103550,-0.824641
-0.527007,-0.157908,0.777955,0.483930,-0.387805,0.784487
-0.785975,-0.473041,0.617022,0.470452,-0.835277,-0.284582
-0.013575,-0.412597,0.610396,0.880609,0.416278,0.226365
-0.282552,-0.577115,0.293205,0.784989,0.388601,-0.482475
-0.095100,0.316779,0.546958,-0.648924,0.528751,0.547102
