0.245263,0.106386,0.870957,0.046339,0.847872,0.528173
-0.208064,0.327796,0.737698,-0.088955,0.035576,0.995400
0.546206,-0.276669,0.439651,0.022502,0.265110,0.963956
0.926704,0.192857,-0.930860,0.295811,-0.263980,-0.918047
0.619155,0.103244,0.616026,0.989697,0.143010,-0.006892
0.441683,0.489744,0.858243,0.104527,-0.580836,0.807281
-0.750449,-0.604917,0.488706,0.184441,0.979649,0.079173
-0.240047,-0.239868,0.694662,-0.506802,0.767985,-0.391600
-0.174980,0.143851,0.832412,0.809514,0.327643,0.487172
-0.637697,0.256550,0.701454,0.345887,0.617501,0.706438
0.341794,0.540140,0.443015,-0.788866,-0.540601,0.292303
0.823281,0.577064,0.313505,0.569953,0.796591,0.201487
-0.510690,-0.334925,0.841022,0.578901,-0.175253,0.796342
0.447999,0.519114,0.437849,0.745075,0.624911,-0.233130
-0.299958,-0.314739,0.649180,0.770706,0.404016,0.492731
0.268671,-0.108134,0.860673,-0.627198,-0.729339,0.273290
-0.619852,-0.764693,0.624347,0.765198,-0.525155,0.372404
-0.594821,-0.528474,0.556703,0.805751,0.386340,-0.448894
0.118373,-0.516026,0.777949,0.714144,0.699985,-0.004462
0.342083,-0.108920,0.463470,0.939552,-0.339651,0.043349
0.068661,0.091098,0.593768,0.234203,-0.646024,0.726500
0.728547,-0.232679,-0.410328,0.986057,-0.110630,-0.124312
0.112810,-0.307308,0.484344,-0.534670,0.501585,-0.680103
0.502867,0.564372,0.815786,-0.613552,-0.655244,-0.440691
-0.531721,-0.426291,0.818828,0.964763,-0.244744,-0.096607
0.123066,-0.283983,0.325850,-0.762223,0.634841,-0.126463
-0.224056,0.533251,0.840716,0.955776,0.170757,-0.239446
-0.148040,-0.148742,0.846253,-0.819975,-0.025600,-0.571826
0.029492,-0.061544,0.424989,0.359887,0.335907,-0.870430
0.355525,0.201923,-0.974024,-0.154677,0.283966,0.946276
0.173534,0.115813,0.308951,-0.679829,0.278880,0.678276
0.627558,-0.135025,-0.455987,-0.199883,0.967717,-0.153530
0.041254,-0.297880,0.257707,0.350700,-0.701920,0.619933
0.336348,0.563830,0.793206,-0.194818,0.416073,0.888217
-0.307087,0.078407,0.913252,-0.622722,0.310607,-0.718151
0.712439,0.032783,0.277213,0.496074,-0.613498,-0.614435
0.367171,-0.669395,-0.771126,-0.735601,-0.663366,-0.137247
0.306161,0.161072,0.859289,0.979949,-0.059989,0.190005
-0.738457,-0.422787,0.476925,-0.283913,-0.957099,-0.057917
-0.369314,-0.222345,0.632442,0.999248,-0.023094,0.031143
-0.454892,-0.170256,0.532916,-0.108563,-0.965786,-0.235524
0.107191,-0.202041,0.745616,0.951768,0.306529,0.013317
-0.130018,-0.132185,0.959748,0.942722,0.326179,0.069878
0.441393,0.098770,-0.965414,0.152524,-0.183819,-0.971054
-0.797904,-0.079491,0.399850,-0.515198,0.363045,0.776382
-0.281243,-0.415053,0.640586,-0.682650,0.730542,-0.017239
0.319079,-0.013383,0.894036,0.779784,0.104188,-0.617318
0.158525,-0.246153,0.264949,0.342327,0.936679,-0.073792
-0.336058,0.332930,0.814564,0.897222,0.441357,-0.014043
-0.231415,0.360729,0.869477,-0.504869,-0.302722,0.808373
0.308824,0.531620,0.853511,-0.296055,-0.945377,0.136436
-0.450606,0.774242,0.639202,0.042801,0.821028,-0.569282
0.644939,-0.474814,0.013849,0.022058,0.182895,0.982885
-0.125326,-0.068795,0.921750,-0.103662,0.445936,-0.889042
0.546556,0.339883,0.692200,-0.762803,0.628301,0.152869
0.414913,0.577668,0.800529,-0.477527,0.777807,0.408637
0.283100,-0.302716,0.741802,0.291115,-0.208285,-0.933740
0.539080,0.379280,0.730842,-0.352471,0.388814,-0.851227
-0.344573,-0.259688,0.554016,-0.050368,0.504031,0.862216
0.428532,0.450103,0.485020,0.361918,0.675990,-0.641913
-0.033838,0.261507,0.275346,-0.240228,-0.370185,0.897359
-0.178340,0.363569,0.793690,0.400300,0.915632,-0.037111
0.128222,0.605946,0.815191,-0.350640,0.239242,0.905436
0.069761,-0.082394,0.898816,-0.647051,0.633402,0.424414
-0.286633,-0.239023,0.547160,0.171197,0.930346,0.324266
-0.396198,-0.244884,0.630238,0.946672,0.321865,-0.014694
0.108351,-0.326524,0.030699,-0.484648,-0.850293,-0.205225
0.142477,-0.520135,0.036863,-0.451216,0.077564,-0.889038
0.629238,-0.399038,-0.915973,0.424707,-0.251349,-0.869740
0.147110,-0.290629,0.487853,0.755527,-0.355825,0.550062
-0.493135,-0.046017,0.591081,-0.715274,0.654316,0.245466
0.118953,-0.494516,0.844997,-0.263373,0.566622,-0.780752
0.515963,0.135029,0.603843,0.989630,-0.025820,-0.141303
0.095082,0.447384,0.422028,0.096214,-0.305695,0.947256
0.540183,-0.197025,-0.935157,-0.361231,0.087467,0.928365
0.798307,-0.299090,-0.913108,-0.355656,0.182972,0.916531
0.157019,-0.317823,0.315742,0.931398,0.357361,0.069219
0.593661,0.438016,0.670939,0.599716,0.584143,0.546917
0.217916,-0.037312,0.905946,0.843236,0.379426,0.380774
0.125442,-0.030061,0.347351,-0.288590,0.829756,0.477725
0.577323,0.093455,0.689802,0.510612,0.171600,0.842513
-0.745756,0.017071,0.769419,-0.304631,0.914394,0.266615
0.285533,-0.223916,0.655956,0.804285,-0.464487,-0.370644
0.721422,-0.341509,0.301837,-0.374108,-0.314217,-0.872531
0.356859,-0.097379,0.480981,0.068549,-0.680861,0.729197
0.289819,-0.518866,-0.233067,0.854745,-0.497605,0.147649
-0.827277,-0.296792,0.396036,-0.686346,0.079503,0.722917
0.177994,-0.339635,0.144227,0.591261,0.787938,-0.171945
-0.430675,-0.300540,0.473078,0.252153,-0.600561,0.758779
0.509066,0.083482,-0.957463,0.211380,-0.180287,-0.960632
0.700794,0.242048,-0.954309,0.312045,-0.183411,-0.932196
0.467234,0.358494,0.731132,0.469601,-0.780279,0.413085
-0.028912,-0.267607,0.043494,-0.504874,-0.792952,-0.341071
0.382873,0.636706,0.832685,0.917524,-0.197119,0.345390
0.169708,0.013689,0.845142,-0.376687,0.371752,-0.848474
-0.435251,0.758471,0.643644,0.216839,0.894217,-0.391607
-0.653339,0.201138,0.717291,0.000334,0.774216,0.632922
-0.145664,-0.128257,0.865115,0.896365,-0.211105,-0.389825
-0.043571,-0.280295,0.068859,0.862304,0.505924,-0.021763
0.509880,-0.266397,-0.938794,-0.227772,0.236130,0.944650
0.147287,-0.068615,0.549075,0.968160,0.119885,0.219759
0.319832,0.198176,-0.975521,-0.091489,0.341824,0.935300
-0.332521,-0.224580,0.786141,-0.657324,0.082533,-0.749075
-0.446260,0.542014,0.631911,0.882436,0.451807,-0.131063
0.194798,0.602140,0.832621,-0.559996,0.368584,0.741990
0.133845,-0.231230,0.598967,0.530592,-0.842913,0.089270
0.457502,0.465874,0.806002,-0.354315,0.874798,-0.330437
0.033548,0.112007,0.872872,0.196426,-0.462350,0.864667
0.770380,-0.126506,-0.924953,-0.140347,0.207502,0.968114
-0.183730,-0.541711,0.469232,-0.096316,0.611071,0.785694
0.653399,0.468230,0.775455,0.896016,0.275625,-0.348118
0.159975,-0.341391,0.086578,0.924416,0.235659,0.299866
0.654905,-0.221017,-0.572106,-0.283307,0.951200,-0.122293
-0.261892,-0.411545,0.645640,-0.566289,0.033463,-0.823527
-0.521179,-0.470705,0.816720,-0.409608,-0.476987,0.777627
0.749232,0.197088,-0.947372,0.259376,-0.115755,-0.958814
-0.221159,-0.635980,0.485326,0.133280,0.344197,0.929390
-0.169478,0.283803,0.875737,-0.621576,-0.303354,0.722232
0.351876,-0.310207,0.271419,0.814417,0.460002,-0.353728
0.144447,0.481526,0.641552,-0.637064,0.540063,0.549983
-0.664464,0.318609,0.690156,0.268070,0.627038,0.731410
-0.237267,-0.329485,0.703417,0.076097,-0.410426,0.908713
-0.279736,0.181619,0.824574,0.146841,-0.068949,-0.986754
-0.008634,0.039311,0.661524,0.018997,-0.119351,0.992670
-0.602354,-0.115267,0.814853,-0.031726,-0.176504,0.983788
-0.949012,-0.281080,0.366181,-0.651481,-0.256833,0.713870
-0.137378,-0.325133,0.629771,0.109825,-0.058052,0.992254
0.143520,0.058586,0.823206,-0.027396,-0.481623,0.875950
0.056956,-0.285857,0.897239,-0.523396,-0.165442,0.835874
0.054929,0.514883,0.819794,0.864637,-0.405949,0.295987
-0.142824,-0.314559,0.547160,-0.286640,0.301026,-0.909517
0.258069,-0.181796,0.305217,0.992846,-0.030545,0.115427
-0.132568,-0.427501,0.748738,-0.420659,0.832630,-0.360242
-0.343240,-0.248207,0.809558,0.731799,-0.681520,-0.001122
0.350716,-0.335165,0.739855,-0.351512,0.147786,0.924445
0.508893,-0.029095,0.935672,0.342353,0.650783,-0.677699
0.410800,-0.184275,0.431717,0.275415,0.928968,-0.247317
0.497304,0.891410,0.770820,0.647303,0.178177,-0.741115
-0.557215,-0.277034,0.865453,-0.036115,-0.801899,0.596367
0.846342,0.494579,0.633682,-0.561141,0.718424,-0.411081
-0.834870,0.021423,0.392753,0.534745,-0.673290,-0.510616
0.234198,0.000456,0.840266,-0.202835,-0.261533,0.943641
-0.092359,0.320906,0.750847,-0.198193,-0.128686,0.971679
0.463411,0.061850,0.560099,-0.736558,0.138981,0.661941
0.482416,-0.337522,0.016810,0.239455,0.214358,-0.946949
-0.812099,-0.469982,0.461877,0.950358,0.308363,0.041623
-0.034532,0.011815,0.869943,-0.388520,-0.761081,0.519431
-0.312650,0.447565,0.793368,-0.817182,0.518528,0.251678
0.393358,0.715868,0.657388,0.471464,0.269623,-0.839657
0.811173,-0.090914,-0.926273,-0.119221,0.139000,0.983090
-0.099892,-0.313652,0.623253,0.117031,-0.122563,0.985536
0.758561,0.632837,0.593591,0.852804,0.039742,-0.520717
0.282403,0.485757,0.830609,-0.124521,0.946609,-0.297364
-0.131235,-0.328216,0.541623,-0.548705,0.488224,-0.678645
-0.418739,-0.484060,0.640602,-0.031402,0.033353,0.998950
0.645519,0.231835,0.574616,0.917434,-0.234189,-0.321667
-0.008401,-0.510649,0.845014,0.091177,0.704125,0.704198
0.226492,-0.365199,0.208668,0.512581,0.846977,-0.141034
0.282576,0.083121,0.859305,0.742947,0.370395,0.557528
0.168028,-0.052419,0.926981,0.198838,0.591252,0.781591
-0.154239,-0.053931,0.781973,0.073893,-0.136131,0.987931
0.017267,-0.389069,0.854992,-0.639616,0.699754,-0.318177
0.393128,-0.230260,0.425215,-0.332987,-0.880796,0.336627
0.576973,-0.237515,0.286065,0.177010,0.026547,-0.983851
-0.432238,-0.272258,0.826731,0.411127,0.561535,0.718090
0.141781,-0.310450,0.167274,0.983717,0.178459,0.021271
0.135871,-0.406894,0.487901,-0.712899,0.313512,-0.627284
-0.065242,0.727349,0.637335,0.128328,0.060869,0.989862
0.641810,-0.028671,0.593221,-0.747314,0.290412,-0.597647
-0.409293,-0.237393,0.814451,-0.719407,-0.356079,-0.596374
0.119646,0.252017,0.610410,0.937818,0.344794,0.040184
-0.246480,-0.644437,0.831961,0.902431,-0.375169,-0.211817
0.629411,0.166874,0.691588,-0.615737,0.635495,0.465848
-0.545686,0.520320,0.734382,0.327400,0.593824,-0.734971
0.110897,-0.050487,0.622625,0.974087,-0.033760,0.223638
0.673273,0.651633,0.533641,0.676546,0.160586,-0.718678
0.146533,-0.525819,0.045490,0.595741,-0.207932,0.775794
-0.012864,-0.034111,0.839928,-0.247486,-0.477860,0.842853
0.203258,-0.420733,0.055742,0.755095,-0.477144,0.449628
0.340404,-0.128379,0.831945,0.369588,0.302622,0.878536
0.850745,0.306282,-0.945505,-0.214817,0.315816,0.924183
0.623152,-0.059309,0.289782,0.184270,-0.035456,0.982236
0.430385,0.637673,0.751716,0.626402,-0.714398,0.311859
0.720668,0.103967,-0.944524,0.346622,-0.211641,-0.913817
0.075324,0.178234,0.650371,0.079936,0.162631,0.983444
0.548466,0.340063,0.676057,0.907422,-0.144786,0.394490
-0.021150,-0.272682,0.884476,0.975106,-0.010109,-0.221510
0.090329,-0.155089,0.801447,0.660563,-0.693968,0.286470
-0.270641,-0.157929,0.986545,0.277484,-0.414583,0.866674
-0.102208,0.445087,0.736056,-0.522779,0.374187,0.765954
-0.376847,-0.186812,0.496431,0.920919,-0.192735,-0.338765
0.906193,0.453972,0.692683,0.014473,-0.955376,0.295039
-0.036271,-0.190862,0.918918,0.884019,0.365750,0.291096
-0.227882,0.325863,0.739420,-0.088955,0.035576,0.995400
0.823454,0.078226,-0.937120,0.317035,-0.221363,-0.922218
0.322789,-0.625948,-0.703096,0.968083,0.164360,0.189212
0.766034,0.435055,0.679711,0.185003,-0.889926,0.416900
-0.591518,-0.166147,0.846961,-0.171690,0.526649,0.832564
0.270004,-0.505150,-0.427468,0.990478,0.061989,0.122928
0.004518,-0.170499,0.850968,-0.331430,0.943194,0.023228
-0.799060,-0.181011,0.415301,0.995292,-0.032680,-0.091244
-0.654035,-0.632775,0.578929,-0.444976,0.889723,0.101926
0.329278,-0.101429,0.479404,-0.243084,-0.462970,0.852390
0.144504,-0.194428,0.535974,0.868156,-0.080934,0.489648
-0.556812,-0.548055,0.554998,0.127440,0.165927,0.977869
0.402051,-0.257999,0.748932,-0.020118,-0.161700,0.986635
0.421575,0.423455,0.792128,0.207242,-0.934517,0.289360
0.320819,0.523462,-0.999131,0.271999,-0.290284,-0.917470
-0.321339,0.139924,0.883591,-0.018968,0.992865,0.117722
-0.592328,-0.651931,0.513233,0.366887,0.833421,-0.413284
0.148503,0.276492,0.809671,-0.613728,-0.147083,-0.775696
0.069238,-0.219929,0.873999,0.943731,-0.273942,0.185275
0.294109,-0.511375,-0.478808,0.493507,0.829698,-0.260868
0.694478,-0.380545,0.309353,0.190615,-0.337500,0.921824
0.072541,0.540745,0.825009,0.879855,-0.284868,-0.380402
0.149196,-0.378554,0.124544,0.894778,-0.442149,-0.062253
0.188193,0.349247,0.807450,0.011674,0.995443,0.094640
0.342023,-0.090670,0.907330,-0.360035,0.889802,-0.280407
0.235761,-0.346706,0.434131,-0.504097,0.333169,0.796796
-0.839563,-0.313652,0.447972,0.858670,0.287050,-0.424602
0.357959,-0.122577,0.475847,0.960728,-0.121713,-0.249376
-0.387102,0.343143,0.868704,0.284426,0.923259,0.258254
-0.790835,-0.134786,0.402023,0.757466,-0.555757,-0.342606
0.570774,0.100341,0.724935,-0.777664,-0.561270,-0.283222
0.479983,0.140466,0.741335,0.316692,0.831965,0.455566
0.226142,0.299031,0.831285,-0.120360,0.187088,0.974942
0.020976,-0.522492,0.858050,-0.342723,0.355513,-0.869570
-0.750682,-0.352386,0.520798,0.184713,0.217337,-0.958460
-0.425748,0.483035,0.642871,0.772851,0.388894,-0.501461
0.267398,-0.328700,0.004385,0.114182,-0.016913,0.993316
0.507910,0.098530,-0.958880,-0.283216,0.216986,0.934187
-0.289992,0.107411,0.895549,0.961877,-0.273443,-0.004696
0.549396,0.593742,0.787220,-0.458514,-0.792813,-0.401513
-0.171158,-0.183249,0.983970,-0.676204,-0.642303,-0.360826
0.052610,-0.446233,0.859997,-0.491274,-0.744349,0.452321
-0.801843,-0.316311,0.430896,0.975025,0.217649,-0.044208
0.576046,0.405264,0.704560,0.865280,0.412252,-0.285200
-0.383683,0.706864,0.643531,0.126664,0.460890,0.878371
-0.226605,0.611025,0.655039,0.172860,-0.414320,0.893565
0.467697,-0.496630,-0.649213,-0.695850,0.687591,-0.207389
0.513123,0.142642,0.765122,-0.183038,0.982930,0.018588
0.111710,-0.203793,0.731502,0.873362,-0.486638,-0.020553
0.667360,-0.480796,0.301644,-0.394473,-0.184062,0.900284
0.166582,-0.271355,0.373552,0.951262,0.058871,0.302712
-0.697954,-0.477536,0.552567,-0.205775,-0.055638,0.977016
-0.439480,0.500440,0.615962,0.801225,0.342206,-0.490849
0.199258,-0.378915,-0.013608,0.525426,-0.714649,0.461742
0.125035,-0.280295,0.117897,0.998112,0.000080,-0.061424
0.782665,0.191589,-0.941884,-0.151350,0.197271,0.968596
0.817948,0.415599,0.601799,0.006053,0.236198,0.971686
0.177587,-0.289058,0.317239,0.515905,-0.766150,0.383218
-0.072311,0.771339,0.639765,0.070338,-0.608147,0.790702
0.658265,0.198902,-0.953794,-0.118427,0.077495,0.989934
-0.307897,-0.246577,0.781393,0.699640,0.302312,0.647388
0.159512,-0.226092,0.497944,0.897679,-0.339576,0.280822
0.604034,-0.569569,0.008876,0.494302,0.019863,-0.869063
-0.650095,-0.024684,0.719319,0.290158,-0.887340,0.358381
0.223246,-0.117200,0.836950,-0.075432,0.494671,0.865801
0.120399,-0.220774,0.825395,-0.104551,0.658792,0.745025
0.304537,0.808926,0.777837,-0.010281,0.158999,0.987225
-0.052436,-0.338791,0.542186,-0.234267,-0.640213,0.731605
-0.009851,-0.465206,0.833554,-0.498299,-0.807763,-0.314986
0.220233,-0.051394,0.843855,0.957851,-0.221600,0.182800
-0.496088,-0.386712,0.838624,0.258902,0.767913,-0.585900
0.095835,-0.218778,0.748658,0.998054,0.062191,0.004495
0.115650,0.500923,0.633875,-0.029969,0.580635,0.813612
-0.289416,0.241804,0.857889,-0.552815,0.621200,0.555433
-0.465031,0.160769,0.895211,0.427701,0.853743,-0.296977
0.408713,0.978973,0.762724,0.505527,0.668471,0.545518
-0.094559,-0.329183,0.876220,0.993346,-0.113544,-0.019262
0.314733,-0.160345,0.866065,0.299700,0.869318,-0.393021
-0.819398,-0.357040,0.458240,0.653244,0.526392,0.544227
0.571817,0.546669,0.773395,0.958038,0.225015,-0.177570
-0.148270,-0.577845,0.301451,0.787060,-0.116337,0.605807
0.255866,-0.548660,0.467590,-0.314691,-0.352040,-0.881497
0.509530,-0.290024,0.013398,0.232943,-0.214452,0.948550
0.059506,0.013084,0.446266,0.672036,0.128273,-0.729324
0.335418,0.242350,0.748417,-0.022131,-0.853516,0.520597
0.740366,0.893166,0.539177,-0.737992,0.400561,0.543064
0.127992,-0.374261,0.110655,0.910007,-0.413179,0.034228
0.384089,-0.204158,0.719302,0.320499,-0.806953,-0.496092
0.523262,0.231293,0.701148,-0.720549,-0.131419,-0.680836
0.170634,-0.411247,0.823705,0.889495,-0.253966,0.379869
0.423605,-0.110793,0.716904,-0.652070,0.145192,0.744127
-0.326495,0.085780,0.811151,-0.768547,-0.377864,0.516289
0.341153,0.719674,0.769033,-0.548456,0.142728,0.823908
-0.880759,-0.315706,0.499167,0.185240,-0.971173,-0.150029
0.188482,0.187240,0.835035,-0.315164,0.189187,0.929989
0.701547,-0.442608,0.303994,-0.401577,-0.176481,0.898660
0.310330,-0.490828,-0.444222,0.093010,-0.995456,0.020429
-0.112464,0.630661,0.713428,0.529176,0.446133,0.721760
0.019353,-0.284949,0.918499,0.824599,0.103557,-0.556158
0.344227,-0.552223,-0.628870,-0.715891,0.680261,-0.157304
-0.703460,-0.013261,0.726384,-0.313583,0.826805,-0.466968
-0.094849,0.730248,0.657646,0.837358,0.453625,0.305050
0.144620,-0.373718,0.017937,0.689624,0.705875,0.161738
-0.805840,0.006257,0.699507,-0.514106,-0.807001,0.290592
-0.254359,-0.461219,0.698412,0.730426,0.617980,-0.290824
-0.057246,-0.385078,0.730085,0.344421,-0.799165,0.492655
-0.282926,0.405928,0.741271,0.220591,0.096061,0.970624
0.158469,-0.291776,0.069534,0.972840,-0.005721,0.231406
0.238601,0.180712,-0.973332,-0.042730,0.300005,0.952980
-0.461731,0.390762,0.610731,0.728813,-0.182289,-0.660002
0.425342,0.195214,0.543506,0.825568,0.384630,-0.412914
0.352686,0.618213,0.500101,0.517500,0.339515,-0.785445
-0.231068,0.225428,0.659658,-0.417435,-0.088904,0.904348
0.417463,-0.614828,-0.808400,0.993916,0.091965,-0.060613
-0.437164,0.403210,0.732467,0.648935,0.478365,-0.591650
-0.412943,0.367496,0.637013,0.755638,-0.054990,-0.652677
0.064315,0.753875,0.637271,-0.100381,0.241758,0.965130
0.118490,0.086687,0.884460,0.229072,0.428662,0.873942
0.070398,0.362724,0.633070,-0.397445,-0.816274,-0.419206
-0.049133,-0.223555,0.926691,-0.505218,-0.838286,-0.205018
-0.692798,-0.393358,0.850630,0.314923,-0.707604,-0.632550
-0.291849,-0.235339,0.780541,0.385598,-0.239832,0.890952
0.311837,0.630905,0.793206,0.089017,0.735172,0.672010
0.444810,0.613743,0.755176,-0.656310,0.605148,-0.450615
-0.188133,-0.387557,0.701213,0.109206,0.289430,-0.950949
0.110840,-0.466235,0.852594,0.141245,-0.702963,0.697060
0.009791,0.595918,0.641745,0.196703,0.108102,0.974485
-0.065298,-0.501948,0.459737,0.094687,0.581346,0.808128
0.307667,-0.330452,0.339562,0.422744,0.875094,0.235581
-0.078917,0.640332,0.702581,0.716651,0.610965,0.336354
0.299031,-0.451128,-0.223668,0.780067,-0.622376,-0.064371
0.800104,0.975650,0.550266,0.738163,-0.478450,-0.475606
0.683352,0.037556,0.268120,-0.028504,0.273248,0.961521
0.626978,-0.509443,0.287883,0.591914,0.256850,-0.763980
-0.551422,-0.364535,0.440279,-0.287220,-0.074635,0.954953
-0.361898,-0.211287,0.632716,0.964799,-0.236754,0.114504
-0.378587,0.182464,0.830159,0.353627,0.200306,-0.913688
0.348513,-0.103000,0.374067,0.327131,0.566358,0.756455
-0.350773,-0.440915,0.639009,0.005261,0.222387,0.974944
0.175041,-0.342597,0.141105,0.490544,0.817517,-0.301716
0.520075,0.316436,0.701309,0.724317,-0.681239,0.106203
0.121619,-0.488593,0.060844,0.801605,-0.382753,0.459272
-0.352049,0.245854,0.912367,0.412130,0.613007,0.674071
0.162815,-0.438558,-0.041853,0.953172,-0.294071,-0.070608
0.523032,-0.433723,0.754709,0.453354,0.644293,0.615920
-0.666897,0.014534,0.811377,-0.363529,0.619341,0.695890
0.548816,0.609996,0.521119,0.316376,0.010970,-0.948570
-0.084710,0.256188,0.746147,0.351453,0.316462,-0.881097
0.099251,-0.084448,0.909020,0.114495,0.992135,-0.050595
-0.240744,0.323444,0.854219,0.759783,0.393810,-0.517342
-0.189292,-0.075563,0.922973,0.750073,0.346288,0.563450
0.324005,-0.425022,0.291521,0.014017,-0.400971,0.915983
0.670260,0.379885,0.801720,0.717256,-0.495942,-0.489475
-0.576683,-0.018642,0.720461,-0.360157,0.924959,-0.121400
0.498754,0.162643,-0.963660,0.316463,-0.171195,-0.933029
-0.269251,-0.533553,0.842133,0.144904,-0.068984,0.987038
0.103654,-0.179561,0.550459,0.939701,-0.099670,-0.327150
0.313226,-0.223794,0.444479,-0.815360,0.543412,0.199730
0.670027,-0.007581,-0.937281,0.348408,-0.279614,-0.894666
0.241441,-0.091153,0.859724,0.312825,0.948742,-0.045057
0.033025,-0.315105,0.936090,0.803549,0.285757,0.522161
0.428415,0.474456,0.812085,-0.101954,-0.653275,0.750224
-0.398518,0.728798,0.640570,-0.134783,-0.943247,0.303511
0.318036,-0.515425,-0.297588,0.700425,0.689905,0.182852
0.336867,0.763970,0.778384,-0.511224,0.154758,0.845399
-0.018137,0.215278,0.617298,-0.183651,-0.610850,0.770153
0.733994,-0.328519,-0.917534,-0.266651,0.072727,0.961045
0.494408,-0.042572,-0.948418,-0.110255,0.262687,0.958561
0.230605,0.273228,0.799387,0.817905,-0.221911,0.530836
-0.151456,-0.353658,0.418455,-0.073395,0.989910,0.121212
0.010544,-0.220955,0.948692,0.673257,0.526788,0.518864
0.873919,0.436205,0.355334,-0.210041,0.901323,0.378814
0.348976,0.403634,0.526028,0.822397,-0.283758,-0.493098
0.125499,-0.334623,0.220353,0.968298,0.102810,-0.227660
0.418099,0.370698,0.697720,-0.650369,0.368685,0.664148
-0.681269,-0.463273,0.432988,0.453557,0.548870,-0.702159
0.113217,-0.228146,0.847218,0.046748,-0.566961,0.822417
0.258822,-0.748615,-0.771737,-0.268448,0.957305,-0.107249
0.358885,0.210081,-0.971562,-0.172317,0.306456,0.936158
0.435831,-0.456324,0.722489,-0.313997,0.803048,-0.506478
0.326322,-0.048613,0.890576,0.788197,0.451477,-0.418228
-0.697724,-0.290087,0.450724,0.284843,0.742949,0.605716
0.190682,0.549568,0.839139,-0.404694,0.438031,0.802715
0.673736,-0.306400,-0.921348,0.246461,-0.112136,-0.962643
0.611043,0.296977,-0.957254,-0.182839,0.200863,0.962405
0.365664,0.638639,0.487949,-0.175557,-0.573918,0.799874
-0.075151,-0.314197,0.548946,0.052985,-0.725962,0.685691
0.235994,0.794605,0.650484,-0.473074,-0.178585,0.862733
0.032388,0.646373,0.635581,-0.504275,0.250609,-0.826379
0.363811,-0.097320,0.913043,-0.438028,0.758995,0.481725
0.187089,-0.220715,0.410183,0.645902,0.760860,0.062469
-0.305291,-0.368522,0.720236,0.156477,-0.912898,0.377005
0.376790,0.414872,0.826280,0.345969,0.853200,-0.390328
-0.022886,-0.751938,0.815561,-0.086021,0.459698,-0.883899
0.430095,0.849836,0.768357,0.284860,0.723496,-0.628815
0.701430,0.650121,0.555770,-0.664182,-0.189059,0.723269
-0.062635,-0.120704,0.633118,-0.650398,-0.377564,0.659112
-0.461268,0.231592,0.937329,0.439992,0.738759,0.510531
0.299611,0.081188,0.863441,0.718016,0.485581,0.498663
0.402341,-0.307367,0.282894,0.325688,-0.547706,-0.770679
0.643086,0.339458,0.412532,-0.563257,0.112993,-0.818519
0.342313,-0.192555,0.442886,0.850397,0.053736,-0.523391
0.158932,-0.345500,0.011258,-0.403734,-0.611724,-0.680289
0.944436,-0.025713,-0.911965,0.487275,-0.171735,-0.856195
0.691871,0.242409,0.689142,0.806242,-0.584161,0.093437
0.474187,-0.075445,0.928558,-0.558210,-0.227729,0.797836
0.310157,-0.373114,-0.002680,-0.426524,-0.569271,0.702857
0.821948,-0.055742,0.285582,-0.430937,0.063671,-0.900133
0.058869,-0.553978,0.084035,0.880304,-0.137735,0.453975
-0.204414,-0.531436,0.886456,0.882524,-0.442734,-0.158550
0.351236,-0.688187,-0.804296,0.941970,0.322173,-0.094323
-0.211540,-0.376016,0.420756,-0.170828,-0.968809,-0.179519
0.040384,-0.388704,0.361498,0.499733,-0.849186,0.170736
0.056029,-0.305917,0.870024,0.859180,0.508949,0.052722
-0.070224,-0.381213,0.881161,-0.218925,0.809774,-0.544369
0.553972,0.390279,-0.970242,-0.253952,0.337625,0.906376
-0.021496,0.044689,0.262133,-0.654251,-0.140052,0.743197
0.219016,-0.368098,0.017840,0.194955,-0.846603,-0.495233
-0.011704,0.288276,0.615318,-0.195237,0.191220,-0.961934
-0.023699,0.441642,0.869557,0.509655,0.780224,0.362632
-0.535664,-0.014593,0.717033,-0.286414,0.925691,-0.247109
0.361955,-0.070551,0.483137,0.881587,0.265070,-0.390566
0.319023,-0.530470,-0.586590,-0.753289,0.655377,0.055118
-0.173881,-0.203431,0.860239,0.389084,-0.427697,0.815898
0.583522,-0.310269,-0.926611,0.222790,0.118720,-0.967611
0.439714,0.490589,-0.987672,-0.196074,0.366707,0.909440
-0.266411,-0.247484,0.766168,-0.674854,0.091974,-0.732197
0.714816,0.331300,-0.954647,-0.151743,0.257351,0.954329
0.659715,0.457715,0.775004,0.930447,-0.332777,-0.153390
-0.564111,-0.501524,0.646943,-0.023951,-0.933889,0.356761
0.116113,-0.623288,0.043768,0.482652,0.843637,-0.235208
0.311607,-0.077500,0.747564,0.716308,-0.246825,0.652672
0.381133,-0.269842,0.747531,0.038037,-0.151724,0.987691
0.785618,-0.131521,0.277985,-0.044506,0.233804,0.971265
-0.587172,-0.623347,0.636224,-0.785623,0.010025,-0.618624
-0.504144,-0.385078,0.453878,-0.557085,0.656287,-0.508865
0.342777,0.026679,0.469956,0.451661,0.267896,0.851020
0.368271,0.615071,0.832734,-0.370146,0.927825,0.046189
0.060605,-0.534759,0.097168,0.850026,-0.341516,0.401026
-0.046644,0.649276,0.637834,-0.103621,-0.042178,0.993722
-0.455299,0.083545,0.729023,0.090726,0.396938,0.913350
-0.390349,0.378978,0.746421,0.321005,0.865126,-0.385374
0.069991,-0.204641,0.768325,-0.677165,0.718230,-0.159978
0.215946,0.661300,0.847315,0.979716,-0.062523,-0.190389
0.398401,-0.269237,0.338693,0.063436,-0.772994,0.631234
0.468914,0.941508,0.768067,-0.345148,-0.179537,0.921216
-0.236341,0.242169,0.649583,-0.493921,-0.280715,0.822946
0.194622,-0.400248,0.182048,0.501740,0.861202,-0.081165
0.223016,0.042210,0.795589,0.049955,-0.883923,0.464956
0.651719,-0.292201,0.296719,0.079880,0.576083,0.813479
0.293645,-0.651810,0.036622,-0.118395,0.852821,0.508605
0.483979,-0.038279,0.754404,0.788568,-0.297109,0.538412
0.548179,0.359460,0.714715,-0.669021,0.662828,-0.336260
0.214207,0.383935,0.824703,0.968490,0.085396,-0.233953
0.670724,0.448531,0.693890,-0.315720,0.922757,-0.220999
0.188422,0.613684,0.858693,0.964258,0.189649,0.185037
-0.417406,0.042996,0.720252,0.003906,-0.119052,0.992880
0.455589,0.014110,0.761083,0.286737,-0.245233,0.926090
0.831797,0.494697,0.709179,-0.256372,0.963007,0.083008
-0.034418,-0.103786,0.913269,0.083465,-0.668878,0.738672
0.287446,0.034413,0.857020,-0.217507,-0.712051,0.667588
0.156672,-0.268028,0.375822,0.956966,-0.215814,0.194013
0.433398,0.161315,0.424426,-0.180971,0.067540,0.981167
0.309230,0.791525,0.629755,0.002208,0.517290,0.855807
0.125616,-0.253404,0.088912,0.994743,-0.077919,0.066443
0.153080,0.371605,0.646396,0.399473,0.241017,-0.884496
0.392548,-0.613920,-0.830432,-0.403289,0.901837,-0.155072
-0.226839,-0.436806,0.693375,-0.526038,-0.476100,0.704708
0.578016,-0.060216,0.925162,0.976900,-0.087218,0.195090
0.187556,0.641840,0.833941,-0.367328,-0.214336,0.905058
0.441160,0.079978,0.526446,0.091564,-0.235319,0.967595
0.452576,0.572409,0.719801,-0.464503,-0.792661,0.394874
-0.714179,-0.144091,0.413917,0.788167,-0.060236,-0.612506
-0.531084,-0.450283,0.658901,0.404336,-0.086540,-0.910507
-0.480213,-0.517479,0.801077,0.340249,-0.719887,0.604974
0.526738,-0.048554,0.747837,0.752012,-0.063837,0.656051
0.162002,-0.340421,0.258045,0.990824,0.003516,-0.135114
0.429748,0.041244,0.763400,-0.279508,0.380288,-0.881622
0.122313,-0.313895,0.150794,0.155234,-0.923610,0.350496
0.630394,0.264649,0.578656,0.932365,-0.270787,-0.239521
0.710816,-0.514698,0.014605,0.157863,0.169012,0.972890
-0.426618,0.506481,0.722779,0.431560,-0.871449,0.233093
0.298395,0.773334,0.769516,-0.287123,0.111574,0.951374
0.266355,-0.184518,0.947533,0.036174,-0.943727,-0.328740
0.879019,0.500078,0.721459,-0.343446,0.934102,-0.097464
0.089693,-0.468953,0.847540,0.290993,-0.619143,0.729373
0.906076,-0.059006,0.270309,-0.511721,-0.017254,-0.858978
0.273597,-0.552286,-0.401428,0.980272,-0.149690,0.129072
-0.010544,-0.678277,0.824510,-0.230655,-0.457412,0.858821
-0.504144,-0.026314,0.800401,0.048278,0.984391,0.169245
0.704617,0.429013,0.787445,0.902929,-0.275885,-0.329554
0.559071,-0.100278,0.923875,0.705776,-0.662282,0.251522
0.360158,-0.362783,-0.474414,-0.605505,0.710306,0.358929
0.608783,0.328279,0.675687,0.669832,0.658007,-0.344024
0.426502,0.485635,0.846301,-0.306952,0.809365,0.500709
0.274870,-0.348340,-0.022572,-0.345508,0.914989,-0.208375
0.353382,-0.335711,0.279579,0.831376,-0.290830,-0.473531
-0.245263,-0.625402,0.487853,-0.177186,0.583545,0.792515
0.381193,-0.084385,0.498201,0.895078,0.085253,-0.437683
0.508140,0.566426,0.841328,-0.619032,0.777918,-0.107905
0.306564,-0.135811,0.874595,-0.413948,-0.862012,0.292547
-0.057189,0.260238,0.625619,0.302416,-0.019976,0.952967
-0.651429,-0.146267,0.829611,0.621491,-0.665179,-0.413867
-0.643316,-0.591746,0.571993,-0.610975,0.787150,-0.084283
0.630974,0.430765,0.756432,0.379138,0.921171,0.087744
-0.796397,-0.266578,0.442741,-0.536882,0.161632,0.828030
0.564574,0.758954,0.748722,0.931859,0.326531,-0.158165
0.069701,-0.261927,0.926031,-0.095125,0.231457,0.968183
0.100411,-0.217026,0.642115,-0.691927,-0.693008,-0.202428
-0.185353,0.002447,0.708439,-0.548548,0.470301,-0.691312
-0.199315,0.140104,0.837981,-0.712263,0.477098,-0.514839
0.588155,-0.502855,0.013382,-0.145479,0.036786,0.988677
0.204994,0.621356,0.830352,0.139842,0.559110,0.817215
-0.397475,-0.195454,0.809333,-0.484791,0.029435,-0.874135
0.158759,0.362119,0.834424,-0.011814,-0.178931,0.983791
-0.751435,-0.395051,0.423122,0.893416,0.412137,0.178749
0.146824,-0.520257,-0.047824,0.995985,0.089164,0.007920
0.476970,0.852134,0.767730,0.147694,0.779423,-0.608840
0.260848,0.275404,0.409539,-0.010040,-0.930433,0.366325
0.466654,-0.616218,-0.909889,0.258911,0.467896,0.845008
0.261545,-0.540863,-0.248775,0.933541,-0.352771,-0.063676
-0.410973,0.132975,0.717403,0.151615,0.281405,0.947536
-0.086333,-0.095989,0.914476,0.752301,0.657907,-0.034668
0.890028,0.010849,0.275153,0.589378,-0.088239,0.803024
0.328755,-0.151645,0.433068,0.971427,-0.093309,-0.218225
-0.353382,0.344714,0.836741,-0.642489,-0.766084,0.017988
0.492092,0.040034,0.764849,0.180540,-0.427728,0.885694
0.011414,-0.051877,0.565958,-0.536524,-0.026115,0.843481
0.175907,0.092124,0.746807,-0.253616,0.462241,0.849713
0.789155,0.443818,0.599932,-0.062432,-0.345232,0.936439
0.634160,0.374991,0.702452,0.443624,-0.843353,-0.303239
0.243004,0.338370,0.819585,0.995976,0.033106,-0.083277
-0.161192,-0.479527,0.636160,-0.520090,-0.084961,-0.849875
-0.124109,0.782400,0.646959,-0.027976,-0.998790,-0.040440
0.471174,0.022390,0.732805,0.976908,0.195258,0.086749
0.457788,-0.172129,0.752102,-0.699139,0.242986,-0.672431
-0.014483,-0.124934,0.419582,-0.163735,-0.144744,-0.975828
0.380903,0.272321,0.727156,0.541188,-0.570473,0.617800
0.071498,0.261688,0.640747,0.177701,0.057986,0.982375
0.906716,0.371727,0.233292,-0.560731,-0.184753,-0.807122
-0.047453,0.110251,0.423026,-0.350811,0.253360,0.901521
-0.063445,0.015080,0.736652,-0.570462,0.704920,-0.421498
-0.477083,-0.433483,0.647635,-0.350618,0.703706,0.617953
0.635494,0.286403,0.408299,-0.544110,0.094678,-0.833655
-0.138941,-0.368278,0.536312,-0.280454,0.000892,-0.959867
-0.474130,-0.381515,0.830609,-0.829774,0.498765,-0.250416
0.093112,-0.314319,0.559536,-0.536459,0.472115,0.699514
0.437567,0.606732,0.653912,0.653441,0.752337,0.083687
0.453965,-0.688309,-0.842149,-0.612719,0.788520,-0.053019
0.229388,0.273652,0.428884,-0.120050,0.554933,0.823187
0.380150,-0.358250,0.746518,-0.266022,0.360385,0.894067
0.141841,0.274438,0.836838,0.025263,-0.036528,0.999013
0.175617,-0.346285,0.156716,-0.695342,-0.718652,0.006273
-0.654092,0.259936,0.697076,0.372420,0.589862,0.716496
-0.541863,0.223134,0.926224,-0.258148,0.824375,0.503751
0.665567,-0.181435,-0.926804,-0.237534,0.281713,0.929632
0.267978,0.280055,0.422832,-0.014194,0.965944,0.258361
0.418852,0.014655,0.531629,0.899892,0.281157,-0.333386
0.537284,-0.642748,-0.909825,-0.098344,0.572642,0.813886
0.639143,-0.369912,0.308854,0.590859,0.442501,-0.674595
-0.507214,-0.118347,0.826264,0.612965,0.452122,0.647966
0.658091,0.113154,0.704013,-0.674538,0.048730,0.736630
-0.020453,0.042693,0.890576,-0.335052,-0.903557,0.267068
-0.589488,-0.448044,0.526817,0.031585,0.114529,0.992918
0.373834,-0.677915,-0.807112,0.921858,0.367536,-0.122862
-0.313516,0.007766,0.825202,0.766463,0.365564,-0.528107
0.819688,0.096413,-0.935656,0.431158,-0.221954,-0.874551
0.036271,-0.107533,0.657855,-0.667636,0.151837,-0.728840
0.464684,0.327855,0.671310,0.480628,0.733324,0.480867
0.447420,0.960119,0.768341,0.243268,0.632591,0.735289
-0.385133,-0.119557,0.647217,0.620658,-0.564492,0.544181
0.562085,-0.023112,0.597808,0.496487,-0.063052,0.865751
0.511733,0.065778,0.418906,0.312153,0.187435,0.931359
0.027869,0.037316,0.894487,0.249756,0.315155,0.915587
0.416246,0.958607,0.771657,0.430791,0.372684,0.821904
0.189059,0.486845,0.828034,-0.663515,-0.087037,-0.743083
-0.048090,-0.710789,0.812149,0.388619,0.295704,-0.872660
0.753232,0.694354,0.596939,0.762425,-0.121633,-0.635541
0.355929,-0.336677,0.022363,0.568682,-0.395915,0.721007
-0.448290,0.445691,0.746598,0.745085,0.625290,-0.232079
-0.394345,-0.257516,0.818861,0.466207,0.548521,0.694101
-0.828381,-0.451187,0.401975,0.661801,0.169940,-0.730164
-0.013734,-0.037253,0.413868,0.429667,0.310884,-0.847784
0.503737,0.423875,0.604471,-0.449363,-0.318464,0.834658
0.744769,0.085780,-0.939486,-0.256857,0.288084,0.922514
-0.652702,0.250446,0.699265,0.345887,0.617501,0.706438
0.335131,0.711696,0.654813,-0.237847,-0.044823,0.970268
0.485949,0.399946,0.667463,-0.249138,0.663052,0.705898
0.568167,-0.401215,-0.926691,0.198140,-0.274046,-0.941084
0.134711,-0.299573,0.439603,0.893444,-0.408812,0.186095
0.499681,0.632716,0.807723,0.275590,0.949391,0.150690
0.232691,-0.104630,0.862508,0.256647,0.943911,-0.207759
0.309810,-0.466899,-0.379588,0.946074,-0.046080,0.320658
-0.123819,0.134546,0.926192,0.655355,0.241783,-0.715577
-0.358829,-0.437289,0.681014,0.606379,0.754340,-0.251545
0.062402,-0.447985,0.789006,0.936886,0.349632,0.001570
0.198275,-0.389792,0.726303,-0.373841,0.035801,0.926802
-0.511500,0.147658,0.953584,0.060210,0.066313,0.995981
-0.448229,-0.268574,0.829322,-0.499666,-0.486172,-0.716917
-0.066748,0.591024,0.704753,-0.584711,-0.460033,-0.668194
0.673850,0.392514,0.764881,0.008992,0.990793,0.135086
0.321166,0.356498,0.791195,-0.269808,-0.547337,0.792229
0.645113,0.246157,0.583758,0.993058,-0.021635,-0.115622
-0.863087,-0.055986,0.343296,0.899894,0.309919,-0.306825
0.232631,0.322297,0.408831,0.316378,0.279300,0.906585
-0.764064,-0.550471,0.516517,-0.127669,-0.461463,-0.877925
0.972480,0.474515,0.670296,0.393337,0.903478,0.170335
0.530331,0.608122,0.768261,0.681081,0.664253,-0.308053
-0.878499,-0.273527,0.386701,-0.604706,0.215114,0.766848
0.115823,0.442368,0.422350,0.096214,-0.305695,0.947256
0.246887,-0.318063,0.373810,-0.652327,-0.371378,-0.660718
-0.175677,-0.082150,0.681884,0.217319,0.974486,-0.056122
0.246943,-0.271292,0.324498,-0.215175,-0.600100,0.770442
0.316936,-0.560684,-0.613806,0.945543,-0.283117,0.160600
0.275104,-0.188627,0.307518,0.779156,-0.319873,0.539071
0.513876,0.079676,0.561564,-0.563931,0.825776,-0.008744
-0.574367,-0.318004,0.530438,-0.168812,0.046930,0.984530
0.198621,-0.269116,0.518882,0.947627,-0.104410,0.301829
0.483343,-0.184153,0.293549,0.009864,-0.109263,0.993964
0.702590,0.760765,0.520057,-0.434881,-0.270730,-0.858827
0.441510,-0.616277,0.295415,0.014241,-0.209927,0.977613
-0.049540,-0.050911,0.412162,-0.089840,0.091994,0.991699
-0.426908,-0.024805,0.810025,-0.038317,0.135602,-0.990022
-0.688395,-0.203974,0.806726,-0.723384,0.615902,-0.312060
-0.538270,-0.538086,0.638252,0.863926,-0.290911,-0.411099
0.337677,-0.088616,0.895308,-0.468249,0.697585,0.542326
-0.219306,-0.362296,0.719930,0.004793,-0.828337,0.560210
0.473377,0.075265,-0.959636,0.247305,-0.072879,-0.966193
0.872530,-0.157989,0.281430,-0.590769,0.125097,-0.797084
-0.466018,0.485030,0.744989,0.076692,0.837709,0.540705
0.083260,0.286945,0.642920,0.213239,0.265738,0.940166
0.332348,-0.211409,0.412741,0.449751,0.739988,-0.500141
-0.688625,-0.386107,0.550926,-0.290630,0.362666,0.885442
0.407614,0.848446,0.767472,-0.144343,-0.265202,0.953327
0.555422,-0.416259,-0.924390,-0.149229,0.265785,0.952412
-0.155339,-0.245489,0.830851,-0.238670,0.248783,-0.938693
0.700737,0.160349,-0.949642,-0.218946,0.117767,0.968604
0.584042,-0.233827,-0.569885,-0.324639,0.936130,-0.135167
0.413293,-0.149225,0.714378,-0.653740,0.297447,0.695809
-0.537863,-0.476931,0.552599,0.862754,-0.352518,-0.362473
-0.109334,-0.562679,0.303913,0.787060,-0.116337,0.605807
-0.366071,0.741188,0.623687,0.153812,-0.194285,0.968811
0.599341,-0.490706,-0.919513,-0.147303,0.292692,0.944793
-0.399154,-0.185909,0.478003,-0.445141,0.204144,0.871880
0.701027,-0.035380,0.716035,-0.288669,-0.291124,-0.912095
0.282693,-0.299212,0.730697,-0.232621,0.387613,0.891989
-0.524132,-0.497235,0.635565,-0.687444,0.557791,0.465070
0.591345,0.103425,0.687645,0.896327,-0.026065,0.442628
-0.489889,-0.515606,0.656294,0.282136,0.044632,0.958336
-0.283100,0.096173,0.841264,-0.410896,-0.449477,0.793180
0.039458,-0.392211,0.943300,0.917103,0.022513,0.398014
-0.572860,-0.146990,0.424732,-0.035209,0.669751,0.741751
0.658555,-0.372088,-0.776469,-0.614454,0.731435,-0.295720
-0.339127,0.560142,0.671213,-0.659353,0.599685,-0.453466
-0.285416,0.595372,0.646766,-0.501003,0.562148,-0.658017
0.590705,0.558268,0.604342,0.006605,0.923616,0.383263
0.305521,-0.449376,-0.307535,0.884321,0.457987,0.090690
0.347530,-0.510771,-0.434131,-0.678282,-0.345212,-0.648662
-0.700097,-0.201680,0.799934,0.533224,-0.668920,0.517899
0.453329,0.477599,0.646444,-0.009828,0.340459,0.940208
0.587518,-0.311295,0.442934,-0.183990,0.185306,0.965303
-0.560925,-0.234612,0.458561,-0.669141,-0.123360,0.732825
0.541573,0.813702,0.760294,0.690188,0.578978,-0.434079
0.511386,-0.010484,-0.953053,-0.201314,0.233418,0.951309
0.338144,0.642991,0.785498,-0.331954,0.594089,0.732710
-0.412423,-0.241018,0.527653,0.410001,0.850843,0.328582
0.185470,-0.261020,0.252669,0.370530,0.873739,-0.315098
-0.225505,-0.447742,0.720332,0.206730,0.294816,-0.932924
0.193349,-0.199382,0.601799,-0.453684,0.881158,-0.133158
0.304364,-0.391363,0.483765,0.725556,0.478648,-0.494433
-0.092762,0.610660,0.709469,0.344708,0.594326,0.726604
0.753695,0.478019,0.604439,0.026262,-0.133475,0.990704
0.331014,-0.530772,-0.578141,-0.756541,0.653197,-0.031287
0.249260,-0.470344,-0.262954,0.829483,-0.558313,-0.015626
0.270641,-0.133214,0.750976,0.933350,0.164489,0.319063
0.602640,-0.518446,0.010888,-0.085642,0.044433,0.995335
-0.063389,0.382965,0.756335,-0.556629,-0.108450,0.823652
-0.437974,0.053150,0.815304,-0.501563,0.470698,-0.725864
-0.742860,-0.303380,0.440214,0.079407,-0.411093,0.908128
0.142997,-0.336194,0.012561,0.556713,-0.359036,0.749109
0.444580,0.540081,0.622094,0.851324,0.354677,-0.386590
0.007244,-0.432336,0.775825,-0.038072,0.268966,0.962397
0.525582,-0.091880,0.426454,-0.072847,0.008651,0.997306
0.187556,-0.494937,0.039954,0.532053,-0.094631,0.841406
0.667247,0.154245,-0.950736,-0.145892,0.213404,0.966010
-0.128802,0.145965,0.414705,-0.197987,0.154185,0.968002
0.003651,-0.741969,0.813179,0.137343,-0.743609,0.654356
-0.761458,-0.067043,0.411148,-0.809547,0.227835,0.541041
0.756881,0.440616,0.715842,-0.208034,0.948523,0.238803
0.078164,-0.164878,0.831269,0.666229,-0.617509,0.418115
0.674780,-0.034896,0.278871,0.311320,0.466151,0.828120
-0.266355,0.141856,0.890093,-0.254733,0.966710,-0.024137
0.250943,-0.179742,0.497880,0.664904,-0.636731,0.390482
0.232341,-0.406411,0.245476,-0.239668,0.958569,0.153965
0.611739,-0.347794,0.307824,0.206633,0.371773,0.905035
-0.261952,-0.213703,0.792804,0.590349,-0.120755,0.798064
-0.078104,-0.230806,0.698621,-0.822125,0.223879,-0.523439
0.576336,0.318007,0.656085,0.208081,-0.912648,0.351818
0.639957,0.454152,0.724066,-0.244764,-0.491677,0.835670
-0.333101,0.101009,0.915216,-0.484580,0.080752,-0.871012
0.193115,-0.267124,0.361820,-0.467432,0.883724,-0.023215
0.410393,0.608366,0.781812,-0.115976,0.576353,0.808929
0.836143,0.731698,0.607609,-0.675665,0.193867,0.711261
0.239584,-0.511073,-0.187698,-0.588907,0.794232,-0.149611
0.607973,-0.257936,-0.003758,0.299592,0.236756,0.924225
-0.157136,-0.094115,0.915618,-0.140468,0.605844,-0.783084
-0.127529,0.626977,0.703080,-0.738890,-0.365532,-0.566063
0.574137,0.035383,0.923295,-0.696595,0.532800,-0.480500
0.516136,-0.329304,0.452156,-0.095977,0.071093,0.992841
0.868243,-0.133333,-0.915683,-0.319209,0.255109,0.912702
0.661394,-0.294557,-0.923666,-0.317508,0.069035,0.945739
0.172954,-0.432819,0.047083,0.817369,-0.126925,0.561959
0.091429,-0.022087,0.677265,0.307436,-0.940939,-0.141832
0.803696,0.697858,0.595458,-0.601928,0.195407,0.774273
0.212237,-0.260957,0.329133,0.166543,-0.982637,-0.081785
0.173707,-0.529079,0.038924,-0.386543,0.053887,-0.920696
-0.675706,-0.224823,0.504897,0.630966,-0.754101,0.182246
0.585722,0.537964,0.760793,0.803441,-0.366898,0.468901
0.113044,-0.245308,0.290281,-0.597310,-0.798992,0.069525
-0.413350,-0.300599,0.444415,-0.110475,0.165570,0.979991
0.332521,-0.164395,0.481126,-0.463186,0.758206,0.458892
0.177357,0.734117,0.825942,0.264585,-0.203213,-0.942708
0.196072,0.103668,0.835663,-0.508415,0.412846,0.755694
-0.033665,-0.326284,0.283087,0.738560,-0.060382,0.671479
0.366998,0.320726,0.751635,0.344362,-0.800518,0.490495
0.090966,-0.105294,0.591419,0.885879,0.462862,0.031264
0.379223,0.562679,0.873500,0.743808,0.567349,0.353363
-0.546959,0.291780,0.682383,0.208022,0.608912,0.765476
-0.038414,-0.091094,0.539547,-0.096645,-0.228487,0.968738
0.463351,0.002993,0.520218,0.528737,0.036117,-0.848017
0.582886,0.234494,0.628499,0.579864,0.491177,-0.650003
-0.569907,0.020999,0.726931,-0.239556,0.920474,-0.308772
0.169768,-0.155993,0.930538,0.326131,-0.426518,-0.843636
0.466481,0.174066,-0.968504,0.263395,-0.142263,-0.954141
-0.185180,0.542438,0.843774,0.844430,0.334886,-0.418079
-0.469550,0.732546,0.636080,0.210830,-0.442246,0.871762
0.403211,-0.079310,0.423332,0.256072,0.060102,0.964787
0.516949,0.445570,0.655988,-0.416146,0.668662,0.616209
0.180023,-0.258239,0.526994,0.493897,-0.773951,0.396315
0.546673,-0.148078,0.727172,0.275182,-0.306823,0.911117
0.002028,-0.285735,0.899798,0.818050,-0.506518,0.272458
0.902777,0.501650,0.713959,0.146436,-0.943403,0.297570
-0.655368,-0.634589,0.565346,-0.401678,0.903918,0.146923
-0.154066,0.408466,0.631429,0.056152,-0.393183,0.917744
0.149370,0.035866,0.866403,0.020983,-0.695748,0.717980
0.826758,0.313714,0.614320,0.537726,0.527466,0.657746
0.259229,0.204885,0.427967,-0.054138,0.241282,0.968944
-0.041544,-0.240473,0.945119,-0.408659,-0.857943,0.311337
-0.083783,-0.110793,0.919578,-0.646555,-0.689584,-0.326253
-0.011124,0.358918,0.824670,-0.265608,0.957775,0.110087
0.437684,0.390821,-0.980301,-0.310501,0.334470,0.889786
0.015877,-0.124694,0.657227,0.515973,0.273648,0.811720
-0.582769,-0.640450,0.638993,0.882458,-0.309144,0.354539
0.004868,0.070975,0.428578,-0.606107,-0.082404,0.791103
0.224695,0.223739,0.832846,0.579449,-0.032995,-0.814340
0.434558,0.378134,0.462859,-0.709019,0.695690,0.115353
0.909033,0.480317,0.344776,0.230992,0.827707,0.511413
0.042761,-0.213766,0.891670,0.870911,0.489252,0.046330
0.073121,0.011270,0.889739,0.045741,0.311588,0.949116
-0.297351,-0.094237,0.632974,-0.895030,0.307457,0.323096
0.748595,0.388829,0.669572,-0.164469,-0.892723,0.419518
-0.566254,-0.422968,0.441614,-0.340282,0.473456,0.812433
0.411436,0.641781,0.654395,0.785822,0.355426,-0.506118
0.508720,0.394871,0.460734,-0.134770,0.822473,-0.552608
0.378353,0.602262,0.840797,0.978113,0.141264,-0.152774
0.834870,0.159442,-0.937378,-0.415701,0.390093,0.821596
-0.817372,-0.363568,0.521489,-0.105190,-0.509114,0.854247
-0.328235,0.278001,0.902808,0.661615,0.651277,0.371624
-0.062809,-0.218417,0.955596,0.502047,0.835843,0.222071
-0.292659,-0.488169,0.647700,0.036486,0.189189,0.981263
-0.214786,-0.536935,0.877701,0.644579,-0.702063,-0.302696
0.308533,-0.474876,-0.388697,0.978763,-0.042412,0.200560
-0.202561,-0.322356,0.625264,-0.376642,0.328596,-0.866121
0.230372,-0.197689,0.131658,0.922088,-0.297511,-0.247471
-0.134945,0.103000,0.673209,0.615645,0.665480,0.422040
0.601077,-0.111398,0.292615,0.177003,-0.566892,-0.804552
0.328291,-0.245308,0.456518,-0.741434,0.228362,-0.630973
-0.528071,-0.278303,0.867400,-0.119731,0.711038,-0.692885
-0.522395,0.006799,0.817991,-0.377911,-0.873497,-0.306899
0.341444,-0.525634,-0.427339,0.839147,-0.541681,-0.049142
0.296481,-0.074294,0.890415,0.550873,0.236593,-0.800352
-0.672343,-0.043778,0.683960,0.161523,0.986501,-0.026940
0.476507,0.153157,0.605276,0.968852,0.003322,-0.247618
-0.446606,0.490530,0.695676,-0.273482,0.959978,0.060414
0.539604,-0.031876,0.422543,0.055443,0.084120,0.994912
0.676980,0.528176,0.814322,-0.611024,-0.687237,0.392881
-0.312590,-0.294557,0.556703,0.207967,0.218200,0.953488
-0.278347,0.081188,0.924100,0.524796,-0.246397,0.814787
-0.173997,-0.474998,0.875013,0.927269,-0.366878,0.074655
0.522569,-0.257332,-0.939132,0.231833,-0.242195,-0.942123
0.506517,0.197390,-0.963611,0.303006,-0.238668,-0.922618
0.494178,0.066383,-0.952989,-0.328034,0.196581,0.923986
-0.580276,0.471070,0.694389,-0.454606,0.784117,-0.422485
-0.375340,-0.220955,0.799516,0.765985,0.218888,0.604446
0.143810,0.349852,0.642823,-0.121431,-0.249133,0.960826
0.366418,-0.596158,-0.548431,0.946073,-0.258180,0.195676
0.218263,-0.164034,0.737118,-0.014142,-0.987849,0.154775
0.027232,-0.769705,0.804408,0.863272,-0.360927,0.352836
0.666260,0.563406,0.800883,0.567523,0.788181,-0.238092
-0.102615,-0.131219,0.893537,-0.453255,-0.855343,0.250894
0.551422,0.140285,-0.957383,0.266484,-0.167635,-0.949150
-0.378063,0.327132,0.774924,-0.562187,-0.822660,-0.084717
-0.648935,-0.495785,0.482252,-0.146399,0.983290,0.108201
0.351932,0.498869,0.676009,0.468425,0.635260,-0.614022
-0.590358,-0.725837,0.617249,0.829083,-0.482235,0.282968
-0.791528,-0.312143,0.401798,0.148204,0.783788,-0.603085
0.487455,0.098287,0.517369,-0.283217,0.041439,-0.958160
0.545166,0.346285,-0.968552,-0.298314,0.238132,0.924285
0.694131,0.157871,0.602314,0.933393,-0.162048,-0.320186
0.394635,0.502978,0.613644,0.541109,-0.605317,0.583775
0.345500,-0.621776,-0.724340,0.944711,0.308089,0.112257
0.758791,0.365804,0.392029,-0.605344,-0.002567,-0.795959
0.156612,-0.001057,0.663424,-0.475005,0.728494,-0.493627
-0.559071,0.719191,0.640683,0.095198,-0.526188,0.845023
0.382466,-0.378071,0.744297,-0.535426,-0.155909,0.830067
-0.305347,-0.349247,0.729780,0.197379,-0.930914,0.307313
0.143867,-0.471008,0.864793,-0.189757,-0.837133,0.513031
0.312417,0.468171,0.824590,0.158337,-0.803499,0.573863
-0.691291,-0.583769,0.549043,0.152772,0.987971,-0.023968
-0.716379,-0.313290,0.397243,-0.498788,0.608644,0.617060
0.192825,0.612958,0.829789,0.444649,-0.455944,-0.770975
0.248566,-0.449859,-0.219741,0.625273,-0.780179,0.018827
0.162292,-0.345135,0.738824,0.758496,0.510275,0.405344
0.024046,-0.403509,0.845834,0.793347,-0.142070,-0.591960
-0.404137,-0.274375,0.833232,0.612957,0.220376,0.758761
-0.276724,0.465512,0.804746,0.691566,0.713008,-0.115567
0.109451,-0.625402,0.071208,0.914385,0.059747,0.400412
0.075844,-0.160164,0.633988,0.867969,0.321573,0.378445
-0.233384,-0.035320,0.906509,-0.173010,-0.721117,-0.670864
0.002898,-0.314437,0.936380,0.857662,0.206540,0.470911
0.426791,-0.159803,0.725756,0.685810,-0.153930,-0.711315
0.231878,-0.277698,0.431363,0.710118,0.558418,-0.428838
0.180427,-0.389914,-0.004209,-0.740556,0.561698,-0.368880
-0.071961,-0.325376,0.898510,-0.095881,-0.720429,0.686869
-0.765341,0.063060,0.756335,-0.519315,0.854030,-0.030753
0.144447,-0.223130,0.858436,0.196011,0.563127,-0.802787
-0.056666,-0.471491,0.833780,0.114598,0.773440,0.623424
0.008461,-0.331720,0.273930,0.529765,0.085604,0.843813
0.300018,0.516392,0.842455,-0.504678,0.855337,-0.117044
0.400544,-0.444902,0.005738,0.019674,0.171156,0.985048
0.368678,-0.527025,-0.471662,0.435332,0.823925,-0.362813
-0.082567,-0.241321,0.938134,-0.445134,-0.842103,0.304496
0.276320,-0.552105,0.019594,0.984290,-0.103651,-0.142934
0.434787,0.873946,0.771335,-0.165028,-0.163842,0.972585
0.738747,0.056229,-0.938617,0.311677,-0.322829,-0.893666
0.673503,-0.271716,-0.922410,0.297590,-0.093876,-0.950067
0.611333,0.228029,-0.954212,-0.222489,0.158754,0.961923
-0.214267,-0.421577,0.702371,0.350244,0.216090,-0.911391
-0.300248,0.662447,0.729683,0.155219,0.296569,0.942313
-0.060259,0.266279,0.624637,0.302416,-0.019976,0.952967
-0.672343,-0.581534,0.552084,0.183021,-0.820904,-0.540943
0.508663,0.598817,0.849536,-0.593338,0.802240,0.066040
0.550032,0.770070,0.774215,-0.724396,-0.546669,0.420005
-0.728721,0.082276,0.729892,0.769391,0.542719,-0.336889
-0.693378,-0.519954,0.513394,-0.673311,0.060434,0.736885
-0.069298,-0.232196,0.700022,-0.822125,0.223879,-0.523439
0.288952,-0.396438,0.022765,-0.741712,0.661601,0.110218
0.587635,0.008190,0.308452,0.976152,-0.099587,-0.192896
-0.183037,-0.497294,0.859048,-0.410441,-0.403758,0.817629
