-0.499496,-0.399165,0.087448,0.176988,0.488818,-0.854244
-0.056666,0.148594,0.636118,0.302650,-0.610778,0.731678
-0.133165,0.328433,0.508243,0.335433,-0.313575,0.888344
-0.613005,0.601670,0.384173,0.934290,0.021170,0.355884
0.497483,0.078641,0.433933,-0.255334,-0.127344,0.958430
0.049854,-0.331441,0.831164,0.880433,-0.394093,-0.263680
0.166558,-0.668394,0.716771,0.129959,0.855410,0.501382
0.631476,-0.064383,0.650653,-0.613616,-0.122162,0.780098
0.530641,-0.198887,0.607695,-0.497601,-0.266190,0.825552
0.340755,-0.590476,0.663151,-0.279068,0.486423,0.827957
0.380071,-0.887330,0.436443,0.197826,0.555626,0.807554
-0.239624,0.217266,0.691830,0.673708,0.225798,0.703657
-0.062763,-0.124980,0.951117,0.846633,0.530641,0.040401
0.285155,-0.118072,0.455419,0.191582,-0.698201,0.689791
0.096097,-0.125704,0.841947,-0.330184,-0.584032,0.741542
0.229559,0.390588,0.391825,0.498906,-0.198569,-0.843601
0.355084,-0.510499,0.656187,0.765791,-0.525924,-0.370092
0.527977,0.422333,0.395064,0.431766,-0.899980,0.060124
-0.247025,0.159788,0.689023,-0.423114,0.765378,-0.484944
-0.583577,0.037594,0.646227,0.734905,0.579431,-0.352383
-0.110900,0.325647,0.342538,-0.539537,-0.086016,0.837557
0.215230,-0.389530,0.233449,0.564942,0.791249,-0.234023
-0.086152,0.211028,0.498876,-0.577331,-0.567052,0.587487
-0.095920,-0.271791,0.719848,-0.003557,0.723242,0.690585
-0.260230,0.076581,0.663340,-0.426262,0.825456,-0.370030
0.128250,-0.039488,0.720955,-0.516225,-0.133256,-0.846023
-0.306589,0.671511,0.300052,0.042212,-0.812125,0.581955
0.217066,0.081370,0.686607,0.510775,0.717152,-0.474132
0.829593,0.191813,0.359948,0.886403,0.036892,-0.461441
0.145066,-0.562963,0.797896,0.996272,0.051595,-0.069143
-0.417608,0.025507,0.544790,0.676041,0.731608,0.087861
0.477411,-0.251573,0.584347,-0.660246,0.720896,0.210677
-0.396944,0.436592,0.440951,0.002065,-0.563161,0.826345
0.277342,-0.377332,0.532698,-0.754308,0.250461,0.606868
-0.384039,0.280201,0.508985,0.868558,0.452051,0.203116
0.182842,0.089112,0.764156,-0.822184,0.090396,0.561998
-0.630117,0.324534,0.538946,0.765504,-0.125338,0.631105
-0.272723,0.305931,0.310471,-0.298970,-0.669305,0.680182
-0.387591,0.350877,0.504963,0.494238,-0.491719,0.716897
-0.028893,0.121192,0.800069,0.781934,0.617695,-0.083861
-0.162651,-0.424283,-0.124211,0.933114,-0.266910,0.240951
-0.466577,0.100306,0.531996,0.567717,0.215220,0.794593
-0.135532,-0.025119,0.786829,-0.494054,0.859092,0.133686
0.231037,-0.125704,0.467080,0.841463,-0.338867,0.420843
-0.022973,0.771874,0.319432,-0.052939,-0.962980,0.264323
-0.023270,-0.395991,0.791269,-0.057665,0.970509,0.234065
0.503229,-0.089112,0.606899,0.117367,-0.086286,-0.989333
-0.481676,-0.011418,0.638075,0.084406,-0.734628,0.673199
-0.184974,-0.087998,-0.237821,-0.551948,-0.377736,-0.743417
0.554030,-0.617154,0.601433,-0.627819,0.589654,0.508086
0.406478,-0.804066,0.518378,-0.532256,-0.559017,-0.635770
0.221092,-0.554442,0.619693,0.480531,0.823210,0.302351
-0.071053,-0.514843,0.828721,0.558356,0.745266,0.364440
-0.459175,-0.333111,0.474732,0.116120,-0.489042,0.864496
-0.092722,0.116848,0.316652,-0.136374,-0.592048,0.794280
-0.078631,0.634642,0.702411,-0.095536,0.982993,-0.156834
-0.045709,0.034641,0.718836,-0.636677,0.513204,-0.575556
0.440701,-0.309663,0.691169,0.937952,0.141741,-0.316475
-0.578662,0.236703,0.447267,-0.809887,0.099827,-0.578029
0.531945,-0.637761,0.592958,-0.577126,0.796527,0.180197
-0.414471,-0.250572,0.688834,-0.861540,0.431036,-0.268247
-0.007105,-0.160345,0.988096,-0.473785,-0.851457,0.224830
-0.307478,-0.287776,0.710522,0.982777,-0.183514,-0.021723
-0.493457,0.542022,0.544574,0.901567,-0.045688,0.430220
-0.038307,-0.229017,-0.928579,0.815472,-0.575860,-0.058233
0.023209,-0.215594,-0.061023,0.999701,0.004259,0.024088
0.827461,0.159120,0.386697,0.473125,-0.569563,-0.672124
-0.086387,0.544250,0.262452,0.418545,-0.399740,0.815492
-0.572562,0.005903,0.639614,-0.050558,-0.971073,0.233369
-0.581326,0.161236,0.552388,-0.405635,-0.888817,0.213226
-0.436617,0.694459,0.523156,-0.497697,-0.459502,0.735632
-0.388065,0.159176,0.677038,0.166267,0.683768,-0.710505
-0.657886,0.081092,0.180382,0.752363,0.454752,-0.476603
-0.172716,0.615929,0.527070,-0.280352,-0.732136,0.620789
-0.459056,-0.059983,0.487972,-0.485457,0.816806,-0.311703
0.331460,0.144416,0.117693,-0.531514,0.847008,-0.008404
-0.610576,-0.157727,0.606103,-0.547364,-0.081526,-0.832914
0.174432,-0.063882,0.883178,0.104209,-0.938218,0.329982
-0.766773,-0.305709,0.543117,-0.649719,0.742592,-0.162552
-0.633608,-0.315455,0.513101,0.689890,-0.709299,-0.144733
-0.052459,-0.186411,0.860801,-0.466300,0.205191,0.860500
-0.639827,0.087719,0.318501,-0.000896,0.990660,0.136350
-0.651905,0.470677,0.476675,-0.018880,0.857175,0.514679
-0.020487,-0.142857,0.998839,-0.318616,-0.907913,0.272354
0.246374,-0.025843,0.830287,-0.890759,0.206674,0.404765
-0.452602,-0.320524,0.713370,0.708858,-0.563341,0.424460
0.115284,0.055138,0.617736,0.743229,-0.544691,0.388488
-0.120730,0.238039,0.347518,0.380636,-0.113251,-0.917764
-0.125468,-0.118796,0.793118,0.295411,0.924323,0.241575
0.272839,-0.716736,0.504720,0.092260,0.405082,0.909614
-0.276926,-0.012698,0.504545,0.624281,0.460862,0.630777
0.109834,-0.450015,0.788003,0.740336,0.626013,0.244971
-0.372847,-0.318853,0.752225,-0.255257,0.966854,-0.006048
-0.166677,-0.042049,0.740686,-0.195614,0.266603,-0.943747
0.241991,0.576386,0.453678,-0.358055,-0.728729,-0.583739
0.069514,-0.170036,0.802201,-0.602228,0.771941,0.203539
0.214283,-0.047730,0.905932,0.144529,0.879783,-0.452873
-0.615076,0.021610,0.698457,0.859423,-0.066263,0.506953
0.020784,-0.103370,0.478484,-0.458529,0.873041,-0.165983
-0.324236,-0.350766,0.759405,0.183902,0.804924,0.564161
-0.188230,0.703314,0.578719,-0.402270,-0.902534,0.153657
-0.115815,-0.055751,0.949349,0.489950,0.644141,-0.587394
0.076203,-0.657979,0.724504,0.654245,0.661802,-0.366035
-0.314110,0.280312,-0.149031,-0.670767,-0.312937,0.672415
-0.689088,-0.210749,0.628466,0.396843,-0.571918,0.717932
0.517200,0.254803,-0.913531,-0.656367,0.461097,0.597136
-0.107940,-0.165024,0.508917,-0.328299,0.109377,0.938220
0.170703,-0.351825,0.239819,0.686266,0.106487,0.719513
-0.138908,-0.273461,0.077123,-0.381118,0.923109,-0.051181
-0.087218,-0.005068,0.786586,-0.349126,0.933325,0.083757
0.350939,-0.575161,0.562106,0.045609,0.219718,0.974497
0.141217,-0.218992,0.229899,0.783323,0.621259,0.021054
0.037422,-0.204456,0.710752,-0.558341,-0.154488,-0.815100
-0.375806,-0.371874,0.318825,0.278861,0.445942,0.850513
-0.027946,-0.510499,0.785480,0.333446,-0.870578,-0.361811
-0.474451,0.943248,0.388681,0.721090,-0.239011,0.650310
-0.426549,-0.288109,0.722844,0.329965,0.490527,-0.806540
0.385163,0.133668,0.729619,0.380237,0.530131,-0.757879
0.244300,-0.219381,0.564359,0.607907,0.187384,-0.771581
0.145597,-0.054692,0.112416,-0.736132,0.655866,-0.167182
-0.021553,-0.101086,0.833080,0.445256,0.583988,-0.678753
0.255550,-0.468951,0.352228,-0.647552,0.583407,-0.490217
0.137784,0.011307,-0.955179,0.046122,0.163676,0.985435
-0.395466,-0.256140,0.622096,0.742245,0.654791,-0.142553
-0.559891,0.438429,0.552510,-0.310991,0.429846,-0.847654
0.024929,0.107435,0.454069,-0.678650,0.308365,-0.666593
0.040855,0.443497,0.731117,0.919296,0.187401,0.346087
-0.097460,0.169646,0.346964,-0.292532,-0.160382,0.942710
0.511281,-0.230910,0.609396,-0.323184,-0.263551,0.908897
-0.161231,0.788082,0.596359,-0.551433,0.444645,-0.705841
-0.609272,0.039989,0.601555,0.910151,0.413928,-0.017002
0.156909,-0.633250,0.710968,0.432748,0.748047,0.503146
0.309787,-0.898302,0.554386,-0.191914,0.753662,0.628620
-0.459768,-0.045447,0.583160,-0.539561,0.405089,-0.738090
-0.070699,0.174157,-0.133578,0.819143,0.490759,0.296919
-0.299484,0.621665,0.465177,0.657115,0.287361,-0.696867
0.145301,-0.373990,0.703099,0.561639,-0.148535,0.813940
0.571673,0.397995,-0.911722,-0.366859,0.327925,0.870563
-0.099534,-0.339961,-0.973696,-0.365915,-0.113243,0.923733
0.036414,-0.121137,0.142620,0.956646,0.290544,0.020295
-0.004738,-0.236815,-0.085828,0.880075,0.474599,-0.014985
0.640182,0.270955,0.461479,0.559008,-0.177349,-0.809974
-0.403637,0.077917,0.642839,0.468505,0.883454,0.003402
-0.791109,0.369590,0.480427,-0.231465,-0.444652,0.865280
0.437622,-0.319132,0.674042,-0.339837,0.858989,0.382948
-0.301736,0.717739,0.519269,0.172941,0.907647,-0.382451
-0.857836,-0.009802,0.485448,0.798136,-0.297358,0.523981
-0.490320,0.718964,0.498080,0.707150,-0.588604,0.391770
-0.142164,-0.280367,-0.974708,0.349924,-0.003189,-0.936773
0.069748,-0.270621,0.301024,-0.682276,-0.284147,-0.673617
-0.368644,0.618213,0.276312,-0.191252,-0.806684,0.559182
-0.048495,-0.198831,-0.268188,-0.609459,0.792380,0.026343
0.170526,-0.495740,0.612662,0.306307,0.780746,0.544621
-0.388122,0.627235,0.477580,-0.356158,0.625848,-0.693877
-0.572858,0.308494,0.430991,0.435268,0.703464,0.561855
0.339808,-0.195154,0.413392,0.121683,0.907670,-0.401657
0.503522,-0.223503,0.601298,-0.584471,-0.328895,0.741770
-0.247675,0.044612,0.626509,-0.484510,0.849531,0.208678
0.436437,-0.335506,0.672962,0.423991,0.835870,0.348645
0.136064,0.342300,0.775587,0.791400,-0.449804,0.413961
-0.096809,-0.108884,0.838789,-0.615845,0.764324,-0.191163
-0.157736,-0.251406,0.817371,0.917038,0.094254,-0.387500
0.228551,0.509162,0.639060,0.232226,-0.896532,0.377228
-0.381195,-0.306211,0.750646,-0.027923,0.565317,0.824401
0.643141,0.213702,0.462936,0.685890,-0.108614,-0.719554
-0.334301,-0.289224,0.731347,0.673655,0.718550,-0.172846
-0.142222,-0.254915,0.918726,0.058597,0.886904,0.458222
-0.505065,0.250571,0.747448,-0.375882,0.909490,-0.177600
0.276688,0.528265,0.584739,0.523630,-0.418480,0.742082
0.830779,0.058090,0.391461,-0.049615,0.285773,0.957012
0.269583,-0.273461,0.365926,-0.012841,0.761906,0.647560
-0.030494,0.194597,0.749404,-0.113918,0.165217,0.979656
-0.242645,-0.322862,-0.248510,0.082880,-0.189942,0.978291
-0.120314,-0.269841,0.792228,0.572966,-0.492032,-0.655450
0.227958,-0.191534,0.642650,0.334512,0.192300,-0.922563
-0.273020,-0.263325,0.789353,0.077449,-0.876115,-0.475841
-0.087868,-0.185631,0.879169,0.751355,-0.250012,0.610704
-0.063771,0.142356,0.793631,0.547695,0.793450,-0.265458
0.298006,-0.565302,0.660398,-0.619834,0.646274,0.445124
-0.272308,-0.452019,0.633027,0.843249,0.274386,0.462216
0.034874,-0.389308,0.798719,0.823591,-0.300774,-0.480867
0.278701,0.070175,0.778367,0.895332,-0.282802,-0.344099
0.121619,0.295461,0.783914,0.838676,-0.491096,0.235473
0.102198,0.569980,0.702303,0.357685,0.896855,0.260217
0.027238,-0.242216,0.047189,-0.711527,0.691710,0.123560
0.057078,-0.045670,0.473369,0.260900,-0.936738,0.233353
-0.231630,-0.001504,0.744748,0.224651,0.900342,0.372715
0.223459,0.088332,0.302535,0.447038,-0.041153,-0.893568
0.343419,0.556002,0.601811,-0.667685,0.650288,0.362384
0.207532,-0.147981,0.471587,0.860878,0.507335,0.038728
-0.300966,-0.234586,0.451573,-0.250641,-0.134877,-0.958638
-0.334716,-0.284990,0.795979,0.274129,0.856385,0.437560
-0.128427,0.013200,0.833418,0.105959,-0.980049,0.168157
-0.208598,-0.043776,0.835199,-0.267865,-0.096331,0.958629
-0.286460,0.036982,0.652637,-0.690215,-0.666384,-0.282020
0.622712,-0.118241,0.432988,-0.890874,0.434300,-0.133144
-0.690570,0.032192,0.516205,0.468131,-0.330012,0.819723
-0.052105,0.029685,0.789771,0.094842,-0.980690,0.171033
-0.464325,0.046894,0.604079,-0.102017,0.984149,0.145063
0.667062,0.646672,0.449575,-0.651570,0.671175,-0.353526
0.419148,0.078139,0.698443,0.710304,-0.655971,0.255285
-0.698503,-0.391145,0.266379,0.184707,0.982767,0.007168
-0.006158,-0.159566,0.884406,0.104452,0.950030,0.294166
0.439635,-0.466110,0.570676,-0.144477,0.804187,0.576549
-0.627569,0.498468,0.569677,-0.571215,0.800890,-0.179688
0.237788,-0.152715,0.486042,-0.670024,-0.264766,-0.693518
0.669667,0.572822,0.416577,-0.523319,0.699170,-0.487134
-0.062347,-0.247174,-0.476837,-0.421017,0.906178,0.039828
0.205754,-0.609747,0.541686,0.489603,-0.725700,0.483372
-0.069394,-0.243610,0.918740,0.284905,-0.952441,-0.108102
0.469121,-0.306600,0.686054,0.906544,-0.326441,-0.267608
-0.697852,-0.184072,0.323090,-0.148572,-0.424906,0.892962
0.769379,-0.003341,0.379288,-0.747537,0.003963,-0.664209
-0.742140,-0.278363,0.485137,0.399086,-0.558100,0.727499
-0.027831,-0.274520,-0.460588,-0.364694,0.928943,0.063734
0.022439,-0.120245,0.933275,0.503184,0.235849,0.831373
0.640890,-0.060484,0.426133,0.758095,-0.381050,-0.529239
0.024690,-0.033974,0.771511,-0.132727,0.614918,-0.777341
0.581326,-0.634141,0.650154,0.473695,0.741435,0.475276
0.170229,-0.259538,0.880910,-0.051311,-0.986506,-0.155477
0.243473,0.348649,0.683894,0.302609,-0.896782,0.322815
-0.577357,0.444389,0.553752,-0.245717,0.449570,-0.858784
-0.599268,0.109274,0.706487,-0.520484,0.675069,-0.522855
-0.338977,0.254247,0.481939,-0.058851,-0.784460,0.617380
0.161112,-0.115567,0.553671,-0.284243,0.681423,-0.674440
-0.192610,0.735339,0.584712,0.220887,0.825769,-0.518955
0.885548,0.268394,0.503708,0.371698,-0.853650,0.364859
0.021492,0.272515,0.558786,-0.742604,-0.495974,0.450054
0.580675,-0.058591,0.431409,0.335917,0.142150,0.931103
-0.264964,0.330493,0.314142,-0.048972,-0.379556,0.923872
0.293268,0.101420,0.806345,0.758264,0.516937,-0.397254
-0.479663,-0.298970,0.462140,0.165120,-0.628766,0.759861
0.378116,-0.153329,0.586965,0.587469,-0.103767,-0.802566
-0.574813,0.488054,0.582566,0.787987,-0.547846,0.280964
-0.284031,-0.523197,-0.989932,-0.227972,-0.213437,0.949986
0.312451,-0.201893,0.570635,0.621597,0.200733,-0.757182
0.219314,0.438040,0.574873,0.363439,-0.926758,-0.095034
0.716561,-0.081592,0.638129,-0.482384,0.566973,-0.667718
0.036829,-0.379115,0.836076,-0.093371,0.889188,0.447913
0.389839,-0.550153,0.565547,-0.390156,-0.316441,0.864664
0.333885,0.466388,0.583497,0.655957,-0.594621,0.464915
0.725087,0.515065,0.379989,0.119881,-0.670082,0.732543
-0.067500,0.526538,0.260279,0.235939,-0.471478,0.849730
-0.024571,-0.069674,0.492263,-0.577110,0.796685,-0.179545
-0.595358,0.034698,0.680858,0.374273,-0.896541,0.236926
-0.038546,-0.270788,-0.430087,-0.242133,0.969778,0.030025
0.234886,-0.140907,-0.936555,-0.572630,0.751318,0.328049
0.116230,-0.712448,0.615388,0.982224,0.082787,-0.168468
0.003968,0.457477,0.653434,0.029088,-0.625916,0.779348
-0.101605,0.013978,0.777692,0.181759,-0.780377,-0.598311
-0.359168,-0.267502,0.453813,0.256587,-0.019636,0.966322
0.643734,0.696631,0.486770,0.983817,-0.114291,0.137991
0.003021,0.363575,-0.081523,-0.650077,0.160943,0.742629
0.240039,-0.022055,0.673705,-0.127613,-0.842250,0.523765
0.313282,-0.132720,0.452153,-0.019661,-0.691508,0.722101
0.236899,-0.468728,0.162824,0.080846,0.986316,-0.143683
0.324829,0.056419,0.694286,-0.124060,0.985154,0.118663
0.020310,-0.154999,0.646497,0.328992,0.927408,0.177988
0.146959,0.382734,0.549082,0.866551,-0.019640,0.498702
0.180117,-0.075633,0.763656,0.955477,-0.000482,0.295064
-0.668070,0.192036,0.473733,0.933206,0.349074,0.085290
-0.385459,-0.324868,0.699429,0.035269,-0.649578,0.759476
-0.624667,0.512113,0.587856,0.743333,-0.639841,0.195089
-0.173782,0.145253,0.316733,0.909848,0.225874,0.348078
-0.551189,0.108883,0.355278,0.500073,0.026129,-0.865589
0.077150,0.038095,0.683948,0.484714,-0.545134,0.684018
0.331460,-0.074297,0.007254,0.145441,-0.976602,-0.158418
0.748241,-0.042774,0.248024,-0.348818,0.803411,-0.482553
-0.956304,-0.019271,0.349367,0.371230,0.780646,0.502772
0.633846,0.034864,0.418871,0.789438,0.373029,0.487479
0.339631,-0.278696,0.645754,0.736768,0.293504,-0.609121
0.348688,-0.648064,0.573901,0.230308,0.540538,0.809183
0.576472,-0.602674,0.579030,0.480996,-0.740318,-0.469652
0.253006,0.447563,0.581176,0.762023,-0.420345,0.492576
-0.348276,-0.006015,0.838722,-0.691857,-0.139836,-0.708364
0.564156,-0.120858,0.607223,0.878196,0.210015,-0.429727
-0.482799,0.717125,0.385347,0.900310,0.140589,-0.411917
0.030317,0.186578,-0.063330,0.924801,-0.112879,-0.363320
0.326842,0.080702,0.713194,0.247341,0.313767,-0.916718
-0.523774,0.241437,0.440951,0.734200,0.228666,0.639267
0.282434,-0.653412,0.492695,-0.406403,0.178537,0.896081
-0.612766,-0.215985,0.337382,-0.202823,-0.420613,0.884278
-0.189889,0.664495,0.541160,-0.482502,-0.650184,0.586901
0.293268,-0.047675,0.432503,-0.274304,0.766964,0.580106
0.334832,0.028014,0.691668,-0.229626,-0.281855,0.931574
0.388300,-0.076748,0.452706,-0.027515,-0.041246,0.998770
-0.333234,0.229128,0.717931,-0.299308,0.546128,-0.782406
-0.548938,-0.287275,0.491629,-0.472212,0.692348,-0.545592
0.250697,-0.760457,0.428089,0.201603,0.137555,-0.969760
-0.131329,-0.326928,0.803996,0.330859,-0.858836,-0.391066
0.763044,0.191144,0.481305,0.224668,0.623587,-0.748775
-0.552667,0.148426,0.708430,-0.467909,0.650420,-0.598344
0.135767,-0.623559,0.544318,-0.655259,0.566007,-0.500272
0.128485,-0.095684,0.202934,0.288353,-0.884155,-0.367591
-0.008348,-0.367920,0.897443,-0.399252,-0.825790,-0.398333
-0.301855,0.065608,0.462599,0.278054,0.478463,0.832922
0.555746,-0.366862,0.714369,0.931272,0.085175,-0.354229
-0.638877,0.433306,0.556680,-0.559549,0.758487,-0.334069
0.466281,-0.157115,0.453894,0.131213,0.336089,-0.932645
0.318313,-0.226734,0.657132,-0.472270,-0.599888,0.645830
0.033985,-0.135060,-0.019036,0.608216,-0.793717,0.009318
-0.371780,-0.271903,0.724072,-0.380513,0.734748,0.561565
0.094916,-0.633418,0.740875,0.975103,0.152098,-0.161372
-0.496536,-0.116347,0.577451,-0.012177,-0.194263,0.980874
0.350466,-0.062602,0.459994,0.418060,-0.114798,0.901137
0.564926,-0.127485,0.624336,0.739891,0.287610,-0.608146
-0.081118,-0.157561,0.646416,0.712652,-0.642452,0.281749
-0.005092,-0.316737,0.864351,0.349898,0.732583,0.583861
0.106281,-0.568533,0.660722,-0.295846,-0.739948,-0.604113
-0.009949,-0.093067,0.843405,-0.688733,-0.074828,0.721143
-0.112320,-0.048566,0.873717,0.374710,-0.550926,0.745703
0.422227,0.638930,0.339542,0.916432,0.371784,0.148087
-0.242348,0.534001,0.335155,0.596798,-0.307709,0.741045
-0.742614,-0.071289,0.655620,0.932863,0.333752,0.135560
-0.119367,0.480701,0.505044,-0.347804,-0.590107,0.728564
0.268163,-0.728433,0.305100,0.862539,-0.062067,-0.502170
-0.459233,0.492176,0.523021,0.672662,0.492263,0.552452
-0.198118,-0.212588,0.883636,0.082890,0.996308,-0.022357
0.037007,0.258702,0.351432,-0.050941,-0.063842,0.996659
-0.328974,-0.318630,0.707728,-0.257399,0.902782,-0.344573
-0.100481,-0.090782,0.213339,0.039314,0.899700,0.434735
-0.083427,-0.250905,0.847831,-0.249474,0.855823,0.453133
0.444254,-0.361627,0.734113,-0.171089,0.978864,0.112044
-0.513471,0.870120,0.387857,0.558936,0.370326,-0.741923
-0.472912,0.160679,0.426767,0.480022,0.065049,0.874841
0.297056,0.467837,0.571890,-0.440246,0.889564,0.121897
0.096632,0.600780,0.653839,-0.097500,0.987334,-0.125159
-0.308190,0.654023,0.348044,-0.804435,0.291212,-0.517765
-0.822192,-0.231078,0.549068,0.837076,0.506383,0.207075
0.324236,0.056530,0.706932,-0.297403,0.854901,-0.425084
-0.381256,0.694070,0.493977,0.230236,0.962284,-0.144919
-0.299661,0.411584,0.509849,-0.443053,0.822625,-0.356360
0.608444,-0.238486,0.594699,0.169839,0.974463,0.146891
0.363848,0.104037,0.511090,0.056566,-0.427453,0.902266
-0.135948,-0.163965,0.911304,0.967202,-0.187922,-0.170895
-0.142106,0.225786,0.364631,0.148833,-0.104642,0.983310
-0.275918,0.129602,0.682599,-0.725609,0.641358,-0.249301
-0.325775,0.440045,0.338570,-0.339702,0.415663,-0.843698
-0.608325,-0.395267,0.452747,0.004519,-0.871116,0.491056
0.448814,-0.314954,0.691452,0.937952,0.141741,-0.316475
0.192849,-0.042607,0.433731,-0.242840,-0.948104,-0.205248
-0.834093,0.305430,0.489294,-0.148112,-0.966888,-0.207822
-0.174671,-0.373767,0.826521,0.187499,0.944166,0.270914
-0.494169,-0.143358,0.581918,-0.796738,-0.061463,-0.601191
0.177689,-0.025508,0.643069,0.046025,-0.651465,0.757282
-0.164664,-0.110386,-0.238766,-0.551948,-0.377736,-0.743417
-0.029074,-0.069953,-0.103090,0.997602,0.051800,-0.045909
-0.037303,0.180896,0.099716,0.781382,0.399202,0.479667
-0.621411,0.094681,0.698538,0.611658,-0.597635,0.518369
0.161820,-0.431803,0.462936,0.018951,0.444538,0.895560
-0.523062,0.058257,0.535046,-0.304980,-0.314631,0.898885
-0.236071,-0.385186,0.806722,0.882122,0.445012,0.154352
0.278050,-0.074297,0.801459,0.860423,-0.375639,0.344336
0.692818,0.646560,0.453111,0.820401,0.134634,-0.555712
-0.419506,-0.316179,0.726070,-0.334361,0.933339,0.130695
0.082657,-0.223392,0.629276,0.746665,-0.350876,0.565135
0.455208,-0.157338,0.450709,-0.295339,-0.451097,0.842191
-0.693826,0.518964,0.429965,0.482790,-0.871923,0.081632
0.024633,-0.456196,0.764061,-0.228117,-0.927821,-0.295145
-0.637872,-0.195100,0.602999,0.763942,-0.587927,0.265959
-0.165195,0.370092,0.508917,0.639284,0.260892,0.723362
0.061754,0.228739,0.778839,0.959434,-0.129929,0.250208
-0.431760,0.247452,0.715664,0.227982,-0.968622,0.098967
-0.504946,0.157951,0.501940,0.530039,-0.789921,-0.308356
0.096097,0.179671,0.762064,-0.701767,0.649172,-0.293427
-0.695366,0.207464,0.557153,0.205590,0.899752,-0.384940
0.367516,-0.231580,0.658832,0.885574,0.357299,-0.296809
0.073362,-0.205959,0.820799,-0.630917,0.410115,0.658596
0.540647,-0.358787,0.370394,-0.489201,-0.802246,0.342176
-0.633489,0.073963,0.653150,0.054851,-0.990200,-0.128436
0.738115,0.249011,0.345979,-0.648665,-0.157577,0.744582
-0.271480,0.276858,0.484503,0.029741,-0.518823,0.854364
-0.242406,-0.431468,0.456931,0.946464,0.217022,-0.238972
0.153887,-0.148483,0.269956,0.269686,0.153158,-0.950690
0.085736,-0.061653,0.481655,-0.343276,0.840358,-0.419477
0.219433,-0.384572,0.532590,-0.164250,0.783788,0.598915
0.566819,-0.169702,0.612541,-0.544253,-0.223138,0.808702
-0.635978,0.197438,0.462437,0.971530,0.235664,0.024342
-0.734739,-0.041604,0.376764,-0.644404,0.601188,-0.472564
0.019540,0.566249,0.680345,-0.384197,-0.888040,0.252543
-0.559360,0.126371,0.670331,0.343917,-0.509679,0.788637
0.005269,-0.175717,-0.197630,0.939826,-0.339989,-0.033684
0.161643,-0.010026,0.384861,0.553730,-0.701876,-0.448055
0.132453,-0.676413,0.302319,-0.107619,-0.697732,0.708229
-0.130025,0.136173,0.784697,0.363655,0.652865,-0.664472
0.194269,0.411083,0.587519,0.410385,-0.903403,0.124286
-0.447571,-0.262378,0.478632,0.714252,0.250647,0.653468
0.823970,0.551545,0.133321,0.297302,-0.540715,0.786917
0.289655,-0.690783,0.502304,-0.369116,0.374898,0.850415
-0.182545,-0.070677,0.813227,0.751629,0.460590,0.472135
-0.278112,-0.120914,0.675095,0.077202,0.026071,0.996675
0.224821,-0.296854,0.265610,0.447078,0.502534,-0.739987
0.261296,0.475689,0.600124,-0.575361,0.759490,0.303537
-0.156077,-0.314675,-0.976881,0.308700,0.022355,-0.950897
-0.142283,-0.375049,0.789596,0.591980,0.754878,-0.282346
0.134408,-0.139293,0.772064,-0.489504,0.853330,0.179485
-0.386348,0.067557,0.512521,0.458734,-0.018898,0.888373
0.042987,0.512727,0.503087,-0.340403,0.522362,-0.781834
-0.634735,-0.190533,0.616198,0.857063,-0.504741,-0.103346
0.274024,-0.520858,0.603458,0.211949,0.870712,0.443777
0.301320,-0.550432,0.607048,-0.222837,0.960091,0.169025
0.774409,0.597883,0.402163,0.846548,-0.202224,0.492405
-0.108948,-0.201281,0.888225,0.159011,-0.733082,0.661292
-0.097225,-0.049958,0.854175,0.165264,0.204708,0.964771
0.208125,0.287163,0.710171,0.894022,0.053242,0.444847
0.008764,-0.314675,0.378964,0.807104,0.196207,0.556854
0.142695,0.360067,0.597654,-0.773860,0.623032,0.113894
0.192491,-0.364746,0.238348,0.646004,0.311680,0.696803
-0.070518,0.072180,0.803362,-0.693772,-0.135759,0.707284
-0.082184,-0.516681,0.797208,-0.203032,-0.966702,-0.155772
-0.564687,-0.019995,0.609355,0.122437,0.307887,-0.943512
-0.401266,0.367863,0.509093,0.536965,-0.087946,0.839008
-0.433538,0.776051,0.538919,-0.306936,0.862623,-0.402085
0.001482,0.053300,0.504234,0.746292,0.366657,-0.555527
-0.242110,-0.513562,0.612352,0.991615,0.078270,-0.102831
0.247556,-0.320245,0.695758,0.513818,-0.837600,-0.185520
0.352479,0.328265,0.352349,0.475763,-0.878857,0.035484
-0.035705,-0.303704,0.883124,0.599529,0.713134,0.363326
0.178162,-0.050961,0.819152,-0.604157,-0.373119,0.704114
0.213452,-0.033250,0.896350,0.412864,-0.900427,0.137020
0.244773,-0.071457,0.778785,0.803658,-0.218141,-0.553667
0.283023,0.524867,0.622082,0.592487,-0.660022,0.461878
0.061223,0.013367,0.512980,0.144089,-0.714859,0.684262
-0.393392,0.397215,0.428400,-0.378207,-0.718241,0.584028
-0.140270,-0.392593,0.740268,-0.265094,0.915128,0.303754
0.166619,-0.505097,0.769959,0.766988,0.528186,0.364346
-0.012847,-0.256641,0.790392,0.605119,0.746146,0.277663
0.408371,0.349874,0.395699,-0.412078,-0.095118,0.906170
-0.382026,-0.297466,0.803713,-0.006947,0.999975,-0.001513
0.730002,0.623169,0.415660,-0.550301,0.086656,-0.830458
0.569363,-0.118297,0.631044,-0.611037,-0.677145,0.410010
0.570133,-0.138402,0.445189,0.564118,-0.819120,-0.103991
0.035586,-0.185464,0.048566,0.987450,-0.045811,0.151141
-0.561254,0.094959,0.544385,0.091015,-0.759632,0.643954
-0.349873,-0.323476,0.651720,0.135551,0.755908,0.640492
-0.230506,-0.506544,0.497189,0.299423,-0.169534,0.938938
-0.085024,-0.378503,0.760444,0.047923,0.876704,0.478637
0.265380,-0.523531,0.637589,0.755234,-0.260129,0.601626
-0.582926,0.021554,0.665918,-0.596772,0.608210,-0.523396
-0.040324,0.061933,0.822081,0.974843,0.049084,-0.217419
0.012790,-0.337622,0.890223,-0.493364,-0.710333,-0.502015
-0.152228,-0.014870,0.884082,0.884041,0.441322,-0.153972
0.099946,-0.155445,0.753521,0.940939,-0.337912,0.021180
0.160342,0.506824,0.619154,-0.117588,0.248753,0.961403
0.017824,-0.209356,0.856010,0.498993,-0.838732,-0.218022
-0.045354,-0.045391,-0.089067,0.991817,0.090064,-0.090488
-0.165434,-0.181453,-0.181138,-0.792051,0.604834,0.082650
0.276688,-0.062490,0.654351,0.247774,-0.632596,0.733778
-0.483154,0.702032,0.322253,-0.457941,0.576919,-0.676354
-0.285274,-0.063437,0.581621,-0.509937,-0.827420,-0.235245
0.134882,-0.650237,0.701480,0.076093,0.924621,0.373210
-0.449819,-0.292899,0.318096,-0.214330,-0.405456,-0.888633
-0.546867,0.055025,0.351742,-0.399252,-0.442811,0.802818
0.436733,0.095294,0.725381,-0.091613,-0.603493,0.792088
0.849784,0.248622,0.378059,0.892357,-0.332370,-0.305335
0.105277,-0.719966,0.614902,0.982224,0.082787,-0.168468
-0.052282,0.036870,0.335790,0.939444,-0.305972,0.154355
-0.095150,-0.223559,0.834673,-0.281825,0.878000,0.386900
0.471550,-0.294459,0.713707,0.238365,0.017384,-0.971020
-0.454141,0.089558,0.656592,-0.415514,0.895632,-0.158719
0.248861,-0.161237,0.359354,0.226972,0.175111,-0.958029
-0.336194,-0.025954,0.308824,0.559601,0.766854,-0.314295
0.174375,-0.075188,0.815954,0.889214,0.290140,-0.353719
0.156966,-0.436258,0.815657,0.914715,0.402159,-0.039549
0.708213,0.764523,0.569717,-0.186444,0.940730,0.283311
0.650366,-0.470844,0.589098,-0.611427,0.513221,0.602297
-0.205165,-0.412810,-0.984048,0.309132,0.056590,-0.949334
0.179051,-0.044222,0.811756,0.457591,0.706429,-0.539971
0.143823,-0.223058,0.627913,-0.170024,-0.626117,0.760966
-0.089704,-0.227235,0.795588,0.603852,-0.337265,-0.722229
-0.100539,-0.480201,0.804226,0.986646,-0.004417,-0.162817
0.100539,-0.638430,0.312684,-0.308160,0.741727,-0.595717
-0.026291,-0.225898,0.804010,0.912109,0.203250,-0.356015
0.579074,0.139627,0.463598,-0.628334,-0.023442,0.777590
0.832495,0.237538,0.479564,0.078344,-0.763359,0.641207
0.159395,-0.565859,0.334035,0.399219,-0.772645,-0.493603
0.134882,-0.545531,-0.965585,-0.304516,-0.102806,0.946943
0.007344,-0.202617,0.732629,0.940126,-0.337544,-0.047194
-0.139381,0.540129,0.528527,-0.022119,-0.633667,0.773290
-0.794484,0.477472,0.441518,-0.773582,-0.354533,-0.525240
-0.043934,0.090671,0.642151,0.325009,0.421983,-0.846345
0.147017,-0.280144,0.708444,0.897627,0.293912,0.328453
-0.630055,0.001838,0.499875,0.818696,-0.478613,0.317279
-0.591155,0.267335,0.427185,0.435268,0.703464,0.561855
0.202379,0.422780,0.754897,0.951055,-0.143247,0.273814
-0.866304,0.387802,0.514748,0.667242,-0.655348,0.353988
-0.495709,-0.303870,0.756490,0.897178,-0.089463,0.432513
0.312809,-0.784573,0.520673,-0.210820,0.786772,0.580125
-0.507609,0.874631,0.391893,0.210913,-0.532838,0.819512
0.127065,-0.675912,0.588936,0.026748,-0.279040,0.959907
0.388835,0.726873,0.392001,-0.158868,-0.973881,-0.162226
0.598141,-0.076079,0.433353,0.098482,0.411954,0.905867
-0.139619,0.463715,0.495772,-0.356715,-0.507879,0.784100
0.051216,-0.242886,0.698929,-0.071678,-0.061974,0.995501
0.440405,-0.942523,0.450844,-0.169959,0.491212,0.854298
-0.621292,0.215762,0.461708,0.855992,0.202961,0.475484
-0.251586,-0.042106,0.747785,0.315397,0.901154,0.297398
0.297533,0.381899,0.670736,-0.023439,-0.997653,0.064334
-0.100954,-0.507826,0.569529,0.981691,0.138443,-0.130827
-0.379894,-0.330215,0.098650,0.155922,-0.243602,0.957260
-0.227369,-0.191646,0.757907,0.996597,0.078031,-0.026545
-0.274321,-0.269061,0.785453,-0.222391,-0.921137,-0.319452
-0.135236,0.098469,0.264395,0.897911,0.246004,-0.365017
0.019895,-0.192314,0.147371,0.958215,0.278208,-0.066511
0.087807,-0.002507,0.703491,0.757367,0.617706,-0.211741
0.096452,0.183235,0.643514,-0.233281,0.577038,-0.782692
0.017347,-0.191034,0.961928,0.990772,-0.080676,0.108918
-0.471018,-0.451463,0.479186,-0.731860,-0.420301,-0.536403
0.063294,-0.046338,0.738176,0.965100,0.138383,0.222331
-0.356920,-0.001783,0.774264,-0.493978,0.422787,-0.759761
0.002309,-0.455918,-0.034584,0.994734,0.084572,0.057889
0.678077,0.199778,0.476054,-0.559637,-0.192112,0.806163
0.155188,-0.802451,0.395928,0.942425,0.331564,0.043590
0.141275,0.338012,0.672058,0.502766,-0.666124,0.550912
-0.385221,-0.129045,0.573766,0.434702,-0.279058,0.856248
0.100185,0.691117,0.403648,0.243943,0.897380,0.367696
0.573035,0.444221,0.434163,0.359995,-0.021833,-0.932699
0.195335,-0.006628,-0.955989,0.259964,-0.051549,-0.964241
0.442834,-0.966250,0.459252,-0.332068,0.337204,0.880923
0.301913,0.467000,0.600313,0.011233,-0.985265,0.170663
-0.284801,-0.103258,0.123914,0.010401,-0.823333,0.567463
-0.486768,-0.274520,0.482587,-0.577751,0.273587,-0.768995
-0.100835,0.486161,0.264206,0.186127,-0.558324,0.808475
0.059210,-0.169702,0.662112,0.887557,-0.454514,0.075231
-0.459530,0.040101,0.496123,0.872357,0.387746,-0.297735
0.726214,-0.566249,0.376710,0.803575,0.260958,0.534946
0.019598,-0.389585,0.561255,-0.287946,-0.102208,0.952177
-0.204276,0.365079,0.425120,-0.024943,-0.748014,0.663214
-0.488484,-0.442329,0.480508,-0.514091,0.060970,0.855566
0.203860,-0.466110,0.773482,0.682737,0.699272,0.211869
-0.623127,0.043386,0.635362,0.333538,0.650394,-0.682452
-0.179170,-0.464328,0.528338,0.918878,-0.364466,-0.151091
0.236248,0.612754,0.689387,-0.377142,-0.646227,-0.663441
0.294985,-0.526428,0.608141,-0.738971,0.642065,-0.204143
0.325599,0.583849,0.640882,-0.056957,-0.784640,0.617330
0.172123,-0.618046,0.700549,0.792069,0.451345,0.410992
-0.714610,0.353216,0.494166,0.368577,-0.685454,0.627937
-0.633373,-0.135785,0.585994,0.496224,-0.868041,0.016299
-0.021199,0.456085,0.246459,0.023944,-0.502284,0.864371
0.363432,-0.090782,0.453057,0.192330,0.415846,-0.888865
-0.111258,-0.351881,-0.971078,-0.324725,-0.120996,0.938037
0.498314,-0.266277,0.719807,0.309594,0.806892,-0.503068
-0.324294,-0.511111,-0.994089,-0.221245,-0.201452,0.954184
0.025164,-0.164188,0.873501,0.870821,0.485270,0.078633
-0.652259,0.000891,0.626010,-0.748122,0.591588,-0.300561
0.300196,-0.397661,0.241411,0.511446,0.729407,-0.454300
-0.334243,0.339906,0.499902,-0.590332,0.449930,-0.670127
-0.386464,-0.255917,0.749917,0.065977,0.936695,0.343873
0.055716,0.279644,0.662813,-0.271538,0.879233,-0.391429
-0.293211,-0.311056,0.673502,0.832600,-0.500324,0.237599
-0.042868,0.133834,0.770040,0.858724,-0.268690,0.436347
-0.059626,-0.108160,0.955881,0.406079,0.861036,0.306134
0.060334,-0.128153,0.857792,0.426941,-0.809489,-0.403050
-0.329978,-0.005403,-0.270954,0.152651,0.012191,0.988205
0.318017,-0.044890,-0.950159,-0.452856,0.225366,0.862630
-0.572562,-0.015985,0.636510,-0.143136,-0.923438,0.356054
-0.254665,-0.500752,0.495435,-0.728521,0.539850,0.421686
-0.379359,0.101364,0.186469,0.752899,-0.054810,-0.655849
-0.817635,-0.298581,0.552834,0.961714,0.224357,0.157387
-0.413821,0.090615,0.201098,-0.458820,0.340419,0.820731
-0.119071,-0.101477,0.582863,0.267102,0.956357,-0.118483
-0.457874,0.363409,0.525707,0.475115,-0.679005,0.559659
-0.470071,-0.021832,0.633257,-0.102684,-0.900639,0.422263
-0.156020,-0.649903,-0.985343,-0.283446,0.002193,0.958986
-0.223932,-0.060875,0.556073,0.466722,-0.262876,0.844433
0.053171,-0.164077,-0.033545,-0.545329,0.837423,0.036592
-0.483334,0.206349,0.712263,0.078097,0.976355,-0.201573
0.075610,-0.199442,0.848506,0.078954,-0.068021,0.994555
0.381610,0.488164,0.389423,0.719379,-0.646392,-0.254306
-0.155073,-0.549652,0.740457,0.971622,-0.231710,-0.047559
-0.636567,0.046672,0.698281,0.915265,-0.070431,0.396647
0.487834,-0.622111,0.599760,-0.749334,-0.051142,0.660215
0.469063,0.390867,0.122835,0.445391,-0.232514,-0.864618
-0.039435,0.065497,0.861152,0.368972,0.914247,0.167368
-0.350997,0.447731,0.222220,-0.332943,-0.731435,0.595107
-0.254307,-0.158062,0.789137,-0.765832,0.490922,-0.415328
0.174967,0.451239,0.653596,0.782517,-0.472830,-0.405092
0.553972,-0.159009,0.586682,0.755733,0.309272,0.577251
-0.187872,-0.243442,0.706190,-0.029777,0.990721,0.132607
-0.396590,0.233528,0.672679,0.510911,-0.858879,-0.036013
0.295223,-0.768422,0.509808,-0.588356,0.198947,0.783745
0.032742,-0.399665,0.312198,0.476737,0.202095,0.855499
-0.194092,-0.428349,0.533980,0.977703,-0.176061,0.114449
0.002190,-0.386744,0.787814,-0.664199,0.544711,0.511986
-0.116646,-0.091284,0.594996,0.190002,0.909353,-0.370104
0.415184,0.114118,-0.909630,-0.122230,0.966210,0.226930
-0.270945,0.604789,0.473180,-0.510970,-0.574007,0.639864
0.380898,-0.297801,0.671370,0.674198,0.735923,-0.062249
0.405946,-0.460651,0.663178,0.917069,-0.262334,-0.300274
0.267274,0.129323,0.370029,-0.795428,0.386510,0.466802
-0.611285,0.049067,0.478902,0.958090,-0.158604,-0.238556
-0.038961,-0.228238,-0.272237,-0.609459,0.792380,0.026343
0.079459,-0.266221,0.705880,-0.144609,0.831446,0.536456
-0.202617,-0.117404,0.775425,0.930556,-0.254914,-0.262840
-0.392860,-0.094459,0.194553,0.294162,0.515811,-0.804617
-0.265260,-0.233195,0.679900,0.828998,0.083085,0.553046
-0.735686,-0.095239,0.661315,0.911575,0.370372,0.178480
-0.427792,0.174881,0.355750,0.424057,0.204010,-0.882358
-0.058025,-0.181230,0.894501,-0.053780,-0.199667,0.978387
-0.283027,-0.245447,0.887173,-0.175913,0.965713,0.190928
-0.229855,0.457589,0.331579,-0.041231,0.543646,0.838301
-0.334655,-0.564022,0.473517,0.453379,0.869355,-0.196647
-0.401328,-0.289000,0.763656,0.277568,0.905195,0.321835
-0.396590,-0.315455,0.762199,-0.205570,-0.964980,0.162954
0.716739,-0.573880,0.393850,0.930530,0.245543,0.271701
0.255727,-0.332331,0.241155,0.400877,0.391329,0.828347
0.731426,-0.516513,0.368639,0.919496,0.392879,-0.013146
-0.427677,-0.114676,0.610273,0.449324,0.811969,-0.372578
-0.153829,-0.378390,0.524371,-0.534716,-0.402580,-0.742973
0.051097,0.017097,0.649115,0.646168,0.714663,-0.267815
-0.022262,-0.113228,0.902612,-0.283202,0.189588,0.940135
-0.623543,-0.108216,0.149773,0.148633,-0.870162,0.469816
-0.553676,0.520134,0.588936,0.849733,-0.432725,0.301168
0.238323,0.165023,0.318245,-0.371406,-0.281409,0.884797
-0.298006,-0.099305,0.452666,0.623115,0.127664,0.771641
0.065723,0.465552,0.606629,0.227813,-0.899475,0.372889
-0.041209,-0.063214,0.826346,0.848276,-0.332594,-0.412079
-0.820714,-0.013199,0.528338,-0.377871,0.774320,-0.507585
-0.027296,-0.226790,-0.238901,0.892297,-0.445770,0.071383
0.213155,0.330326,0.682909,0.295989,-0.923864,0.242622
-0.450235,-0.245391,0.092927,-0.060637,-0.125079,0.990292
0.345019,-0.116402,0.454366,0.049266,-0.561498,0.826010
0.123335,0.441214,0.616427,0.906853,-0.295509,0.300487
-0.870922,0.290782,0.498998,0.976174,0.215666,0.023948
0.742614,0.676024,0.422759,-0.606917,-0.223206,-0.762779
0.401505,-0.292566,0.294667,0.407884,0.508848,-0.758093
-0.505300,-0.041047,0.602392,0.362624,0.786315,-0.500212
-0.056131,-0.480312,0.468240,0.177059,0.249395,0.952078
-0.131803,0.321248,0.509862,0.335433,-0.313575,0.888344
0.035051,-0.188862,0.649466,0.605890,-0.766631,-0.212542
0.221742,0.251852,0.648872,0.250263,-0.825361,0.506111
-0.976256,0.091283,0.597168,0.971355,-0.051525,0.231981
0.140682,-0.541298,0.790824,0.822018,0.528250,0.212694
0.399669,-0.504428,0.577437,0.809790,-0.238039,-0.536263
0.007933,-0.196047,0.542752,0.739941,0.094310,0.666028
0.238380,-0.100919,-0.945098,-0.608552,0.605520,0.512845
-0.093907,-0.190587,0.928673,0.740152,-0.033634,-0.671597
-0.118659,-0.077749,0.923734,-0.052957,-0.876826,0.477882
-0.013975,-0.131719,0.969701,0.297264,0.949923,-0.096336
0.102494,0.186522,0.776221,0.692255,-0.470815,0.546915
-0.298006,-0.296908,0.703842,0.953428,-0.257166,0.157609
0.200723,-0.479699,0.602850,0.777293,0.609085,0.157579
0.074902,0.434754,0.730550,0.299311,-0.693860,0.654959
0.441529,-0.261654,0.575615,-0.279903,-0.514547,0.810491
0.081945,0.015372,-0.145630,0.853507,-0.144112,0.500758
0.182072,0.420106,0.575642,0.147474,0.947873,-0.282468
0.149446,-0.508827,0.568260,0.274904,0.443682,0.852979
-0.416250,0.226566,0.661356,-0.624166,0.755579,-0.198790
-0.295223,0.000668,0.827776,0.844102,-0.152289,0.514101
-0.374979,-0.432304,0.671303,-0.244949,0.728191,0.640108
-0.163598,-0.204623,0.845146,-0.370786,0.921959,-0.111844
0.250754,0.476804,0.612554,0.129009,0.886735,-0.443912
0.045235,-0.365526,0.710306,-0.774827,-0.369554,0.512906
-0.088873,-0.078419,0.861327,-0.141066,-0.280283,0.949496
-0.602998,0.579894,0.341093,0.470353,0.690569,0.549438
0.255138,0.347814,0.553333,0.406675,-0.524616,0.747926
-0.069336,-0.501754,0.565439,0.405010,0.396412,0.823908
-0.677781,-0.219215,0.600435,-0.682379,0.662391,0.309187
-0.809522,-0.281761,0.567949,0.913246,0.276872,0.298870
0.717212,-0.066389,0.659116,0.904321,-0.424387,0.045810
0.107290,0.340963,0.673044,-0.059114,0.912038,-0.405823
0.299723,0.339793,0.544777,0.120859,-0.447562,0.886048
-0.063475,0.779894,0.298878,-0.443042,0.646165,-0.621438
0.097164,-0.356614,-0.962130,-0.129328,-0.242088,0.961596
-0.023212,-0.043664,0.861071,-0.527397,0.675694,-0.515063
-0.243118,0.787079,0.604186,0.092679,-0.788384,0.608162
-0.204037,0.583737,0.534358,-0.280352,-0.732136,0.620789
-0.371072,-0.296798,0.815886,-0.291631,0.944446,-0.151570
-0.116881,-0.493457,0.516367,-0.775308,0.609396,-0.165936
0.397833,0.376330,0.415848,0.903038,-0.029033,-0.428579
-0.023624,0.388695,0.680507,0.493396,0.394519,-0.775187
0.105335,0.176664,0.502480,0.693616,-0.702776,-0.158120
0.379062,-0.196548,0.587114,0.716803,0.391423,-0.577045
0.154715,0.112559,0.681762,0.922141,0.386104,-0.024068
-0.268578,-0.182177,0.552766,0.382520,-0.268248,0.884150
-0.066080,-0.296018,0.753561,0.909833,-0.359581,0.207136
-0.561785,-0.294459,0.780486,-0.468574,0.574801,-0.670852
-0.121145,0.013589,0.787369,-0.083338,0.345580,0.934681
0.118597,-0.583403,0.684961,-0.271368,0.594696,0.756767
-0.307124,0.021331,0.483855,0.051536,0.984880,0.165395
0.622596,0.606293,0.454447,-0.656893,0.753927,-0.009255
-0.331934,-0.395489,0.441869,-0.546367,-0.607131,0.576953
-0.201374,0.352269,0.424297,0.103862,0.733214,-0.672019
-0.129139,-0.336062,-0.974411,0.356989,0.054463,-0.932520
0.175972,-0.505041,0.650923,-0.696397,-0.711945,0.090358
-0.974601,0.071456,0.587006,0.954065,-0.077030,0.289527
-0.017824,-0.163409,-0.079418,0.976894,0.129979,-0.169660
0.091421,-0.089725,0.727365,0.771271,-0.542513,0.332896
-0.102848,0.137232,0.793483,-0.568566,-0.616139,0.545074
-0.293091,0.046282,0.500820,-0.665208,-0.519156,-0.536633
0.136598,0.221163,0.746246,0.799807,-0.557508,0.222471
-0.161054,-0.019828,0.745828,-0.121016,0.568487,0.813743
-0.037422,-0.108716,0.871598,0.689078,0.492468,0.531646
0.501805,0.261153,0.422286,0.705133,-0.492387,-0.510238
0.041683,-0.005180,0.505355,-0.689454,0.609957,-0.390647
0.062644,-0.518463,0.318555,0.019330,0.399219,0.916652
-0.605958,0.285992,0.458483,-0.844782,0.061973,-0.531510
-0.449049,0.158452,0.677551,-0.331087,0.905935,-0.263938
-0.279116,0.004734,0.433960,-0.621268,-0.361746,0.695101
0.751201,0.714899,0.567167,0.521961,0.322053,0.789835
0.187045,-0.814871,0.481871,0.871716,-0.004132,-0.489994
0.365326,-0.730271,0.536571,0.972773,-0.166437,-0.161282
0.530406,-0.627013,0.609787,-0.750745,0.441670,0.491233
0.334893,-0.911836,0.544480,-0.154467,0.726484,0.669597
-0.376280,0.050849,0.679508,0.216859,0.975726,0.030512
0.312393,0.311613,0.374753,0.565713,0.379128,-0.732278
0.003495,-0.116959,0.811527,0.502289,-0.830857,-0.239548
0.204099,-0.190420,0.353092,-0.262180,0.382589,0.885939
0.121854,0.258257,0.733708,-0.166291,-0.816076,-0.553505
0.237668,-0.585296,0.624984,0.871067,-0.328920,0.364766
0.448045,-0.960569,0.454339,-0.312380,0.415136,0.854448
-0.207886,0.833806,0.586304,-0.369451,0.927325,-0.059784
0.068682,-0.122918,0.051737,0.826080,-0.511038,0.237554
0.451359,-0.297911,0.700063,0.971785,0.109785,-0.208760
-0.255019,0.395544,0.208440,0.417979,0.581493,-0.697968
-0.092545,0.491227,0.509984,0.288737,0.698325,-0.654960
-0.022619,-0.283263,0.375698,0.875101,0.463265,0.139941
-0.422523,-0.249958,0.746800,0.155510,0.824630,0.543877
0.892237,0.217210,0.378910,0.906326,-0.419913,-0.047393
0.125526,-0.106377,0.212989,0.447639,-0.891772,0.066055
0.450650,0.728933,0.322928,0.859737,0.448956,0.243498
0.138611,-0.745419,0.357977,-0.563028,-0.283179,-0.776408
0.092899,0.336620,0.781080,0.851148,-0.400498,0.339336
0.019895,-0.162294,0.598977,0.450818,-0.176021,0.875088
-0.357513,0.137344,0.717446,-0.623821,0.367345,-0.689858
-0.211912,-0.431079,0.622946,0.832166,0.066775,0.550492
-0.805912,0.483932,0.447254,0.962739,-0.222376,0.153890
0.266269,-0.017878,0.682828,0.091994,0.986918,-0.132403
0.097518,-0.480145,0.572916,0.636803,-0.328691,-0.697456
0.476819,-0.270565,0.409411,0.117098,0.971523,-0.205986
-0.001836,-0.190365,0.777692,-0.037440,-0.888083,0.458156
-0.180829,0.074074,0.692330,0.777490,0.474285,0.412994
0.467762,-0.249178,0.678347,0.754922,0.052313,-0.653725
0.121380,0.135505,0.607048,0.982741,-0.069612,0.171387
-0.312809,0.141075,0.797599,-0.798696,0.571720,0.187671
0.248919,0.305652,0.373525,-0.295840,-0.554792,0.777614
-0.180355,-0.061042,0.918241,0.934398,0.298230,-0.194832
-0.397360,0.640156,0.516786,-0.499793,0.745016,-0.441767
-0.158386,-0.227959,0.906958,-0.132433,0.863063,0.487426
0.005920,-0.108549,0.168627,0.876271,0.473553,-0.088862
-0.226361,-0.208632,0.761551,0.817468,0.119301,0.563483
-0.115815,0.487218,0.504788,0.407869,0.723085,-0.557486
0.000947,0.343693,0.662746,0.016412,-0.567669,0.823093
-0.012732,-0.034977,0.870788,-0.559554,-0.645873,0.519372
0.066196,-0.602173,0.331673,-0.265114,0.743046,0.614489
0.133639,0.304984,0.669184,-0.217754,0.849573,-0.480425
-0.548229,0.081704,0.671316,0.203496,-0.486545,0.849625
0.002544,-0.165526,0.967758,0.947162,0.278845,0.158523
-0.177869,0.211807,0.341728,0.871980,-0.485714,0.061092
-0.046659,-0.226455,-0.726070,0.043133,0.998174,0.042278
0.192668,-0.879978,0.360042,0.901907,0.344521,0.260516
-0.763043,0.005570,0.369031,-0.430008,-0.880744,-0.198453
-0.042395,-0.138290,0.936447,-0.655778,-0.601440,-0.456317
-0.504707,0.039042,0.143808,0.175567,-0.844368,0.506181
0.456039,-0.269061,0.712816,-0.595125,0.621432,0.509557
-0.501867,0.783681,0.386508,0.978816,0.076135,0.190060
-0.315056,0.045280,0.568854,0.458244,-0.814653,-0.355461
0.758186,-0.521470,0.371622,0.762038,0.440244,0.474851
0.297945,0.044778,0.727325,-0.650703,0.758521,-0.035104
-0.333234,0.702032,0.518446,-0.384699,0.786165,-0.483685
0.076796,0.109384,0.601312,0.960182,-0.215190,0.178170
0.186452,-0.419660,0.747312,0.920970,-0.389223,-0.017862
-0.132807,0.724701,0.565075,0.840331,-0.149688,0.520996
0.034578,-0.180061,0.762900,-0.542011,0.838202,-0.060347
-0.824563,-0.291896,0.566654,0.923954,0.251339,0.288336
0.301616,0.372264,0.385887,-0.132940,-0.209151,0.968805
-0.112143,0.539182,0.516840,0.012907,-0.703419,0.710658
-0.634793,0.036202,0.669629,-0.684400,0.715094,-0.142261
0.309846,0.673908,0.427833,0.372570,0.699534,0.609789
0.234947,-0.240602,0.404593,0.619554,0.334201,-0.710255
0.131626,-0.408968,0.461533,0.050523,0.392023,0.918567
0.207767,-0.069841,0.889588,0.335966,-0.853881,0.397510
-0.153710,-0.317850,0.793537,-0.223317,-0.022602,0.974484
-0.769140,0.146923,0.586466,0.426679,-0.727033,0.537930
0.403221,-0.183292,0.594672,0.711029,0.047984,-0.701523
0.188762,0.126371,0.298594,-0.743614,-0.095320,0.661780
0.248149,0.056698,0.779811,0.882830,-0.149311,-0.445328
0.059033,-0.033696,0.838114,0.651091,0.757009,0.054934
-0.015395,-0.195377,-0.502642,-0.540809,0.841021,0.014493
-0.113802,0.183849,0.793118,0.500067,0.726743,-0.470932
-0.294808,0.278474,0.715718,-0.520608,0.698430,-0.491083
0.188111,0.260540,0.307529,0.503116,0.222915,-0.834975
-0.209426,-0.486327,0.213191,0.192015,0.373599,0.907499
-0.124340,-0.420551,0.485880,-0.544653,-0.010674,-0.838593
-0.539404,0.023281,0.641260,-0.578507,0.607714,-0.544071
-0.254842,0.655862,0.302994,0.345836,-0.569556,0.745656
0.001124,0.543581,0.660748,-0.876903,0.479050,0.039401
0.449938,0.276358,0.126290,0.002172,-0.289396,0.957207
0.095743,-0.360235,0.717203,0.181616,0.962102,0.203408
0.209545,-0.082986,0.657874,0.171256,-0.533324,0.828394
0.004561,-0.188304,-0.309999,-0.394990,0.917879,0.038481
-0.347032,-0.260763,0.807694,-0.291631,0.944446,-0.151570
-0.365030,0.034252,0.205728,0.286089,-0.008919,-0.958161
-0.349815,-0.502980,0.559069,-0.273154,0.446767,0.851931
0.121380,0.345977,0.786154,0.787447,-0.570435,0.233518
0.608679,0.562071,0.405861,-0.191620,0.789018,0.583723
-0.806027,-0.370370,0.535113,-0.714361,0.300595,-0.631927
0.127303,-0.026120,0.297056,0.158259,-0.426778,0.890401
-0.143526,-0.346867,0.745612,-0.172512,0.938019,0.300600
0.749484,-0.533111,0.375657,0.762038,0.440244,0.474851
0.242287,-0.247453,0.403810,-0.591474,-0.333440,0.734150
-0.488838,-0.451517,0.480522,-0.715543,-0.025623,0.698099
0.037538,-0.511223,0.653137,-0.487357,0.833866,-0.259133
0.072889,-0.586411,0.688847,-0.319044,0.423117,0.848046
-0.207948,-0.222835,0.847737,0.042066,-0.957855,0.284156
-0.557701,0.144360,0.520335,-0.084722,0.989541,0.116750
0.392564,0.553495,0.057797,0.713037,-0.367640,-0.597008
-0.532892,-0.323309,0.689563,-0.814163,-0.225746,0.534955
-0.069098,-0.447062,0.782483,0.564509,-0.688311,-0.455586
-0.260169,-0.022891,0.495286,0.586307,0.606770,0.536725
-0.454026,0.383013,0.526921,-0.416062,0.676772,-0.607348
0.080764,-0.095963,0.787841,-0.577031,-0.050847,0.815138
0.011666,-0.109051,0.762199,0.670383,0.577277,0.466194
-0.211204,0.305708,-0.019387,-0.673420,-0.552848,-0.490780
0.101486,-0.022947,0.857819,0.694644,0.425618,-0.579929
0.767897,0.579449,0.409222,-0.557181,0.367344,-0.744720
-0.596482,0.138736,0.701277,-0.505034,0.755854,-0.416683
0.238558,-0.252911,0.661842,-0.060892,0.636660,0.768737
0.551663,-0.264718,0.599787,0.160281,0.324992,0.932035
-0.043284,-0.664216,0.321794,0.067961,-0.965340,0.251990
-0.152290,-0.554386,0.743183,0.921622,-0.364935,-0.132045
-0.716561,-0.042551,0.507055,-0.241964,0.743908,-0.622940
0.009176,-0.363576,0.779406,0.927650,-0.370235,-0.048909
0.166558,-0.089224,0.614632,0.895578,-0.145869,-0.420311
-0.527919,0.297912,0.046406,-0.055621,0.998412,0.008933
0.033100,-0.069062,0.568638,0.319335,-0.939599,-0.123203
0.140624,0.351601,0.625861,0.926945,0.328210,0.181801
0.088758,0.565804,0.501346,0.367408,-0.548883,0.750825
-0.134882,-0.298190,-0.977286,0.349924,-0.003189,-0.936773
-0.046301,-0.109163,0.763278,0.917957,-0.353332,-0.180310
0.078573,0.434309,0.567639,0.385144,-0.792053,0.473619
-0.186572,-0.170203,0.715705,0.385875,0.552014,-0.739176
0.301262,-0.650293,0.680170,-0.238706,0.857772,0.455243
-0.261827,0.291506,0.484017,0.029741,-0.518823,0.854364
0.007344,0.587247,0.675945,0.791210,0.573341,-0.212760
0.142814,-0.186132,0.646780,0.276202,0.952631,0.127303
-0.029251,-0.183013,-0.085032,0.961414,0.256604,-0.099181
0.052224,0.232860,0.785803,0.689125,-0.525911,0.498522
-0.016165,-0.031189,0.751604,0.315954,0.678501,0.663181
-0.415715,0.193873,0.695434,-0.495000,0.749202,-0.440081
-0.625556,-0.023001,0.621610,0.295399,0.813380,0.501151
0.272366,0.048120,-0.060955,0.223979,0.385607,0.895065
-0.490320,-0.325759,0.668603,-0.557059,-0.785547,-0.269448
0.032980,-0.257979,-0.896444,-0.668539,0.738307,-0.089215
-0.804903,-0.026622,0.367208,-0.445514,0.762095,-0.469817
-0.109537,-0.076191,0.704948,-0.418338,-0.717920,0.556403
-0.226418,0.729603,0.472154,0.951532,-0.008842,0.307424
-0.514595,0.078308,0.666889,-0.018625,-0.777792,0.628246
-0.088815,-0.298691,0.315613,-0.072886,-0.221840,0.972355
0.180117,-0.409357,0.703126,-0.682420,-0.662382,0.309116
