0.007796,-0.107082,0.639759,-0.232292,-0.970396,0.066113
0.291431,-0.178219,0.567463,-0.502262,0.820391,-0.273299
0.175316,0.024234,0.078315,0.885780,-0.445159,-0.131255
0.981605,-0.411986,0.233650,0.253391,0.333487,0.908064
-0.494373,-0.070951,0.603577,0.117697,0.332550,0.935713
0.541146,0.364018,0.540271,0.801079,0.103316,0.589575
-0.286017,-0.509736,0.535790,0.112183,-0.066273,-0.991475
0.330506,0.310226,0.462325,-0.556346,0.457812,-0.693461
0.214651,-0.137265,0.937766,0.259617,-0.088103,0.961684
0.046937,-0.061243,-0.617187,0.844953,0.532459,-0.050418
-0.302847,0.405599,0.318554,0.854454,-0.356016,-0.378365
-0.083465,0.557581,0.237811,0.386815,-0.785702,-0.482749
0.309894,-0.476483,0.492551,0.157915,-0.222107,0.962149
-0.187123,-0.287871,0.491855,-0.532046,-0.519984,0.668239
0.417203,0.133382,0.575326,0.521658,0.196057,0.830322
0.079946,0.216356,0.387844,-0.337886,0.312410,0.887825
0.671874,-0.419248,0.288202,0.874345,0.431100,-0.222875
0.206107,-0.176216,0.605414,-0.411984,-0.876094,-0.250457
0.077075,0.373161,0.684709,-0.368002,-0.780111,0.505966
0.727194,-0.244284,0.412713,-0.666285,0.558373,-0.494251
0.471609,-0.136202,0.316467,-0.209746,0.398792,0.892732
-0.176032,0.113847,0.518116,-0.158148,-0.125778,0.979372
0.830328,-0.287993,0.240580,0.565942,0.110367,0.817025
0.057569,-0.970318,0.582117,-0.152450,0.240134,-0.958694
0.464040,0.697225,0.467794,0.477057,0.102628,0.872860
-0.019993,-0.124618,-0.942776,0.512811,-0.327303,-0.793661
-0.272969,-0.011835,0.292823,-0.533924,0.301017,0.790135
0.125347,-0.932930,0.570135,-0.647854,0.448344,-0.615851
0.162270,-0.383492,0.477466,-0.373021,0.410201,0.832220
0.387652,0.191936,0.736186,-0.477563,0.563974,0.673697
0.081837,0.026802,0.246592,0.543403,0.364723,-0.756102
-0.455754,-0.406161,0.667328,0.278212,-0.151128,-0.948556
0.272057,0.157679,0.307226,0.893431,-0.000040,-0.449200
-0.375386,-0.027678,0.572084,0.888279,-0.306424,0.342148
0.028866,-0.819211,0.589563,0.840546,0.536098,-0.077987
0.418572,0.668984,0.444985,-0.173609,0.586402,0.791197
0.053200,-0.659149,0.521762,-0.562730,-0.509132,-0.651244
0.172903,0.094809,-0.437011,0.060952,0.991994,0.110599
0.296454,-0.208967,0.827325,0.061948,-0.836389,0.544624
0.355817,-0.094996,0.317455,0.077053,-0.218479,0.972795
0.271470,-0.161375,0.885287,0.915469,-0.054637,0.398662
-0.761766,-0.014530,0.572724,0.865560,0.422667,0.268623
0.863401,-0.323875,0.238924,0.195822,0.578376,0.791918
0.158030,-0.763664,0.526146,0.353198,0.204637,-0.912894
0.175121,-0.481869,0.766900,-0.308618,0.717003,-0.625029
0.237028,0.209908,0.729325,0.858596,0.260937,0.441276
0.238137,0.012275,0.597384,0.873274,-0.424712,-0.238772
0.306304,0.373035,0.724914,0.072801,0.601506,0.795544
-0.000945,-0.140774,0.705055,-0.285424,0.096691,0.953511
0.212631,0.059428,0.789806,-0.603126,-0.004988,-0.797631
-0.169118,-0.519757,0.553979,0.316927,0.538756,-0.780576
-0.486088,0.008644,0.592179,0.095974,0.867027,0.488931
0.335531,-0.379173,0.790948,0.174410,-0.318476,0.931748
0.381325,0.204771,0.755697,-0.787675,0.583365,0.198125
-0.081118,0.399900,0.358912,-0.409224,0.562178,0.718673
0.500049,0.027177,0.918241,-0.695265,-0.614880,0.372195
0.083207,-0.048657,0.841227,-0.123958,0.440730,-0.889040
0.020256,0.439600,0.691612,-0.280115,-0.760510,0.585798
0.268144,0.645248,0.467919,-0.134175,-0.253452,-0.957998
-0.059787,0.254867,0.529430,-0.144604,0.111350,0.983204
0.128087,-0.411672,0.830192,0.137727,-0.031327,0.989975
0.070551,0.310226,0.411864,-0.457416,0.293740,0.839337
0.396393,0.296639,0.662513,0.784076,0.269397,-0.559151
0.150526,-0.007577,0.113384,0.917182,-0.305575,0.255737
0.100297,-0.103577,-0.373719,0.542451,0.839936,0.015969
-0.118236,0.391385,0.653063,0.805717,0.466883,-0.364473
0.257706,0.040329,0.417458,0.950572,-0.023828,-0.309587
0.239311,-0.040141,-0.005643,0.708441,0.555873,-0.434875
-0.219282,0.017595,0.667216,-0.178471,-0.309443,0.934020
0.130043,-0.627277,0.700296,-0.594952,-0.134117,-0.792493
-0.183404,-0.275032,0.779494,0.082510,-0.312994,0.946164
0.147397,-0.469283,0.697164,0.066051,0.045119,0.996796
0.158225,-0.084164,0.316272,-0.125340,0.976568,-0.174941
0.350665,-0.178471,0.834283,0.196302,0.410795,0.890345
-0.205976,-0.148100,0.544640,-0.080182,-0.882046,-0.464290
-0.333246,0.144844,0.515750,0.220163,0.075719,0.972520
-0.034540,0.406413,0.401761,0.220851,-0.887717,-0.403960
0.018039,0.025862,-0.532060,0.998626,-0.051009,0.011976
0.155290,-0.084979,0.028758,-0.494422,-0.868795,-0.027234
0.362407,-0.490576,0.310817,-0.728514,0.481310,0.487450
0.160116,-0.338028,0.892064,0.948604,0.309940,0.063934
-0.012361,-0.207527,0.802985,0.733036,0.170888,0.658373
-0.644149,0.263887,0.141635,-0.596878,-0.009361,0.802277
-0.473369,0.211849,0.480180,0.222841,0.844792,-0.486486
0.154898,-0.671239,0.699642,-0.551286,0.079855,-0.830486
-0.525425,-0.090926,0.603006,0.271130,0.239620,-0.932240
0.166053,0.036197,0.952169,0.950429,-0.250243,0.184563
0.241463,0.528900,0.374971,-0.445551,-0.076450,-0.891986
0.085880,-0.227879,0.957652,0.240454,0.423536,-0.873384
0.118302,0.548874,-0.988797,-0.148212,0.187154,0.971085
-0.268404,0.183294,0.319222,0.086197,-0.383657,0.919444
0.033694,-0.393888,0.473750,-0.669476,0.528263,0.522246
0.100363,-0.036446,-0.185555,0.930562,-0.358052,-0.076504
-0.050848,0.431272,0.652618,-0.011103,0.598045,0.801386
0.456148,-0.001191,0.919897,-0.246810,0.417690,-0.874425
-0.469455,-0.083973,0.607752,0.214173,-0.186922,0.958744
0.546105,-0.031687,0.738858,0.625932,-0.629921,0.459793
0.483740,-0.299578,0.921734,-0.147553,0.709754,0.688823
0.484328,0.403592,0.503364,0.774719,0.115091,-0.621743
0.144787,0.115911,0.794371,-0.163085,-0.617130,-0.769775
0.485697,0.498652,0.564708,-0.624136,0.409646,-0.665315
0.517010,0.494394,0.467669,-0.176601,0.017117,-0.984134
-0.130694,0.515121,0.245883,0.821643,-0.566365,-0.064291
0.189146,0.992360,0.252173,0.329513,0.446697,-0.831795
0.143025,-0.157617,0.960644,-0.337979,-0.074430,-0.938206
-0.029452,-0.080595,0.619580,-0.184557,0.898442,0.398422
-0.820086,-0.320871,0.447699,0.830808,-0.066270,-0.552600
-0.045565,-0.866303,0.590774,-0.072899,-0.127795,0.989118
0.230048,-0.006576,0.409206,0.977898,0.098634,-0.184355
0.390849,0.267266,0.264169,-0.615396,-0.047960,-0.786758
0.335595,0.366208,0.555495,-0.760431,-0.187834,0.621662
0.098340,0.105706,0.990899,0.161309,-0.891975,0.422326
0.201867,0.010394,0.170970,0.962076,-0.255221,-0.096289
0.081771,-0.005322,-0.304638,0.906094,-0.391311,-0.160838
0.893866,-0.124931,0.406283,0.738948,0.320015,0.592913
-0.657652,-0.177905,0.471997,0.281911,-0.174781,-0.943386
-0.637104,0.091614,0.599249,-0.244639,-0.189094,0.950997
0.561500,-0.293883,0.764951,0.028616,-0.076263,0.996677
0.194429,-0.261066,0.953589,-0.197593,0.319591,0.926725
0.111061,-0.081844,0.303970,-0.676737,0.685264,0.269149
0.757070,-0.645313,0.259228,0.803275,-0.510570,0.306704
-0.160964,0.299081,0.521650,0.228090,-0.028082,0.973235
0.132327,-0.477611,0.760387,-0.228492,0.787207,-0.572797
0.423856,-0.207901,0.305000,-0.024001,-0.407190,0.913028
0.175773,-0.102824,-0.352079,0.947288,-0.312136,0.072225
0.487133,-0.081909,0.717107,0.110592,-0.987297,0.114076
0.223590,0.025048,0.919758,-0.282679,-0.637263,-0.716930
0.818324,-0.608178,0.289914,-0.228814,-0.930838,0.284929
0.577221,0.044461,0.788762,0.167017,0.487418,0.857047
0.575851,-0.215916,0.901319,-0.550476,0.797589,-0.246636
0.453407,0.394075,0.483492,-0.650443,-0.642150,-0.405669
0.439187,0.408978,0.556108,0.356330,-0.144993,0.923042
0.169184,0.437972,0.395192,-0.752877,-0.120779,-0.646985
0.022669,-0.518691,0.418725,-0.568707,0.572167,-0.590929
0.389153,-0.025549,0.939408,-0.422918,0.813590,-0.399014
-0.499004,0.379674,0.497116,-0.324672,0.173977,0.929688
0.071268,0.111405,0.854406,0.693779,-0.706515,0.139668
0.068724,0.560459,0.298264,0.151926,0.698054,0.699743
0.329658,0.691526,0.437011,0.276836,-0.777246,-0.565023
0.192277,-0.276974,0.676721,0.378278,-0.883896,-0.275015
-0.260053,0.121610,0.644101,-0.700762,0.515692,0.492945
-0.003098,-0.039763,0.849522,0.072375,-0.366710,0.927516
0.160313,-0.066002,0.131211,0.807872,0.582042,-0.092573
-0.071136,-0.373222,0.451247,-0.007373,-0.388954,0.921228
-0.245899,-0.314671,0.310970,0.547571,-0.024588,-0.836398
-0.064222,-0.024861,-0.926591,0.896197,-0.441885,-0.039614
0.418377,-0.571107,0.483506,-0.047669,0.076292,0.995945
-0.382563,0.285990,0.311206,-0.058142,-0.178783,0.982169
-0.085554,0.025549,0.296441,0.360079,0.008330,0.932885
0.221502,-0.249481,0.552100,-0.612862,0.455719,-0.645539
0.343423,-0.015218,0.935094,-0.565522,-0.766574,0.304218
-0.115692,0.513806,0.249389,-0.205319,0.455414,0.866280
0.331159,0.638300,0.278711,0.281943,-0.015155,-0.959312
0.720671,0.385434,0.418725,-0.747942,-0.637141,-0.186102
0.058025,0.057486,0.962941,0.556690,0.709397,-0.432265
0.574416,-0.451372,0.730397,0.920947,0.009072,-0.389583
0.031084,0.078401,-0.770741,0.557927,-0.829539,0.024145
-0.237744,-0.189368,0.777810,0.525397,0.092669,0.845796
0.370300,-0.032123,0.883840,0.072808,0.313734,0.946715
-0.338595,-0.585948,0.523251,0.791821,0.069283,-0.606810
0.626800,-0.392700,0.762808,0.246052,0.819929,0.516890
-0.027626,-0.175903,0.227360,0.160408,0.314256,-0.935688
0.148245,-0.063124,-0.302578,0.872849,0.159995,0.461016
0.232853,0.730978,0.482267,0.262049,0.167527,0.950403
0.011905,0.041269,0.988978,-0.329927,0.451018,-0.829295
0.170488,0.715261,0.466027,-0.266695,0.836185,0.479238
0.160703,0.228441,0.655791,0.354594,0.018633,0.934835
0.051503,0.039828,0.292781,0.102673,0.207352,0.972864
0.041000,-0.365394,0.561285,-0.312277,0.221576,-0.923790
0.004599,-0.894671,0.524824,-0.295494,0.085370,-0.951523
-0.117061,-0.205271,0.664739,0.093030,-0.268142,0.958877
-0.167225,0.241406,0.360999,-0.575533,-0.617069,0.536646
0.351252,-0.639863,0.726612,-0.604785,0.051352,0.794732
0.186275,0.353997,0.333959,-0.405073,0.144559,0.902784
-0.106885,0.435656,0.649250,-0.594516,0.798662,0.093218
0.214390,0.867243,0.250795,-0.380759,-0.016833,-0.924521
-0.276427,-0.250987,0.315033,-0.455907,-0.261546,0.850731
0.541146,-0.170892,0.442424,0.502394,-0.178809,0.845948
-0.273230,0.237209,0.315562,-0.030116,-0.041716,0.998676
0.122347,-0.017347,-0.067042,0.990821,-0.095928,-0.095240
0.158878,-0.790281,0.516348,0.328085,0.125410,-0.936287
0.581722,-0.322751,0.423581,-0.042892,0.406877,0.912476
0.674485,0.448556,0.445764,-0.687508,-0.371134,-0.624173
0.409570,-0.478177,0.777365,-0.628324,0.591630,-0.505156
-0.483414,-0.113220,0.583732,-0.661471,0.019376,-0.749721
-0.131608,0.350928,0.503587,-0.476957,0.838371,0.263907
0.545126,0.014843,0.664572,0.360944,0.742469,0.564322
-0.105059,0.154548,0.656362,-0.437785,0.477282,0.761936
0.481132,0.470663,0.469812,0.029831,0.260788,0.964935
0.127760,-0.037760,0.033810,0.825449,0.493310,0.274370
0.281191,0.097939,0.780273,-0.032224,0.582503,0.812190
-0.400307,-0.303148,0.665950,0.339540,0.206956,-0.917541
0.152420,0.711627,0.467947,-0.211254,0.869502,0.446472
0.389608,-0.196817,0.553464,-0.082384,-0.507834,0.857507
0.158095,-0.420188,0.776266,-0.440660,0.134651,-0.887518
0.605010,-0.220052,0.768862,0.781756,0.353899,-0.513433
-0.030365,0.056798,0.676276,-0.412490,0.098013,0.905674
0.263316,-0.243848,0.911269,0.743265,-0.291444,0.602177
-0.042107,-0.317427,0.775347,0.856865,0.366604,0.362470
-0.067093,0.243661,0.383182,-0.248127,0.115607,0.961804
0.045306,0.217609,0.750381,-0.135519,0.989937,-0.040723
0.170814,-0.302146,0.695300,-0.059242,0.201404,0.977715
0.064549,0.351807,0.724246,0.638113,0.202425,-0.742856
0.588834,-0.439100,0.273131,0.093157,0.849931,-0.518593
0.689816,-0.083473,0.427228,-0.422053,-0.902247,0.088437
0.105581,0.033629,-0.674926,0.932314,0.043730,-0.358995
-0.341595,0.231762,0.506120,-0.053713,0.412508,0.909369
0.461235,0.208654,0.620541,0.174710,0.984616,0.002880
0.454842,-0.409165,0.787733,-0.735127,0.390630,-0.554073
0.565348,-0.447179,0.268886,0.030357,-0.610400,0.791512
0.356470,-0.089359,0.897116,0.369476,0.789543,0.490009
-0.171010,-0.275220,0.348238,-0.126462,0.991949,0.006645
0.854009,-0.476483,0.305612,0.070670,0.360636,0.930025
0.123717,-0.083538,0.699530,0.033747,0.044010,0.998461
0.252293,-0.169015,0.691626,-0.288622,-0.460972,0.839167
0.210477,-0.402778,0.827074,0.930778,0.319251,-0.178135
0.419291,-0.422504,0.719681,0.267779,0.336497,0.902809
0.269057,-0.038013,0.621334,0.112815,0.993238,0.027388
-0.521446,-0.176529,0.598873,0.189684,-0.065304,-0.979671
0.077336,-0.470223,0.637199,0.918484,0.054145,0.391733
0.370429,0.219425,0.491619,0.999954,-0.003723,0.008884
0.926873,-0.514246,0.311387,-0.047853,0.677259,0.734187
0.044392,-0.120234,0.562119,-0.136529,-0.120926,0.983228
-0.039499,0.031813,0.334558,0.444204,0.609426,-0.656721
-0.322418,0.439474,0.303218,-0.280807,0.068932,0.957286
0.068463,0.251362,0.274787,-0.399553,-0.106677,0.910482
0.178969,0.159620,0.355683,-0.405042,0.077774,0.910984
0.127238,-0.091866,0.810625,0.921418,0.012664,0.388367
0.021626,0.012149,0.217006,-0.580337,-0.457970,-0.673403
0.061157,0.484250,-0.989577,-0.214678,0.259823,0.941491
0.702405,-0.237836,0.429983,-0.404279,0.351999,-0.844189
0.265209,-0.320871,0.834339,0.948070,-0.212170,0.236952
0.160508,-0.178345,0.952030,0.585149,0.164676,0.794029
0.260576,0.047342,0.888947,-0.399918,0.405245,0.822096
-0.136697,-0.174213,0.798574,0.952977,-0.235311,-0.190955
-0.092599,0.141775,0.520871,0.141616,0.254255,-0.956713
0.130370,0.768549,-0.998706,-0.125231,0.145764,0.981361
0.439121,-0.278851,0.298988,-0.149461,-0.517140,0.842750
0.750872,-0.608304,0.263779,-0.297802,0.131087,-0.945585
-0.189143,0.082911,0.513398,0.209567,0.278278,-0.937360
-0.225153,-0.093620,0.311262,-0.711693,-0.111941,0.693514
0.495026,0.359447,0.364186,0.000958,-0.110398,0.993887
-0.203234,-0.352556,0.774679,-0.451087,0.347596,-0.822008
0.110474,0.023485,0.977233,-0.620204,0.413705,-0.666480
0.286343,0.707869,0.272546,0.525910,-0.018388,-0.850342
0.236048,0.008078,0.779104,0.906958,-0.408660,-0.102096
0.696534,-0.278977,0.412518,0.856249,-0.251623,0.451135
-0.380670,-0.212411,0.687757,-0.071681,0.439117,0.895566
0.312699,0.023733,0.667202,0.672626,0.276642,0.686326
0.448906,-0.062684,0.742254,0.544166,0.085678,0.834591
0.167162,-0.288498,0.852764,-0.363615,-0.800372,-0.476643
-0.111320,0.397206,0.624326,-0.198874,0.876882,0.437639
-0.146286,-0.503536,0.451762,-0.131795,0.061937,0.989340
-0.036497,-0.121422,0.846112,-0.153335,-0.204998,0.966677
-0.335985,-0.142715,0.300978,0.859631,-0.159879,-0.485256
0.190647,-0.599284,0.701409,-0.557648,0.291681,-0.777143
0.763267,-0.372534,0.252618,0.812550,0.143383,0.564981
0.550019,-0.710125,0.676346,0.563058,-0.805350,0.185410
0.180665,0.019349,0.937668,0.145934,-0.945285,-0.291787
-0.252813,-0.263386,0.474474,0.843770,0.001700,-0.536703
-0.198343,-0.489135,0.538155,-0.141273,-0.805483,0.575534
0.627777,-0.046715,0.654692,0.904509,-0.020040,0.425983
0.117127,-0.285115,0.661330,-0.699684,0.654760,0.285886
-0.363318,0.091052,0.298055,0.901244,0.167131,-0.399784
-0.336572,0.111405,0.628765,0.548023,0.693672,-0.467430
0.056005,-0.014839,-0.303733,0.961601,-0.220505,-0.163404
0.002642,-0.054730,0.977567,0.580382,-0.813999,0.023695
-0.347205,-0.335712,0.789236,0.472740,0.852674,0.222407
-0.257901,-0.801928,0.581700,0.949339,-0.308216,-0.061314
0.327572,0.382365,0.724065,0.213108,0.833520,0.509735
0.374475,-0.003193,0.516154,0.606695,-0.657557,-0.446699
0.025801,0.260566,0.361890,0.734230,0.352744,0.580067
-0.578003,0.288620,0.160129,0.736496,0.343687,-0.582626
0.432858,-0.086794,0.910503,0.306426,-0.454909,0.836158
0.053263,0.434528,0.693171,-0.280115,-0.760510,0.585798
-0.425486,-0.240026,0.695509,0.218746,0.596506,0.772224
0.188429,0.074208,0.741823,0.870126,0.478503,-0.117968
-0.256073,-0.549314,0.532519,-0.369178,0.086555,0.925319
0.005773,0.845763,0.264892,-0.138506,-0.168747,0.975879
-0.150592,-0.126682,0.804613,0.895938,-0.418539,-0.148725
0.315960,-0.413488,0.798991,0.188542,-0.384483,0.903673
0.447470,-0.387937,0.459096,-0.676816,-0.310293,-0.667562
-0.067549,-0.107835,0.557625,0.355412,0.234034,-0.904937
0.103560,0.065754,-0.569620,-0.385115,0.910896,0.148170
-0.275774,-0.442983,0.656055,-0.449802,-0.047141,-0.891883
-0.062853,0.394137,0.338914,-0.223162,-0.950657,0.215521
-0.394434,-0.345229,0.657600,0.014424,-0.251158,0.967839
-0.352033,-0.251110,0.790057,-0.293180,-0.113827,-0.949257
0.093971,0.397084,0.727781,-0.595829,-0.511544,0.619122
-0.021234,0.048470,0.985040,-0.560654,-0.259932,0.786195
-0.398219,-0.325629,0.792854,-0.098614,0.164113,0.981500
0.180926,-0.485313,0.764367,0.214965,-0.731921,0.646592
0.481132,0.915524,0.300073,0.807565,0.151997,-0.569856
0.059265,0.099506,0.342463,-0.202519,-0.236390,0.950319
0.315307,-0.562653,0.287952,-0.663411,0.508002,-0.549381
0.531493,0.902686,0.304220,0.974834,0.011693,-0.222625
0.147136,0.011587,0.343033,-0.678358,-0.283628,0.677780
-0.000488,-0.927858,0.526299,0.168980,-0.178606,0.969302
0.155551,-0.044961,-0.411112,0.985926,-0.105981,-0.129300
0.350468,0.491764,0.470021,0.302652,0.498837,0.812135
-0.565217,0.265263,0.152503,-0.259475,-0.841113,0.474554
-0.373235,-0.099315,0.548801,-0.553600,0.026846,0.832350
0.076944,-0.443358,0.436120,-0.403220,-0.169382,-0.899291
0.653088,0.596841,0.449842,0.905024,-0.283759,0.316878
0.165726,0.023672,-0.314003,0.896772,0.106583,0.429464
0.196061,0.197883,0.499523,-0.326587,0.001909,0.945165
-0.078052,0.473919,0.613986,-0.198277,0.250430,0.947613
0.293585,0.716764,0.427186,-0.393052,0.914269,0.098089
0.058417,-0.237461,0.956581,-0.221257,0.458607,-0.860654
-0.570632,-0.522888,0.669527,0.376142,0.175568,0.909777
-0.087640,-0.504977,0.644881,-0.031808,0.818763,0.573250
0.383216,-0.063624,0.696274,0.328073,0.683499,0.652071
0.349425,0.714008,0.444233,-0.095175,0.792104,0.602920
0.238724,0.344354,0.499245,0.202089,-0.483056,-0.851949
0.492940,0.036885,0.650517,0.533194,0.662450,0.526179
0.266644,-0.230069,0.784963,-0.396470,-0.680354,-0.616384
0.477609,-0.270901,0.801816,-0.696345,0.636554,-0.331515
-0.436250,0.063686,0.514845,0.309156,0.549035,0.776519
-0.045043,-0.179912,0.512939,0.001434,-0.534910,0.844908
0.703709,-0.396705,0.302801,-0.518667,-0.144506,0.842676
0.661308,-0.136825,0.278043,0.546280,0.104583,0.831048
0.066245,0.035444,-0.792882,-0.190918,-0.972553,0.133009
0.508008,0.283674,0.324816,-0.113472,-0.381623,0.917327
0.239506,0.025549,0.898021,0.712513,0.170166,-0.680712
0.021626,0.926107,0.267022,-0.192700,0.222969,-0.955590
-0.065005,-0.014465,0.684737,0.763853,-0.495066,-0.414050
0.373235,-0.522949,0.285043,0.857188,-0.199240,0.474902
0.077009,0.411860,-0.981811,0.246643,-0.296164,-0.922743
0.141916,-0.002005,0.621863,0.961982,-0.227398,0.151261
0.749569,-0.476048,0.446168,0.176459,0.447039,0.876937
0.380346,-0.125932,0.900678,0.166534,0.923128,0.346557
-0.128281,-0.076459,0.504185,-0.418553,-0.271496,0.866662
0.461888,0.259503,0.560797,-0.104436,0.460804,0.881336
-0.190254,0.130565,0.670208,-0.377799,0.658605,0.650774
0.065136,0.048030,-0.684000,-0.363261,0.929188,0.068198
-0.448384,0.041831,0.584316,-0.121296,0.810848,0.572549
0.155028,0.026550,0.969259,-0.308388,0.695132,-0.649376
0.474609,-0.122611,0.884048,0.228649,0.849630,-0.475236
0.499593,-0.166259,0.917559,-0.334987,-0.694385,-0.636878
0.684922,-0.014904,0.266006,0.689413,0.149855,0.708698
0.221241,-0.086354,0.268608,0.457190,-0.390936,0.798841
-0.266511,-0.090612,0.679143,-0.385938,-0.066177,0.920148
0.043544,0.151919,0.840462,-0.063356,0.940641,0.333437
0.007601,0.299830,0.521734,0.149901,0.266545,0.952094
0.342445,-0.024674,0.500275,0.953097,-0.088791,0.289348
-0.690596,-0.178658,0.464510,0.763043,0.206050,-0.612625
-0.097753,-0.091178,0.821021,-0.127818,0.606317,0.784884
0.210413,-0.013211,0.884577,0.656056,0.046472,-0.753280
0.465214,-0.576053,0.706530,0.563555,0.061824,0.823762
0.339379,0.437345,0.677431,-0.568141,-0.765037,-0.303205
0.300499,0.595592,0.471635,-0.040165,0.369793,0.928246
-0.117517,-0.124992,0.765077,-0.362253,0.711356,0.602283
-0.379235,0.374850,0.306739,0.386342,-0.703242,-0.596817
-0.338987,-0.470471,0.656306,0.015847,-0.100127,0.994849
0.151637,-0.046028,0.120927,0.987547,0.102224,0.119587
0.041782,-0.346857,0.802456,0.645031,0.673366,-0.361265
-0.093773,-0.359822,0.797822,-0.499069,0.232657,-0.834746
-0.000814,-0.173147,0.836635,0.406140,0.795243,-0.450154
0.144200,0.213038,0.763546,0.282937,0.428996,0.857851
-0.377343,0.149790,0.518171,-0.053278,0.174057,0.983293
-0.004533,0.017094,-0.681550,-0.767827,0.615832,0.176616
0.404808,-0.069698,0.627791,-0.535888,0.829815,0.155662
0.162921,0.132881,0.280298,-0.213183,0.042890,0.976070
0.282561,-0.141523,0.592457,-0.208881,0.705078,0.677668
-0.027365,-0.309913,0.673534,0.403780,-0.288522,-0.868168
0.471348,-0.676934,0.701381,0.050167,0.427692,-0.902531
0.116345,-0.876133,0.596660,0.523713,-0.276431,0.805798
0.301740,0.214414,0.642487,-0.556644,-0.820403,-0.130716
-0.050261,-0.030934,0.320015,0.358169,-0.871901,-0.333922
-0.085749,-0.681195,0.593919,0.390631,-0.340569,-0.855231
-0.141329,0.037699,0.309843,0.520682,0.489908,0.699200
-0.158810,-0.225811,0.330397,-0.043933,-0.977078,0.208298
0.049023,0.650573,0.299614,-0.185075,0.051966,0.981349
-0.138719,-0.259251,0.816888,0.481971,0.230481,-0.845330
0.119345,-0.068196,-0.193111,0.968822,-0.247724,-0.004204
0.143157,-0.103638,-0.435995,-0.582573,-0.809153,-0.076676
0.198279,-0.292190,0.870076,-0.618385,0.372600,0.691932
-0.568543,-0.141209,0.599763,0.025063,-0.248185,0.968388
0.095209,0.094622,0.855450,0.979406,0.082355,-0.184339
-0.724974,0.014965,0.588686,-0.532482,0.450184,0.716797
0.033760,0.032876,-0.525811,0.957517,-0.274109,-0.089581
0.457191,-0.454755,0.520746,0.711524,0.691745,0.123376
0.214912,-0.349299,0.307073,0.102358,0.584480,0.804926
-0.201474,-0.185171,0.487486,0.947873,-0.253382,-0.193221
-0.216347,-0.123739,0.681369,0.164624,0.782365,-0.600669
-0.630255,0.277226,0.142358,0.681973,-0.029119,-0.730797
0.292085,-0.282547,0.506788,0.403549,0.325274,-0.855187
0.597704,-0.260566,0.306489,-0.126161,-0.396241,0.909437
0.510487,-0.571042,0.702870,-0.009795,-0.161162,0.986879
0.282756,-0.149790,0.886804,-0.094602,0.416735,0.904092
0.879644,-0.662845,0.284918,-0.585906,-0.085030,0.805906
-0.350207,0.488508,0.297805,0.172030,-0.131885,0.976223
0.344989,-0.092493,0.829301,0.620143,0.379865,0.686386
0.335531,0.087795,0.612288,-0.170785,0.843588,-0.509108
0.244400,-0.045214,0.950513,-0.506172,0.260627,-0.822109
0.107538,-0.467968,0.529360,-0.211079,-0.905979,0.366943
0.406504,-0.167949,0.551042,0.318957,-0.652032,0.687838
-0.182100,0.059114,0.515973,-0.392951,-0.106146,0.913412
-0.194819,0.330201,0.366204,-0.584696,-0.232838,0.777121
0.119737,-0.200639,0.428063,0.040759,-0.077038,0.996195
0.189080,0.293004,0.299057,0.134222,-0.290695,0.947355
0.101733,-0.159494,0.238743,0.699686,-0.119179,-0.704440
-0.048762,0.298768,0.273200,-0.338347,0.293031,0.894234
-0.465670,-0.171583,0.556831,0.243073,0.970002,0.003448
0.205520,-0.477424,0.501903,0.222922,-0.283156,0.932807
-0.524902,0.252616,0.502836,0.089251,0.629951,0.771490
0.485829,-0.099881,0.373287,-0.134984,0.264155,0.954988
0.236701,-0.177404,0.843565,0.910373,-0.403435,-0.091982
-0.305912,-0.337214,0.797544,0.406246,0.272712,0.872120
0.359470,0.694721,0.468128,-0.502359,-0.101346,0.858699
0.153855,0.198384,0.778896,-0.487107,-0.495093,-0.719451
0.416550,-0.222994,0.785047,0.190109,0.713645,0.674217
-0.254574,-0.095810,0.324858,0.298883,-0.634690,-0.712627
0.459214,-0.180286,0.451693,0.279896,0.143046,0.949314
0.172381,-0.297701,0.905285,-0.347932,-0.765550,0.541181
0.553672,0.202141,0.514219,-0.726735,-0.603700,-0.327724
0.367821,-0.465151,0.279226,0.649487,-0.008046,0.760330
0.054959,0.051662,-0.734377,0.753211,0.648070,0.112595
0.229590,-0.013276,-0.040713,0.979037,0.027854,-0.201767
0.392219,-0.475043,0.778172,-0.558900,0.562544,-0.609242
0.046741,-0.214353,0.563859,-0.162699,-0.031821,0.986162
-0.718190,-0.291876,0.476951,-0.103466,-0.368430,0.923880
0.060374,0.365459,0.672741,-0.384640,0.331273,-0.861574
0.384130,-0.516814,0.761723,-0.610687,0.781632,-0.126937
-0.584722,-0.103577,0.597384,-0.026815,-0.064510,0.997557
0.067746,-0.133508,0.626831,-0.001861,0.168562,0.985689
0.456670,0.032436,0.284180,0.133698,0.091683,0.986772
0.030562,-0.824222,0.605748,0.698617,0.706786,-0.111303
-0.232851,-0.093808,0.331260,0.224416,-0.441664,-0.868660
-0.152288,0.005009,0.304095,-0.364545,0.115173,-0.924036
0.709841,-0.401089,0.281049,0.935333,-0.247354,0.252920
-0.141785,-0.044961,0.290610,-0.559940,0.189470,-0.806578
-0.377931,-0.305842,0.788832,0.526436,0.166666,0.833719
-0.694902,-0.262133,0.461337,-0.107420,-0.146016,0.983433
0.074857,0.819899,0.235097,0.107599,0.919854,0.377216
0.260837,-0.301519,0.382862,0.829752,-0.450927,-0.328902
0.671940,-0.011460,0.645062,0.837924,0.317807,0.443713
0.210608,0.172398,0.299628,0.829223,0.198219,-0.522588
0.139764,0.411420,0.338816,0.475933,0.186530,-0.859473
0.548518,0.665414,0.453251,0.328648,-0.579783,-0.745548
0.207282,0.835680,0.250280,0.463593,-0.250850,0.849798
0.473173,0.182480,0.563817,-0.667680,0.318491,-0.672880
0.636062,-0.378359,0.295467,0.294108,0.718947,-0.629774
0.208846,-0.361763,0.908625,0.843602,0.095282,0.528447
0.003621,-0.969813,0.502515,-0.610269,0.596794,-0.520968
0.418767,0.579871,0.296886,-0.366238,0.337955,0.866981
-0.218304,-0.081409,0.457663,-0.478210,0.556604,0.679343
0.069769,-0.082724,-0.096016,0.957072,-0.217160,-0.191975
0.242182,0.808754,0.224270,-0.536232,-0.274784,-0.798091
0.413876,0.183355,0.771729,0.768969,-0.304664,-0.562020
0.081315,0.635357,0.477271,0.167840,-0.395800,0.902869
0.660003,-0.499779,0.297318,0.577759,0.567349,-0.586780
0.435012,0.537167,0.565042,0.880492,-0.160307,-0.446135
0.215760,0.079027,0.570831,0.632857,-0.550511,-0.544454
0.147461,-0.332643,0.830303,0.003362,0.412670,0.910875
-0.374083,0.177657,0.513969,0.030874,0.435882,0.899474
0.000751,0.009018,-0.617423,0.971574,0.113467,-0.207772
0.617536,-0.223243,0.426142,-0.191024,0.506200,-0.840994
0.542060,0.492517,0.466722,-0.483911,0.356643,-0.799147
0.768355,-0.175841,0.257990,0.797853,0.447794,0.403623
0.128347,-0.069132,-0.222837,0.721902,-0.673875,0.157320
0.206694,-0.140586,0.548259,0.955861,0.238138,-0.172107
-0.570761,0.311916,0.159058,0.736496,0.343687,-0.582626
-0.303760,-0.516875,0.516488,-0.667918,0.741922,-0.058627
0.638346,-0.269395,0.423331,0.088474,0.184175,0.978903
0.066116,-0.696159,0.526647,0.667725,0.565108,0.484557
-0.244529,-0.179033,0.705097,0.443978,-0.120772,-0.887861
-0.047914,-0.348738,0.358355,0.070284,0.172778,0.982450
0.005970,0.097064,0.387468,-0.649339,-0.173017,0.740556
0.416876,-0.404533,0.780663,0.813945,-0.334402,0.475046
0.151050,-0.569166,0.382166,-0.366543,-0.587874,-0.721145
0.235658,-0.100508,0.584873,0.936275,0.351265,0.001669
0.378715,0.245851,0.753192,0.908150,0.295411,-0.296642
0.445840,0.114160,0.332846,0.678709,-0.168973,0.714705
0.298282,0.251301,0.361765,0.371570,0.229808,0.899513
0.136177,-0.801740,0.513955,0.226867,0.831125,-0.507703
-0.062200,0.348176,0.359858,0.825417,-0.409892,-0.388168
0.619623,-0.071387,0.649376,0.907254,0.005187,0.420550
0.054177,-0.220992,0.962843,0.297281,-0.023813,0.954493
0.288824,0.839250,0.221946,-0.490726,-0.400879,-0.773617
0.611600,-0.220491,0.884299,0.033303,0.039771,0.998654
-0.130370,-0.371219,0.805212,0.833408,0.357608,0.421365
-0.026386,-0.324689,0.676694,-0.590817,0.321948,0.739787
0.259989,-0.047404,0.703928,-0.225622,-0.285361,0.931485
0.095601,-0.188366,0.627638,0.032536,0.205219,0.978175
0.314069,0.053603,0.367609,0.323084,0.022639,0.946099
0.030758,0.377667,0.272254,0.588903,-0.474052,-0.654575
0.402264,0.792284,0.411474,-0.497320,0.827022,0.262121
0.671484,-0.380549,0.404794,-0.648170,0.551383,0.525217
0.295803,0.201954,0.515750,-0.721798,0.176445,0.669235
-0.255291,-0.339282,0.635738,-0.082496,-0.380108,0.921256
0.314459,-0.194313,0.715242,-0.210523,-0.485424,0.848554
0.152680,0.048344,-0.489935,0.905887,0.399357,0.141005
0.149941,0.011648,0.514957,0.452020,0.890490,0.052026
0.086338,0.096063,0.978555,-0.714629,0.571648,-0.403143
-0.139633,-0.660464,0.561841,0.820388,-0.528403,0.218528
0.568740,0.267331,0.462867,-0.256684,0.299254,-0.919000
0.021431,-0.133320,0.840643,0.346187,0.478005,-0.807258
0.259338,0.478177,0.675037,0.289790,0.821001,0.491913
0.184318,-0.160499,0.595575,0.776144,0.629903,-0.028676
0.563849,-0.342978,0.377546,0.028141,0.842489,0.537978
0.159007,-0.203081,0.565445,-0.078044,-0.339396,0.937400
0.440688,-0.072515,0.819323,0.259525,0.672104,0.693486
0.007601,-0.342164,0.826546,-0.151930,0.394428,0.906280
0.253597,0.016659,0.457162,-0.691803,0.707580,0.144012
0.182295,-0.565282,0.497673,0.165345,-0.187477,0.968253
-0.062721,-0.566410,0.422301,0.264487,-0.675608,0.688186
-0.054633,-0.401337,0.773621,-0.013487,-0.492262,0.870343
0.422617,0.266765,0.337230,0.981397,-0.163402,-0.100793
0.290583,-0.026738,0.955370,-0.471437,0.880618,-0.047528
0.360906,0.655958,0.285642,0.398650,-0.279134,-0.873592
-0.371994,0.143464,0.499092,0.453204,-0.605143,0.654528
0.263708,-0.254867,0.875852,0.869750,0.110863,-0.480878
0.408722,0.373161,0.496865,-0.455254,0.585359,-0.670894
-0.262207,-0.247918,0.466068,0.859189,0.084019,-0.504713
0.607033,-0.136577,0.716759,0.993012,0.117562,-0.010325
0.501028,0.352055,0.541704,-0.693834,-0.042858,-0.718858
0.382497,0.364393,0.727280,-0.054247,0.356896,0.932568
-0.202910,-0.339408,0.753484,0.525918,-0.847812,-0.068012
0.435729,-0.688270,0.687409,-0.725427,-0.523238,0.447188
-0.115495,-0.254240,0.784713,-0.464857,-0.748365,-0.473136
0.166640,-0.427075,0.250169,0.702130,0.401210,-0.588254
-0.512051,0.284049,0.491758,-0.360250,0.453577,0.815161
0.286148,0.164004,0.517517,0.608365,0.008228,-0.793615
0.523926,-0.208715,0.843245,0.239087,0.951421,-0.193999
0.308915,0.225750,0.510281,-0.583686,0.651791,0.484231
0.423856,0.540110,0.304902,-0.512623,-0.562318,-0.648858
-0.194037,-0.159372,0.773204,0.482212,0.692864,0.536107
0.184318,0.199512,0.737439,0.924974,0.265727,0.271683
0.188168,0.134635,0.765842,-0.284506,-0.277617,0.917598
0.031737,-0.178910,0.847142,0.600597,0.517133,-0.609801
-0.180207,-0.382991,0.544585,-0.380618,0.190818,0.904831
0.035195,0.082972,0.853933,-0.671146,-0.710276,-0.212301
-0.216608,-0.731666,0.591845,0.050119,-0.310460,0.949264
0.540495,-0.115035,0.731469,0.807252,-0.179621,0.562211
-0.129783,-0.312982,0.654552,-0.161926,-0.562969,0.810460
-0.078769,-0.228881,0.364506,-0.236738,-0.579853,0.779568
-0.104406,0.651887,0.281147,-0.277428,0.047675,0.959563
0.693011,0.287619,0.454490,-0.574275,0.369036,0.730767
0.002578,0.916525,0.273131,-0.006442,-0.180697,0.983518
-0.574153,-0.063686,0.480848,-0.076212,-0.538568,0.839128
-0.108907,-0.143403,0.675608,-0.219511,-0.339409,0.914667
-0.035519,-0.862733,0.527676,0.495962,-0.114603,0.860748
0.066245,-0.065501,0.974394,0.226252,-0.765004,0.602975
-0.234155,0.108461,0.305988,-0.211028,-0.293744,0.932299
0.113345,0.414054,0.669944,-0.050013,-0.919244,0.390499
0.077726,0.716389,0.478064,-0.568894,0.088382,-0.817648
-0.204801,-0.323061,0.771701,-0.336789,0.400227,-0.852286
0.161683,-0.454568,0.380691,-0.114118,0.604162,0.788648
0.513423,0.454316,0.485259,0.922697,-0.115555,0.367800
0.332921,0.693281,0.437762,-0.262689,0.707102,0.656507
-0.175445,-0.758092,0.541064,0.821776,-0.326857,-0.466742
0.525164,0.707120,0.447963,-0.042694,0.561423,0.826427
-0.203953,-0.305342,0.435661,0.011452,-0.174625,0.984568
0.445384,0.214980,0.537404,-0.741968,0.399901,-0.538110
0.022147,0.816895,0.268010,0.166591,0.201141,0.965293
0.160640,-0.077212,0.949428,-0.109500,-0.204622,0.972697
0.636062,-0.328698,0.753749,0.948834,0.302378,0.091004
0.186472,-0.029745,0.947730,-0.233552,0.665436,0.708977
0.649435,0.518190,0.442160,0.904847,0.370909,0.208994
0.270035,0.542552,0.378659,-0.442336,-0.073695,-0.893816
0.021234,0.007765,-0.607376,0.962157,-0.230396,-0.145506
-0.218955,0.155049,0.648791,-0.631385,0.204970,0.747890
0.059853,-0.597908,0.558418,-0.728963,-0.053878,-0.682429
-0.189536,-0.104639,0.477758,0.958781,0.189434,0.211788
0.113408,0.042706,0.385200,-0.352551,-0.684352,0.638256
0.608076,-0.012710,0.652548,0.712339,0.564121,0.417540
0.063701,0.405912,-0.982925,-0.240316,0.278964,0.929746
0.289540,-0.259817,0.375250,-0.121462,-0.213754,0.969307
-0.232524,-0.391885,0.651992,0.296780,-0.217854,0.929764
0.228415,-0.299643,0.902209,0.644392,0.094114,0.758882
0.150789,-0.012336,0.934732,0.566767,-0.612518,-0.550996
0.272840,-0.061557,0.947146,-0.528542,0.453369,-0.717705
0.238463,0.022044,0.266298,0.985653,-0.094112,-0.140111
0.153334,-0.010834,0.576885,0.289625,0.947618,-0.134680
-0.373625,-0.040141,0.594461,0.822059,-0.428371,-0.375123
-0.418309,-0.500406,0.657252,0.109827,-0.225332,0.968072
0.254967,-0.207465,0.930376,0.770800,-0.628309,0.105335
-0.009361,0.935624,0.269304,0.172080,-0.981936,-0.078672
-0.324960,-0.032562,0.305180,-0.792906,-0.078059,0.604324
0.059658,-0.474855,0.431945,-0.651455,0.369596,-0.662575
-0.162268,-0.872063,0.592944,-0.312167,0.749090,-0.584308
-0.106690,-0.516122,0.443551,-0.235962,-0.005209,-0.971748
0.014385,-0.194501,0.343882,0.813420,-0.074507,-0.576886
0.005644,-0.087921,0.840072,-0.240399,-0.286388,0.927465
0.125152,0.085915,0.502098,0.605351,-0.333610,0.722672
-0.271078,-0.315860,0.677250,0.416291,-0.693177,0.588394
0.476500,0.981023,0.298793,0.865919,0.084055,-0.493071
0.161944,-0.111152,0.858901,-0.120412,-0.274180,0.954110
-0.236243,-0.390444,0.645047,-0.366299,0.248210,0.896781
0.104733,-0.239150,0.325999,0.823284,0.399664,0.403078
0.160640,-0.349739,0.373761,-0.363827,0.501608,0.784869
0.064941,0.115097,0.410416,0.545854,0.525112,-0.652917
-0.011318,-0.156177,0.712765,0.267027,0.064331,-0.961540
0.572067,0.577181,0.462311,-0.501111,-0.073385,-0.862266
0.066179,0.248545,0.747973,0.344124,-0.884520,0.314965
-0.145372,-0.066942,0.465011,0.951427,-0.083279,0.296397
0.020583,0.251423,0.763282,0.445008,-0.878632,0.173130
-0.322482,-0.641617,0.656668,0.212538,0.416695,0.883851
-0.021690,-0.139207,0.690916,0.735598,-0.660574,-0.150128
0.348511,0.253617,0.475782,0.992050,-0.072779,-0.102662
0.111517,0.020102,-0.642264,-0.290377,-0.883633,-0.367251
0.143157,0.003381,0.066862,0.968947,-0.033935,-0.244928
0.390652,-0.213913,0.779870,0.006552,0.263387,0.964668
-0.196386,0.359635,0.639745,-0.268486,0.200227,0.942244
-0.093576,-0.267579,0.819003,0.126156,-0.445403,0.886398
0.187776,0.294884,0.672713,0.865211,-0.058879,0.497939
0.057961,0.056986,-0.651700,-0.169082,0.985364,0.021636
0.116737,0.057861,0.766413,0.972036,-0.095714,0.214441
-0.010991,0.043899,0.993418,0.544424,-0.223025,0.808617
0.524187,-0.346421,0.452931,0.818150,-0.262094,0.511799
-0.020581,-0.092493,0.939631,-0.227279,-0.935882,0.269202
0.281713,-0.499030,0.309174,-0.071123,0.959599,-0.272236
0.218631,-0.311980,0.953116,0.218810,0.707368,0.672125
0.702732,-0.225999,0.371771,0.680765,0.251539,-0.687958
0.266644,-0.507358,0.259061,-0.399077,-0.144315,0.905489
-0.011057,-0.716699,0.514859,-0.593210,0.280988,-0.754418
-0.021234,-0.070447,0.947521,0.379504,0.812320,-0.442846
-0.053263,0.239839,0.382890,-0.441525,0.175894,0.879839
0.160769,-0.072266,0.071677,0.670385,0.741304,0.032445
-0.297497,-0.132633,0.595060,-0.015895,-0.327308,0.944784
0.243291,-0.094056,0.945044,-0.564007,0.329577,-0.757149
0.642716,0.277287,0.453001,-0.021196,-0.507549,0.861362
0.434554,0.066067,0.934885,0.321278,-0.945943,-0.044412
-0.357316,-0.167949,0.293783,0.826217,-0.027816,-0.562666
-0.008057,-0.349991,0.831625,-0.151930,0.394428,0.906280
-0.147656,-0.181976,0.775709,0.233437,0.586124,0.775865
0.040869,-0.218924,0.355586,0.650537,0.521798,-0.551841
0.210608,-0.241467,0.942984,0.951163,-0.020191,0.308029
0.620341,-0.219111,0.778395,-0.525654,0.156016,-0.836270
0.376888,0.316865,0.552016,-0.137949,0.075698,-0.987542
0.683879,0.497650,0.453683,0.471448,0.743335,0.474541
0.753287,-0.467528,0.444957,0.153244,0.574763,0.803843
0.055939,-0.032123,-0.350673,0.976441,-0.144774,-0.160010
0.112105,0.032876,-0.247010,-0.639535,0.766428,0.059856
0.098340,-0.082846,-0.422301,0.488227,0.872427,0.022507
0.706972,-0.003755,0.274926,-0.576559,-0.221676,-0.786409
0.076290,-0.159058,0.268831,0.938762,0.003316,0.344551
0.085032,0.197195,0.672908,0.971508,0.076833,-0.224208
0.503638,-0.214353,0.828271,0.361048,0.932499,-0.009529
0.010079,-0.289621,0.837762,0.499931,0.035428,-0.865340
0.042435,0.817709,-1.000000,-0.016408,0.144705,0.989339
0.234028,0.003446,0.953672,-0.234305,-0.269567,0.934042
-0.022472,-0.998807,0.511686,0.466730,-0.663261,0.585019
-0.019277,0.728788,-0.992583,0.049584,0.098783,0.993873
0.490851,0.365708,0.542539,-0.704417,0.028128,-0.709228
0.730389,-0.669671,0.258588,0.989122,-0.094094,-0.113066
0.047719,-0.133947,-0.873903,0.842079,0.524946,0.123838
0.697643,-0.094622,0.431402,-0.340973,-0.924219,0.171923
-0.177663,-0.117164,0.472011,0.860785,-0.265849,-0.434019
0.731369,-0.300270,0.387051,0.072183,0.996263,-0.047428
0.393327,0.138018,0.339568,0.438573,0.034131,0.898047
0.462541,-0.121483,0.738691,0.993343,-0.111143,0.030270
-0.536448,-0.211849,0.601531,0.302057,-0.071772,-0.950584
0.177730,0.325629,0.707449,0.842488,-0.061786,-0.535161
0.225220,-0.123238,0.880528,-0.032131,0.750551,0.660031
0.122803,-0.272903,0.925547,0.655522,-0.671630,0.345261
-0.460387,-0.148162,0.597384,-0.611503,0.654406,-0.444766
0.101277,0.002444,0.851414,0.436728,0.234592,-0.868467
0.331747,0.315111,0.728574,-0.158890,0.570491,0.805788
0.091817,0.673180,0.478816,0.419637,-0.107500,0.901304
0.026519,-0.480493,0.758703,0.425535,0.816966,-0.389212
-0.247658,0.503349,0.606944,0.603342,-0.593870,-0.532257
-0.203234,-0.234705,0.349268,0.650564,-0.621581,0.436353
0.413876,0.132006,0.647399,-0.496525,-0.656024,-0.568415
-0.028147,0.041770,0.221362,0.716319,0.392111,0.577180
0.502137,-0.149790,0.901625,-0.175784,-0.758068,-0.628039
0.429792,-0.653577,0.733626,-0.080942,0.649503,0.756039
0.118563,-0.113908,0.350464,-0.413093,0.717938,0.560284
0.337096,0.660590,0.281425,0.354539,-0.014240,-0.934933
-0.428486,0.288119,0.311095,0.063019,0.287527,-0.955697
0.355230,0.020851,0.340194,0.818141,-0.467224,0.335182
-0.168726,-0.278915,0.810625,0.935053,0.317311,0.158080
0.084445,-0.754774,0.524100,0.882038,0.467280,-0.060486
-0.041977,-0.499718,0.642042,0.666610,0.627969,0.401603
-0.602401,-0.231950,0.472136,-0.093788,0.051417,0.994264
-0.910369,-0.254431,0.451804,0.039991,0.293096,0.955246
0.083923,-0.282673,0.335407,0.864641,0.485262,0.130066
0.281320,0.394641,0.702049,-0.184318,0.852702,0.488801
0.114454,-0.536728,0.545587,0.805226,0.032364,0.592084
0.083401,0.041391,-0.347862,0.877859,-0.478282,0.024708
0.552303,0.033942,0.693115,-0.300026,-0.903503,-0.306050
0.696403,0.314545,0.458651,0.083781,-0.000470,0.996484
-0.262597,-0.186547,0.472595,0.662442,0.018258,-0.748891
0.544931,0.703237,0.455965,-0.472504,-0.746058,0.469188
0.189864,-0.430145,0.823971,-0.675698,0.122823,-0.726875
0.073290,0.267958,0.758884,0.281587,-0.935141,0.214991
-0.257314,-0.210722,0.780788,0.326713,-0.006409,0.945102
0.209760,-0.005009,0.108792,0.827204,-0.129863,0.546690
-0.098404,-0.235141,0.678725,-0.214264,-0.640926,0.737092
0.049349,-0.192498,0.361250,0.446419,0.075823,-0.891606
0.354840,0.199072,0.473681,0.984811,0.018732,0.172619
0.320656,0.650320,0.284389,0.587063,-0.123271,-0.800101
-0.475455,-0.239150,0.706906,0.145064,0.403602,0.903361
0.509117,-0.039763,0.704874,-0.168988,0.967599,0.187604
0.251184,-0.508486,0.311151,0.421592,0.906195,0.032729
0.654067,-0.487380,0.446711,-0.467206,0.238237,0.851447
-0.059524,0.344728,0.368055,-0.542156,0.550383,0.634937
0.641933,-0.175402,0.890631,0.256377,-0.424333,0.868454
-0.224502,-0.285302,0.775876,0.181333,-0.132259,0.974487
0.157769,-0.638862,0.699544,-0.615682,0.042837,-0.786829
0.354382,0.084287,0.597189,0.072115,-0.961171,0.266364
-0.369321,-0.307283,0.302606,0.946665,0.047308,-0.318728
0.131089,-0.468342,0.701507,0.203315,-0.030950,0.978624
0.569133,-0.162563,0.896796,-0.020512,-0.286804,0.957770
-0.403502,0.229068,0.486164,-0.260732,0.079414,0.962140
-0.372126,-0.457384,0.655833,0.127806,-0.229520,0.964876
0.377867,0.841505,0.294061,-0.333014,0.643785,-0.688943
0.137871,0.080407,0.980559,-0.196710,-0.912998,-0.357407
0.131610,0.038827,-0.183982,-0.591589,0.802547,0.077077
-0.231286,-0.748449,0.592416,-0.661010,0.185445,0.727101
0.338073,0.011147,0.940911,0.272908,0.015903,0.961909
0.271341,-0.067382,0.921720,0.835638,-0.064935,0.545429
0.193320,0.416997,0.705097,0.221570,0.902524,0.369265
-0.409699,0.195066,0.306461,0.121850,0.025433,0.992223
0.141787,-0.848393,0.585541,0.792524,0.351131,-0.498611
-0.371865,0.126433,0.219817,0.839059,-0.065965,-0.540026
0.057764,-0.395138,0.777156,-0.229516,-0.128250,0.964818
0.206955,0.136890,0.736103,0.907647,-0.136011,-0.397086
0.603509,-0.183291,0.909084,0.263353,0.150428,0.952899
-0.383214,-0.564281,0.648429,-0.687695,0.177285,0.704021
0.220980,0.233765,0.713767,-0.817388,0.354116,0.454399
-0.354772,-0.041391,0.582159,-0.651120,0.603617,0.460097
0.104669,-0.571983,0.696761,-0.628561,-0.100697,0.771214
-0.170878,0.643746,0.277028,0.159891,-0.783563,0.600387
0.179295,-0.182102,0.903490,-0.649946,0.626652,-0.429974
0.333769,-0.169955,0.903392,0.098275,-0.380994,-0.919340
0.297694,-0.301772,0.702035,-0.321577,0.101690,0.941407
0.610752,-0.092867,0.436733,-0.394098,-0.673678,-0.625176
-0.212497,-0.200700,0.698278,-0.192667,-0.020974,0.981040
-0.586482,-0.164130,0.597411,0.109106,-0.252297,0.961479
-0.553802,-0.120234,0.600390,-0.191014,-0.128576,0.973130
0.083533,-0.043772,-0.137139,0.146042,0.981533,-0.123549
0.146352,-0.076085,-0.434603,0.511975,0.859001,-0.000215
0.659090,-0.122298,0.439098,-0.571207,-0.531295,-0.625658
0.027170,0.057112,0.681801,-0.225821,0.315225,0.921758
0.648781,-0.324502,0.425641,-0.308204,0.486059,0.817776
0.141916,0.072079,0.976440,0.230408,-0.312455,0.921566
0.157638,-0.199011,0.795081,0.147770,-0.764189,0.627836
0.543169,-0.223621,0.751675,0.493626,0.869416,-0.021189
-0.634559,0.119419,0.601169,0.337352,0.191745,-0.921644
0.132980,0.247605,0.768055,0.018365,0.465176,0.885028
-0.274014,0.100634,0.611523,-0.147877,-0.798729,0.583237
0.404155,0.163003,0.342212,0.098311,-0.381479,0.919135
-0.677745,-0.033629,0.585666,0.659901,0.476135,-0.581229
-0.709775,-0.268894,0.465846,-0.831212,0.283420,0.478289
-0.370690,-0.323500,0.315200,0.344924,0.694050,0.631919
0.344794,-0.022105,0.919883,-0.009959,-0.556353,0.830886
0.197953,-0.071200,0.112062,0.779110,0.626845,-0.007261
0.227960,-0.218297,0.813645,-0.141226,-0.989744,0.021507
0.431815,-0.148601,0.910587,-0.231136,-0.578622,-0.782159
-0.001859,0.033250,-0.729979,0.999708,-0.017861,0.016299
0.728628,-0.206965,0.422078,0.349283,-0.076288,0.933906
-0.355947,-0.574738,0.512953,-0.130872,-0.518553,-0.844971
0.555759,0.330766,0.459263,0.109312,-0.095499,0.989409
0.393262,0.227566,0.483909,0.847311,-0.482338,-0.222294
0.592486,-0.539732,0.267773,-0.168781,-0.042527,0.984736
0.119021,0.002505,0.020409,0.960104,-0.275375,0.048674
-0.564500,0.388629,0.309703,0.470046,-0.726278,-0.501575
-0.286148,0.006136,0.595616,-0.318914,0.848031,0.423247
0.047131,-0.012336,-0.503114,0.812925,0.520481,-0.261253
-0.107016,0.167700,0.523655,-0.142211,-0.246433,0.958669
-0.364298,-0.016280,0.281982,0.804164,-0.058198,-0.591552
-0.533904,-0.426953,0.662040,-0.038244,-0.440216,0.897077
0.327050,0.559022,0.478092,0.347746,0.037508,0.936838
0.194560,-0.222116,0.950277,0.679880,0.223861,0.698319
0.121628,-0.105641,-0.601879,0.968044,0.193980,-0.158941
0.091166,0.365020,0.725123,0.517194,0.271303,-0.811729
0.286801,-0.280605,0.878496,0.980681,-0.043317,-0.190757
-0.410808,-0.335150,0.661845,-0.198303,-0.141803,0.969829
-0.036563,-0.581186,0.443440,0.386599,-0.623659,0.679404
-0.201474,-0.203957,0.328602,0.502335,0.084528,-0.860532
-0.147003,-0.050847,0.327488,0.767755,-0.460875,-0.445137
-0.130760,-0.302398,0.791880,-0.537185,-0.843464,-0.000324
0.464953,0.552822,0.569356,0.858925,-0.162728,0.485559
0.185753,0.013651,-0.362794,0.919456,0.318966,0.229914
-0.569523,-0.069010,0.596674,-0.177268,0.408446,0.895404
-0.829088,-0.337715,0.451929,0.892390,-0.313402,-0.324684
0.437686,0.261506,0.725053,0.837751,0.111801,0.534485
0.741480,-0.332830,0.308506,0.136845,0.291877,-0.946616
0.165662,-0.071013,0.666493,-0.630788,0.581744,-0.513498
0.590593,-0.213726,0.907177,0.527090,-0.822756,0.212717
-0.230112,-0.524516,0.644338,0.645039,-0.391776,0.656076
0.313676,-0.137139,0.490937,0.608960,-0.716631,-0.340011
0.473956,0.257749,0.572724,-0.512267,0.166087,-0.842614
0.221633,-0.206525,0.886929,0.920931,0.224566,0.318522
0.739653,-0.423697,0.440880,-0.398907,-0.486665,-0.777194
0.211846,0.364519,0.716494,0.122400,0.807855,0.576532
0.194300,0.296639,0.499189,-0.142609,0.260391,0.954913
-0.130499,-0.141836,0.595366,-0.003578,0.601659,0.798745
0.151114,-0.375477,0.430804,0.940822,0.281066,0.189357
0.025540,0.325381,0.408635,-0.388953,-0.224299,0.893535
-0.114322,-0.257810,0.498897,0.299885,0.362806,-0.882293
0.192538,0.611683,0.472679,0.256940,0.438369,0.861286
0.135653,-0.113468,0.702133,-0.143146,-0.158162,0.976982
0.108061,-0.371533,0.318902,0.613639,0.602652,0.510154
0.739523,-0.313104,0.308242,0.009132,-0.212699,0.977075
0.328159,0.299956,0.685642,0.816334,-0.382725,0.432574
0.839004,-0.541486,0.299363,0.427354,-0.800111,0.420941
-0.070288,0.413740,0.266910,-0.153702,0.183601,0.970910
0.428489,0.806185,0.279366,-0.070809,0.117613,0.990532
-0.061483,0.437911,0.640594,0.547623,-0.721869,-0.423101
0.221372,0.665914,0.272365,0.468930,-0.377980,-0.798271
0.554976,0.014652,0.281175,-0.567533,-0.093066,-0.818074
0.622037,-0.081596,0.650739,0.907254,0.005187,0.420550
0.501681,-0.045026,0.801329,0.219598,-0.969211,0.111382
0.066442,0.160121,0.397572,0.958294,0.267788,-0.099814
0.762811,-0.390444,0.433810,-0.440567,-0.776789,-0.450001
0.754070,-0.224684,0.379689,-0.701905,-0.156815,0.694794
0.252162,0.748701,0.231618,0.814737,0.330115,0.476684
-0.029452,-0.694217,0.531476,0.260799,-0.423076,0.867750
-0.545060,0.052728,0.590843,0.297545,0.575572,0.761698
-0.000293,0.002693,-0.718304,0.774347,0.567176,0.280531
-0.654457,-0.229507,0.470563,0.043702,0.738558,0.672772
0.439513,0.053229,0.335073,0.734664,0.404448,0.544692
0.430250,0.691026,0.473402,-0.343863,0.004493,-0.939009
0.082098,-0.363392,0.508847,-0.515387,-0.183820,-0.837010
0.112105,0.354937,0.728518,0.813888,0.156549,-0.559535
-0.038129,-0.058488,0.762474,0.015426,0.643729,0.765098
0.031866,0.285054,0.399047,0.926884,-0.226767,0.299104
-0.013079,0.266452,0.384170,-0.365159,0.392238,0.844280
-0.226849,-0.271715,0.443941,0.101334,-0.351500,0.930688
0.231026,-0.043146,0.308186,-0.596376,0.679942,0.426632
-0.289801,-0.376230,0.787037,-0.452088,0.002090,-0.891971
0.501616,0.410984,0.541147,0.721324,0.277413,0.634614
0.333182,-0.027616,0.916223,0.190008,-0.565994,0.802214
0.637562,0.017033,0.633845,0.713539,0.594898,0.370077
0.497897,-0.115662,0.368055,0.157192,0.134591,0.978354
0.202454,0.507420,0.342101,-0.368422,-0.925354,-0.089363
0.791188,-0.503850,0.309648,-0.547760,0.482379,0.683571
-0.092728,-0.096311,0.526660,0.370445,-0.904086,-0.213073
0.039175,-0.009454,-0.462492,0.994628,-0.019933,-0.101578
0.023451,-0.049158,0.589424,0.113920,-0.764811,0.634103
0.785056,-0.492766,0.446683,-0.118107,0.612947,0.781247
0.476434,-0.234079,0.794287,0.908446,-0.393968,-0.139694
0.297500,0.018348,0.791615,-0.093973,0.045240,0.994546
-0.044912,0.358446,0.670807,0.636805,0.256252,-0.727196
-0.395479,-0.344415,0.694145,0.578399,0.215301,0.786829
-0.473042,0.000376,0.600223,-0.295315,-0.502535,-0.812556
0.401416,-0.324066,0.721324,-0.325446,0.032695,0.944995
-0.333377,-0.214727,0.294841,0.746706,-0.288117,-0.599515
-0.209107,-0.477550,0.531768,-0.187965,0.551969,-0.812403
0.179490,-0.087921,-0.117851,-0.073077,0.997304,0.006604
-0.015297,-0.045087,0.969119,0.212290,-0.945881,0.245441
0.179295,0.143090,0.810389,-0.355952,0.679345,0.641708
0.491244,0.265389,0.562760,0.201347,0.448413,0.870853
-0.230763,-0.591582,0.533020,-0.404927,0.111140,0.907569
0.247073,0.361511,0.720544,-0.030778,-0.146557,0.988723
0.665809,-0.447994,0.276081,-0.258928,-0.698625,0.666993
0.192930,0.705427,-0.989340,-0.160989,0.191566,0.968187
0.229395,-0.207527,0.704429,0.613831,0.109499,-0.781807
-0.569001,-0.164757,0.599207,-0.039575,-0.232378,0.971820
0.216347,0.180852,0.782444,0.880595,-0.460429,-0.112061
