0.561545,0.202900,0.771443,-0.394494,-0.394551,-0.829882
0.613018,0.472068,0.533700,0.201221,-0.505160,0.839240
0.391267,-0.232985,0.706688,0.708286,0.614807,0.346905
-0.030781,-0.552788,0.471875,-0.299003,-0.267445,0.916008
-0.133178,0.194137,-0.016019,0.281941,0.772409,0.569116
0.684422,0.307247,0.772988,0.909083,-0.415294,0.033152
-0.436602,-0.433272,0.531004,-0.918659,0.036781,0.393335
-0.377534,-0.194547,0.384531,0.060047,0.570462,0.819126
0.667892,0.685680,0.522144,0.708100,0.703979,-0.054844
-0.158580,0.256560,0.534825,-0.212736,-0.011332,0.977044
0.353043,0.024446,0.921790,-0.316495,-0.425667,-0.847726
-0.632585,0.143809,0.558304,0.935127,0.248948,0.252115
0.260187,0.323391,0.757584,0.843687,0.536655,0.013917
0.010544,-0.118491,0.835676,0.789220,0.518619,0.328885
0.205919,-0.022602,0.560987,-0.627761,0.611605,0.481514
0.449608,-0.080771,0.854482,0.462645,-0.140578,-0.875327
0.456959,-0.135352,0.708533,-0.023005,0.515316,0.856692
-0.206771,0.389299,0.499346,0.989362,-0.044757,0.138422
-0.298473,-0.272294,0.523191,0.856768,-0.449165,-0.253375
-0.047431,0.081437,0.589412,-0.656439,-0.508471,0.557265
0.170672,0.017579,0.522706,0.696265,0.711174,-0.097192
-0.318891,0.866953,0.280513,0.263727,0.283309,-0.922055
0.354137,0.795151,0.445308,-0.156249,-0.357866,0.920607
-0.328797,-0.048945,0.132967,0.253054,0.170511,-0.952308
-0.515420,0.294024,0.446447,-0.156922,0.319796,0.934401
0.473429,0.129817,0.603455,-0.312578,0.920699,-0.233686
0.430647,0.003895,0.805235,0.223123,0.949372,-0.221156
-0.544529,-0.352296,-0.203377,-0.549129,-0.742063,0.384448
0.302300,0.365160,0.726436,0.257704,-0.449533,0.855283
0.245662,-0.644014,0.548698,-0.009132,0.190504,0.981644
0.317068,-0.023729,-0.008036,-0.202517,0.979163,-0.015067
0.373157,0.267169,0.826632,0.877077,-0.225637,0.424056
0.051928,0.387864,0.571025,0.816972,0.561743,-0.130389
0.619154,0.243594,0.505627,-0.592730,-0.494755,-0.635523
-0.333719,-0.533364,0.510967,0.090749,0.518518,0.850237
0.622253,0.009584,0.857846,-0.801892,0.033801,0.596512
-0.104859,0.155186,0.451878,0.222049,0.002501,0.975032
-0.250768,-0.523729,0.139066,0.222028,-0.039207,0.974252
0.053082,-0.216585,0.642547,-0.199262,0.822585,0.532587
-0.539607,-0.286081,0.159743,0.055347,-0.223491,0.973133
-0.216310,-0.188397,0.578890,-0.427681,0.244459,0.870247
-0.196986,-0.827081,0.332286,0.906270,-0.242406,-0.346287
0.687643,0.000871,0.761785,0.337159,0.398734,0.852839
-0.425359,-0.424867,0.398089,-0.715974,0.243407,0.654319
0.260977,-0.195111,0.708363,-0.786947,0.613513,0.065698
0.043785,-0.252255,0.671038,-0.197787,-0.073470,0.977488
-0.203306,-0.498104,0.376718,0.940416,-0.329493,-0.083978
0.274649,0.136224,0.737639,-0.284272,-0.174305,-0.942766
0.337244,-0.167179,-0.340060,0.961227,-0.275274,0.016337
0.110085,-0.323493,0.672870,0.933411,0.289920,0.211403
0.106255,0.202645,0.770632,0.540232,0.841340,0.017184
0.097202,0.401445,0.636618,0.523124,0.830822,0.189937
0.136155,-0.467405,0.528818,0.911957,0.406897,-0.052615
-0.098659,-0.200287,0.706243,0.723182,-0.103086,0.682921
0.682903,0.358600,0.508140,-0.370621,0.346421,-0.861761
-0.325271,-0.118850,0.537207,0.849198,0.477109,0.226339
0.741060,-0.033877,0.812380,-0.635160,0.687037,0.352919
-0.494820,-0.440754,0.314187,0.179072,0.952125,0.247773
0.444077,0.018860,0.844510,0.212828,0.640022,0.738293
-0.304609,-0.566318,0.498874,0.346791,-0.777835,-0.524126
0.174075,0.131150,0.472320,-0.732323,-0.661347,-0.162244
0.371032,0.753741,0.401152,-0.287937,0.955444,0.064952
0.612105,-0.004561,0.725271,0.985234,0.166162,-0.041270
0.552125,-0.239135,0.592920,-0.275876,0.827754,0.488585
0.277323,-0.037720,0.932169,-0.622370,0.707920,0.333923
-0.530188,0.373565,0.428242,0.887077,-0.227816,0.401490
-0.015162,-0.212946,0.636291,0.386245,-0.258279,-0.885498
0.327033,0.610906,0.456288,-0.292506,-0.356114,0.887481
0.058977,-0.121207,0.777948,0.816576,-0.481158,0.318891
0.398559,0.210434,0.567282,-0.311732,-0.681833,-0.661760
0.607002,-0.053505,0.716372,0.791916,-0.608830,-0.046856
-0.161436,0.441677,0.484282,0.913301,0.245922,0.324658
0.048950,-0.655853,0.443005,0.334209,-0.854112,0.398492
0.071435,0.451312,0.656786,-0.056002,-0.464591,0.883753
0.261220,-0.249488,0.734066,-0.719017,0.530018,0.449550
0.140652,-0.044127,0.798011,0.206886,0.333649,-0.919715
-0.449242,-0.483292,0.011425,-0.391348,-0.051670,0.918791
0.071920,0.065037,0.715849,-0.590529,0.097042,-0.801160
0.407068,0.533518,0.463604,0.460409,0.268981,-0.845974
-0.178086,-0.586511,0.496257,-0.193414,0.694444,0.693064
-0.057884,-0.257841,0.634878,0.414028,-0.700005,-0.581871
0.279389,-0.049764,-0.279204,0.761589,-0.643228,0.079001
0.344961,0.406365,0.724316,0.778335,-0.109200,0.618280
-0.297074,-0.156775,0.229015,-0.403115,0.504837,0.763307
-0.308013,0.364596,0.465031,0.423546,-0.313054,-0.850062
0.634590,-0.040898,0.703390,0.757410,0.487898,-0.433920
0.283462,0.779828,0.406059,-0.662446,0.043369,0.747853
0.388776,0.158518,0.862754,0.992869,-0.066820,-0.098721
0.484429,-0.026445,0.797238,0.444501,-0.089936,0.891252
0.512017,-0.221402,0.836487,0.820555,-0.304906,-0.483448
-0.399411,-0.434759,0.481167,-0.332621,0.665956,0.667732
0.392361,0.257739,0.440557,-0.225662,-0.162107,0.960624
-0.375164,-0.526445,0.367373,0.271376,0.471635,0.838997
-0.161983,0.398062,0.523910,0.225758,0.361072,0.904799
0.262921,0.247591,0.227366,0.173877,-0.341413,0.923691
-0.027074,-0.165847,0.625573,0.951505,-0.290648,-0.100806
-0.577832,0.363110,0.434472,0.965227,-0.077676,0.249604
-0.456778,0.679992,0.485578,0.000695,-0.912533,0.409002
0.204521,-0.148986,0.543724,-0.802145,0.334335,-0.494756
0.677130,0.125512,0.611621,0.464496,0.440149,-0.768448
-0.319984,-0.054121,0.578236,-0.725927,0.591827,-0.350385
0.299263,0.592353,0.405470,0.488501,0.459417,-0.741824
-0.491417,0.665590,0.251708,-0.255196,-0.172797,0.951323
0.298836,0.027983,0.916451,0.143948,0.225329,0.963590
0.479566,0.152521,0.608546,-0.325866,0.919901,-0.218158
0.009875,-0.322468,0.466837,-0.295533,0.484852,0.823152
0.482787,0.489237,0.525507,-0.436534,0.259533,0.861441
0.202090,0.659440,0.378314,0.923922,-0.089537,-0.371956
-0.787123,0.145910,0.327810,0.409345,0.521010,-0.748990
-0.431862,-0.176301,0.161510,-0.574722,-0.043381,0.817198
-0.381909,-0.475246,0.137482,0.332606,0.202506,-0.921067
-0.028897,0.052685,0.744667,0.197310,0.961991,0.188790
0.208046,0.504203,0.624120,-0.279222,-0.056565,-0.958559
-0.139315,-0.207309,0.576744,-0.481971,0.540098,-0.689926
-0.523990,0.341431,0.424957,0.984673,-0.090980,0.148803
-0.369877,-0.325543,0.492161,-0.415545,0.354718,-0.837554
0.210112,-0.463561,0.715613,0.403627,0.904581,0.137181
0.142293,0.625102,0.381822,0.978456,0.204681,-0.026998
-0.611499,0.160260,0.527222,0.868276,0.238748,0.434851
0.371457,0.037515,-0.192527,0.913045,0.407039,-0.025833
-0.006958,-0.127665,0.855254,0.740906,-0.671255,0.021802
0.010360,0.146525,0.284570,0.171858,0.944725,-0.279211
-0.422442,0.343891,0.503062,-0.109055,-0.431522,0.895486
-0.043724,-0.500308,0.503494,0.254246,0.198389,0.946573
-0.121571,-0.352398,0.566811,0.866375,-0.447337,0.221999
-0.369330,-0.663489,0.524840,0.960657,0.274790,0.040343
-0.021848,-0.570931,0.494896,0.144830,-0.863686,0.482774
-0.489837,-0.664206,0.368316,-0.216087,-0.767883,0.603043
0.691714,0.075749,0.735597,0.849881,0.346603,-0.396949
0.554191,-0.487905,0.568185,0.571966,0.803492,-0.165090
0.376197,-0.157339,0.700654,-0.563390,0.826182,-0.003797
0.338336,0.202850,0.495354,-0.168455,0.133254,0.976661
-0.394732,-0.201312,0.385120,0.026307,0.562526,0.826361
-0.155116,0.350554,0.465227,0.525752,0.005356,0.850621
-0.576374,-0.022602,-0.025703,-0.444539,-0.250653,-0.859976
-0.328735,0.376845,0.507277,0.124447,0.990760,-0.053922
0.282429,-0.461357,0.532757,-0.488872,-0.418941,0.765175
-0.037647,-0.114084,0.807224,0.977791,-0.038215,-0.206067
0.387803,0.610803,0.430297,0.922364,-0.158147,0.352469
0.303758,0.221966,0.815024,0.782405,-0.586201,0.210262
-0.567804,-0.504510,0.269808,-0.063619,-0.601414,0.796400
-0.085412,0.175328,0.659822,0.805104,-0.126498,0.579487
0.262800,0.570982,0.400196,-0.482111,-0.542847,0.687667
0.222631,-0.441523,0.528138,0.321874,0.535274,-0.780947
0.264805,0.205822,0.221895,-0.314743,-0.296373,0.901721
-0.176872,-0.470839,0.369402,0.997158,-0.064705,0.038593
0.187201,-0.445213,0.075226,-0.484127,0.848525,0.213604
-0.433442,0.184040,0.504908,0.462949,0.243356,0.852324
0.172921,0.231140,0.703285,0.018189,0.052228,0.998470
0.272644,0.111008,-0.388169,0.882888,0.466603,-0.052829
-0.757163,0.023524,0.254037,0.160155,0.893650,-0.419213
0.027074,-0.545664,0.581638,-0.426652,-0.320114,-0.845869
0.615874,0.033774,0.757361,-0.686322,0.724066,-0.068485
0.361733,0.839637,0.398037,0.427786,-0.324394,0.843663
-0.106682,0.613263,0.691506,0.787850,-0.056701,0.613251
0.709156,0.001589,0.751014,0.908364,0.262400,0.325607
-0.047127,-0.106652,0.701479,0.660999,0.738530,0.132872
0.387864,0.013223,-0.715260,0.034358,0.998061,0.051906
-0.157972,0.110906,0.632600,-0.323891,0.455718,-0.829105
-0.334084,-0.156314,0.371339,0.129889,0.481910,0.866540
0.473368,0.305094,0.627771,0.882461,-0.232266,-0.409043
0.303152,-0.037259,-0.442364,0.853018,0.143932,-0.501641
0.291483,0.844096,0.426580,0.886634,0.251451,-0.388140
0.099510,-0.559451,0.475815,0.504210,-0.308893,0.806447
-0.162469,0.315344,0.512263,-0.301878,-0.895555,0.326881
0.133785,0.040744,0.818086,0.385048,0.876153,-0.289990
0.147338,-0.724529,0.426633,0.122535,-0.052250,-0.991088
0.331105,0.074518,0.953265,0.734410,-0.402001,-0.546842
-0.297985,-0.276446,0.142128,0.425451,-0.097417,0.899723
0.185925,0.302326,0.543895,0.077852,-0.115518,0.990250
0.601045,0.159031,0.416529,0.624451,0.480978,0.615403
0.763059,0.160670,0.507433,0.343906,0.597960,0.723997
-0.062442,-0.150882,0.676338,-0.671339,-0.687842,0.276003
-0.389505,-0.616390,0.479374,-0.161271,-0.966460,0.199869
0.116406,-0.709256,0.541421,0.105551,0.964127,0.243554
-0.196319,-0.208589,0.771090,0.820555,0.511446,0.255172
-0.148067,-0.100553,0.382044,0.363234,0.596583,-0.715647
0.527938,-0.171843,0.469755,-0.046695,0.032443,0.998382
-0.518823,-0.233805,0.393574,-0.250890,0.298278,-0.920915
0.190180,-0.494260,0.724539,-0.606340,0.432569,0.667260
0.588163,0.030443,0.820730,-0.020376,-0.998510,0.050631
-0.674274,0.193932,0.134707,-0.692957,0.630659,0.349399
-0.567257,0.161490,0.483575,0.204215,-0.897166,0.391650
-0.360762,-0.369414,0.003664,-0.171759,0.066421,0.982897
0.327763,0.218532,0.846774,0.960715,-0.272871,-0.050684
0.479445,0.024805,0.719840,0.655635,0.429576,-0.620972
0.373341,0.289155,0.496192,0.390909,0.324132,-0.861469
-0.308135,-0.525369,0.497762,0.091865,0.600888,0.794037
-0.077512,-0.480986,0.490276,-0.515371,0.781517,-0.351602
0.793200,0.107728,0.631017,0.751939,-0.582019,-0.309583
-0.482179,-0.563499,0.273734,-0.324342,-0.412494,0.851264
-0.644313,0.073545,0.457440,-0.608048,-0.258386,-0.750676
0.017836,0.060219,0.723295,-0.111164,0.957459,-0.266300
0.302725,0.007380,0.704947,0.314603,-0.947866,-0.050749
0.031814,0.021422,0.776417,0.489343,0.298594,0.819381
0.767313,-0.302019,0.655778,0.852713,0.471912,-0.224008
0.231746,-0.019680,0.881612,0.557793,0.747651,-0.360396
-0.678163,0.137044,0.460071,0.583838,-0.350453,0.732336
-0.228039,-0.103218,0.746839,0.322037,0.577606,0.750109
0.054115,0.879613,0.291807,-0.572097,-0.353202,-0.740239
-0.142050,-0.121823,0.571404,0.169658,0.199281,0.965144
-0.037343,0.320162,0.543083,0.437384,0.426106,-0.791915
0.017593,0.544947,0.669284,0.090582,0.738858,-0.667745
0.265230,0.137608,-0.382816,0.882888,0.466603,-0.052829
0.611801,0.358600,0.804214,-0.257174,0.725337,-0.638551
-0.094466,0.569444,0.604057,-0.671925,-0.041092,-0.739478
-0.017107,-0.316933,0.665541,0.644690,-0.024531,0.764050
-0.401234,-0.604295,0.495603,-0.180728,0.847175,0.499631
-0.179909,-0.422766,0.408808,-0.670566,-0.334146,-0.662335
0.624017,-0.100810,0.781259,0.827797,-0.110411,-0.550056
0.643280,0.706745,0.532927,0.752849,0.658123,0.009581
-0.081280,0.466226,0.579846,-0.727167,0.369737,-0.578379
0.348364,0.042692,-0.138464,0.729014,-0.682409,-0.053443
-0.174075,-0.312321,0.422039,-0.566500,0.640333,-0.518702
0.315731,-0.189320,0.784649,0.243838,-0.951541,0.187386
-0.292334,0.060732,0.323112,0.325663,0.514525,0.793226
0.324967,0.389555,0.443397,0.746176,-0.130285,-0.652876
-0.464921,-0.542436,0.269611,0.118738,-0.226716,0.966696
-0.014615,-0.541359,0.117262,-0.268464,0.702710,-0.658883
-0.272826,0.222376,-0.016909,0.240579,0.324830,0.914662
-0.366778,-0.572930,0.488012,-0.397642,0.917067,-0.029465
0.125035,0.316677,0.717890,-0.042875,-0.685924,0.726409
0.653004,-0.405289,0.620377,0.371083,-0.347748,0.861027
-0.119019,-0.848042,0.400602,0.741267,-0.203156,0.639728
-0.501079,0.029930,0.502670,-0.620067,-0.366488,0.693688
-0.096108,0.011070,0.510823,-0.005375,0.730672,0.682707
0.380086,0.019270,-0.946853,0.441622,0.766817,0.465791
-0.155479,-0.471197,0.377647,0.726061,-0.458039,-0.512870
-0.538513,0.181222,0.152519,-0.023187,-0.047337,0.998610
0.507399,-0.137301,0.820665,0.072254,0.757491,0.648835
0.293002,0.089227,0.783078,-0.210528,0.932455,0.293608
0.627298,0.037669,0.857021,0.745122,0.139718,-0.652128
0.557351,0.544588,0.538333,0.545193,0.265079,-0.795297
0.059706,0.232780,0.690368,0.527848,0.002283,0.849336
0.151286,0.084922,0.525481,0.976596,-0.189436,-0.101858
0.358087,0.028137,-0.813990,-0.219866,0.975522,0.003873
-0.638602,-0.293512,0.034773,-0.230915,-0.888371,0.396832
-0.042691,0.916923,0.290852,0.109576,0.416662,0.902433
0.354562,0.578157,0.456550,0.462773,0.043508,-0.885408
0.498162,0.316933,0.795773,-0.166691,-0.840204,0.516015
0.524476,-0.097376,0.551642,-0.191452,-0.016125,0.981369
0.326547,0.065344,0.947323,0.309604,-0.422932,0.851630
-0.082130,-0.116493,0.721764,-0.649349,0.357420,-0.671265
-0.322597,-0.041974,0.513467,0.426422,0.140832,0.893494
-0.318830,0.070521,0.546381,0.478051,0.087316,0.873981
-0.121571,0.001332,0.663343,0.724402,0.252002,0.641668
-0.117925,-0.519117,0.414710,0.732105,0.018639,0.680936
0.762754,0.107985,0.514422,-0.463020,-0.500433,-0.731560
0.244752,0.365980,0.690394,-0.476587,0.816133,0.326790
-0.697001,0.146064,0.476286,-0.709183,0.461138,-0.533302
-0.165507,-0.185988,0.772373,-0.811782,-0.493132,-0.312780
0.430404,0.059143,0.709253,0.809924,-0.494213,0.315874
0.578197,-0.193676,0.842769,0.882540,-0.270198,-0.384857
0.379478,0.314114,0.860097,0.880694,-0.463928,-0.095648
-0.003554,0.578618,0.663944,-0.610096,-0.767629,0.196287
-0.103461,0.159184,0.677909,-0.314453,0.608348,-0.728719
0.299263,0.374795,0.366549,0.866855,0.426740,-0.257790
0.447237,0.514145,0.457571,-0.304323,-0.440647,0.844522
0.471970,-0.346044,0.638202,-0.570465,0.068406,0.818469
0.008780,-0.745849,0.427156,-0.578647,-0.408577,0.705856
0.433078,0.318880,0.793718,-0.296831,0.954926,0.002694
-0.192368,0.115621,0.264612,0.055047,-0.895190,0.442272
-0.282429,-0.018040,0.402604,-0.065273,-0.355844,0.932263
-0.791741,-0.239135,-0.256092,0.045725,0.984054,0.171890
-0.314880,-0.121618,0.374454,0.155984,-0.446003,0.881334
-0.719486,0.080054,0.471875,0.809814,-0.085929,0.580360
-0.582025,0.134891,0.521699,-0.590696,-0.457689,-0.664529
-0.780317,0.055095,0.407028,-0.464551,0.173072,0.868469
-0.400019,-0.396217,0.247310,-0.121914,0.751059,0.648881
0.315366,-0.722632,0.537861,0.570683,0.499863,0.651504
0.312024,0.002716,0.155412,0.773920,-0.626440,0.092848
-0.184588,-0.402829,0.616686,0.697420,0.631897,0.338099
-0.347149,0.157800,0.641225,0.856778,0.330753,0.395644
-0.127283,0.268143,0.186834,0.368033,-0.335592,0.867139
-0.201361,-0.351271,0.599542,0.958149,0.135526,0.252158
-0.068640,0.268194,0.515338,0.339756,0.917144,0.208359
-0.470876,0.443214,0.412629,0.890193,0.000418,0.455582
-0.180638,-0.692138,0.413663,-0.515651,0.043109,0.855713
0.465286,0.356140,0.807774,0.378882,-0.546518,0.746838
-0.276474,-0.523319,0.438712,0.519427,-0.661237,-0.541259
0.394307,0.337126,0.863827,0.860453,-0.488631,-0.144430
-0.079700,-0.337792,0.722209,-0.055878,0.185708,0.981015
0.454287,0.769116,0.437050,-0.173949,0.656956,0.733587
0.305824,0.440293,0.379204,0.800485,0.419489,-0.428080
-0.411565,0.143348,0.665829,0.787107,0.325906,0.523686
0.313665,0.419229,0.725337,0.490407,-0.047605,0.870192
-0.168242,-0.358241,0.600471,-0.551737,-0.621895,-0.555728
0.172740,0.013735,0.863028,0.203723,0.970412,0.129607
0.170369,-0.403239,0.686952,0.048258,0.654887,0.754184
-0.297013,0.149907,0.623727,0.961246,0.266996,0.068694
0.181126,0.405289,0.716791,-0.444792,0.546014,-0.709950
-0.117498,-0.118953,0.733058,0.443447,-0.073147,0.893311
0.185621,0.223811,0.723819,0.756627,0.567727,-0.324347
0.311597,0.020603,0.950713,0.779756,0.622455,0.067316
-0.048646,-0.480013,0.478026,-0.122648,-0.217363,0.968355
-0.049620,0.022089,0.659089,0.069653,0.334681,0.939754
0.343989,0.242364,0.817485,-0.551854,0.809223,-0.201535
-0.275684,-0.274754,0.431933,0.901642,-0.287535,-0.323056
0.194677,-0.003537,0.705340,0.640904,0.028743,0.767082
-0.168242,0.092660,0.215273,-0.301828,0.891408,0.338069
-0.312206,-0.559861,0.402408,-0.318378,0.906697,-0.276652
0.432713,-0.059861,0.739236,0.945850,-0.252248,-0.204299
0.297013,0.135762,0.893731,0.903268,0.255954,-0.344374
-0.200024,-0.181939,0.406923,0.170871,0.929425,0.327067
0.490747,0.116031,0.766732,-0.137104,0.903531,0.405997
0.304428,-0.027470,0.095930,-0.656999,0.746060,-0.108378
-0.287412,-0.636787,0.299359,-0.120820,0.282409,0.951655
0.279877,0.134840,0.888300,0.987364,-0.158073,-0.011221
0.156026,0.619875,0.354888,0.803317,0.178336,-0.568224
0.183069,0.330719,0.667072,-0.610813,-0.769684,-0.185724
0.578317,-0.181273,0.653069,-0.571852,-0.537070,0.620114
0.356264,-0.164104,0.834472,0.788933,0.600033,0.132459
0.047006,0.020808,0.111988,0.170043,-0.031505,0.984933
-0.222084,-0.423996,0.471614,-0.698504,0.085944,-0.710427
-0.188722,0.552070,0.378367,0.998130,-0.054907,0.026862
-0.268331,-0.528905,0.292331,0.350909,0.603269,0.716191
0.639939,-0.131561,0.796309,-0.680599,0.725294,0.103606
0.676887,-0.110291,0.609253,0.822836,0.256590,0.507053
-0.065298,-0.117364,0.727378,-0.687335,0.182227,-0.703110
0.306069,-0.123309,0.870030,-0.603249,-0.379713,-0.701362
0.333718,0.015427,0.663002,0.191847,-0.981392,-0.007978
0.463402,0.587536,0.468289,0.442519,0.219541,-0.869470
0.667831,0.250102,0.590080,-0.593040,0.537714,0.599306
0.643889,-0.218122,0.619762,-0.894213,0.400057,-0.200842
0.041901,-0.151856,0.756262,0.768590,0.593740,0.238206
-0.166966,0.139401,0.601544,-0.661240,0.670779,-0.335882
-0.425298,-0.292794,0.387358,0.157896,0.382971,-0.910166
0.530006,0.792128,0.498835,0.323481,0.557142,-0.764822
-0.073866,-0.266144,0.574807,-0.206629,0.602291,0.771070
0.303333,0.950030,0.413257,0.335751,-0.020867,0.941720
-0.397102,0.467353,0.572988,0.880572,-0.399303,0.255244
0.045061,-0.600143,0.268865,-0.249862,-0.340149,-0.906569
-0.157972,-0.750410,0.361104,0.904901,-0.000318,-0.425622
-0.446144,0.292640,0.493561,0.307365,0.016554,-0.951448
-0.077755,-0.346351,0.748946,-0.350715,-0.895564,-0.273796
0.100362,0.117005,0.809580,-0.633961,0.433496,-0.640449
-0.051563,0.219096,0.661196,0.421401,-0.678583,0.601621
0.177904,-0.456796,0.694098,-0.332431,-0.305117,-0.892409
0.225183,0.228116,0.788104,0.530725,-0.109631,0.840423
0.322901,0.186552,0.870959,0.866841,-0.433556,-0.246202
-0.096837,0.420972,0.571535,0.382734,-0.697011,0.606375
0.335480,-0.059297,0.718505,0.463403,0.489839,0.738455
0.521073,-0.099170,0.465319,-0.154142,0.086764,0.984232
-0.433078,0.427532,0.561065,-0.118194,0.819612,0.560595
-0.106682,0.679582,0.265292,0.778831,0.218343,-0.588004
0.664854,0.359983,0.752977,0.845115,-0.529590,0.072900
0.351706,-0.134122,0.831907,0.975190,0.043841,0.216986
0.525813,0.203823,0.712747,-0.218563,0.789101,-0.574064
0.521863,-0.322263,0.702303,-0.615873,0.697316,0.366676
0.195406,0.467507,0.648750,0.754185,0.468386,0.460238
-0.368478,-0.799354,0.137155,-0.502518,0.098761,-0.858907
-0.420013,-0.833897,0.250936,-0.417150,-0.205704,0.885252
-0.278114,-0.557247,0.435179,-0.446569,-0.191394,-0.874039
0.135548,0.244875,0.556694,-0.564762,-0.723642,0.396719
-0.595637,-0.560220,0.387803,-0.514840,-0.353585,-0.780972
0.273191,-0.085589,0.845910,0.779413,0.625871,0.028292
0.468142,0.327798,0.519788,0.179701,0.374820,-0.909515
-0.407615,0.166820,0.492265,0.656921,0.727915,0.196458
-0.348668,-0.294998,0.146093,0.400607,-0.046242,0.915082
0.296892,0.328977,0.604829,0.838571,-0.132720,0.528378
0.429005,-0.279059,0.722759,-0.097036,0.958252,0.268957
0.356264,-0.042179,0.856315,-0.224716,-0.190607,-0.955600
0.454468,0.417743,0.521686,-0.344085,-0.224924,0.911600
0.274347,0.041000,0.618754,0.223841,0.947308,0.229136
-0.230956,0.132329,0.693273,0.545035,-0.798698,0.254987
0.293792,0.055658,0.870619,-0.666568,0.652040,0.361290
0.434170,0.288130,0.701178,-0.199826,0.974204,-0.104860
0.271611,0.002306,0.665332,-0.020497,0.993747,0.109755
-0.481632,-0.518963,0.120233,0.572466,0.253059,-0.779900
0.645589,-0.034697,0.425075,0.910233,0.389377,0.140928
-0.385069,0.381201,0.224931,0.690542,-0.140892,0.709438
0.361186,0.023832,0.772661,0.813697,0.578864,-0.053044
0.257756,0.089073,0.850163,0.809711,0.482385,0.334174
0.150375,-0.114032,0.704044,-0.804558,0.206167,0.556940
-0.092643,0.103064,0.663800,0.661052,-0.367978,0.653913
-0.485521,-0.477143,0.501387,-0.149094,-0.652818,0.742698
-0.038984,-0.273062,0.727378,0.318961,0.263930,0.910277
-0.555165,0.266861,0.447546,-0.264176,-0.346083,-0.900243
0.172860,-0.595685,0.596257,-0.735528,-0.570943,-0.364722
0.016074,-0.074364,0.844745,0.798244,-0.601672,0.028241
-0.950777,-0.084358,0.333556,0.721666,0.090057,-0.686358
0.481936,0.132278,0.714082,-0.842729,0.511474,0.167935
0.110814,-0.115826,0.763957,-0.701563,0.682013,-0.206560
0.513840,0.359419,0.522013,-0.118367,-0.331934,0.935847
0.128315,0.245643,0.676508,0.852679,0.284005,0.438498
-0.114642,0.549457,0.595341,0.911080,-0.409707,-0.045543
0.659628,0.324979,0.779689,0.806910,-0.434316,0.400332
0.354259,0.009276,0.956930,-0.717337,-0.692706,0.074734
-0.063534,0.036285,0.596270,0.572677,0.657705,-0.489352
0.322537,0.791871,0.429224,0.771113,0.253171,-0.584199
-0.092643,-0.205310,0.387043,0.347885,0.241183,0.905984
0.060010,0.384481,0.678550,-0.447750,-0.837523,-0.313170
0.148734,0.293716,0.557977,-0.615810,-0.660603,0.429397
0.147458,-0.770859,0.437102,0.013453,0.342618,0.939379
0.238309,0.278393,0.632221,0.736226,-0.286192,0.613242
0.438243,0.074774,0.881494,0.668086,0.666505,0.330805
0.246514,-0.063653,0.933935,0.991357,-0.027826,0.128205
-0.026588,-0.151548,0.750752,-0.109476,0.979516,0.169005
-0.500775,-0.052481,0.038922,0.389539,-0.712026,-0.584190
-0.210537,-0.035260,0.509397,0.922952,0.155414,0.352144
-0.385374,-0.662926,0.295537,0.887944,0.137169,-0.439022
-0.265777,-0.494517,0.416974,0.082291,-0.344777,0.935071
0.558021,0.835485,0.517380,0.553982,0.631882,-0.542060
0.248094,-0.128946,-0.442704,0.806629,-0.416630,-0.419249
0.676583,0.191011,0.613886,-0.514408,0.130998,0.847481
0.343076,-0.164566,0.795576,0.607026,-0.782838,0.136690
0.697609,0.040539,0.760921,-0.661164,-0.256785,-0.704928
0.005985,0.601066,0.647402,0.726064,0.659242,0.195526
0.669899,-0.242569,0.455372,-0.045116,0.946735,0.318838
-0.172921,-0.605628,0.499856,-0.293275,0.660331,0.691341
-0.409134,0.085639,0.134891,0.103410,-0.564307,0.819063
-0.422808,0.043511,0.550831,-0.667726,0.194848,-0.718454
-0.376075,0.084000,0.568996,-0.440351,-0.382120,-0.812450
0.593632,0.134481,0.534629,0.401652,0.758677,0.512919
0.042873,-0.122796,0.853043,-0.628414,0.777112,-0.034536
-0.279998,-0.631970,0.358121,-0.329848,0.730299,0.598217
-0.363679,-0.339740,0.377346,0.342327,0.693464,-0.633972
-0.445110,-0.498514,0.497291,0.247826,-0.335336,0.908918
0.264440,0.029827,0.352912,0.521232,0.797676,0.303365
0.108019,-0.092712,0.830441,0.409667,-0.139870,-0.901448
-0.637144,0.228680,0.537940,0.898203,0.133750,0.418740
-0.437696,-0.337126,0.462086,0.448939,0.819226,0.356824
0.006167,-0.222581,0.689726,0.891782,-0.302673,0.336326
-0.499742,0.066575,0.144719,-0.053227,-0.517744,0.853879
0.686974,0.155135,0.505366,0.052299,0.614262,0.787367
-0.366778,0.106037,0.555817,-0.700921,0.119946,-0.703081
-0.021178,-0.210127,0.715469,0.751545,0.451745,0.480736
0.318830,0.028290,-0.367059,0.959016,0.278436,-0.052552
-0.007748,-0.186655,-0.013415,-0.808923,0.138832,-0.571287
-0.193644,-0.151599,0.610849,-0.718134,0.694369,-0.046214
-0.159429,-0.192036,0.225245,0.119073,0.204656,0.971564
-0.122908,-0.306837,-0.013781,-0.169744,0.669679,0.722992
0.335541,-0.250513,0.751171,0.488790,0.533623,0.690167
0.462489,-0.116902,0.808546,-0.128226,0.904336,0.407104
-0.174440,-0.136429,0.536775,0.843105,0.269220,-0.465505
-0.453556,-0.467302,0.004711,-0.357146,-0.111054,0.927423
0.347999,-0.143501,0.843999,0.594396,0.803662,0.028654
0.007747,-0.058528,0.336684,0.108217,-0.152701,0.982330
-0.312144,-0.812218,0.382869,0.470851,0.419031,-0.776346
0.397040,0.599170,0.426921,0.691135,-0.084699,0.717745
0.615265,-0.341585,0.617707,0.504498,-0.450980,-0.736274
0.404332,0.788540,0.433988,0.372745,-0.144873,0.916555
0.437939,0.674508,0.470292,0.691036,0.548317,-0.470976
-0.117074,-0.339227,0.730101,0.738152,0.674245,-0.022898
0.436783,-0.197059,0.592776,0.602050,0.704596,0.375606
0.089667,0.487084,0.266078,0.331873,-0.237176,0.913021
0.381241,0.006714,-0.145413,0.858034,-0.513085,-0.022830
0.420437,0.172970,0.779453,0.936699,-0.000907,0.350136
0.271003,0.073596,-0.040767,-0.532350,-0.846319,-0.018626
0.295858,0.118286,0.899463,0.937000,0.133382,-0.322861
0.138768,-0.540949,0.568093,-0.807038,-0.542158,-0.233995
0.334813,0.050584,-0.035113,0.567621,0.792899,0.221626
0.585550,-0.211614,0.645072,-0.202425,-0.303517,0.931075
0.368844,0.264709,0.329525,0.954383,-0.077348,0.288393
-0.375954,-0.573442,0.303285,0.911419,0.310014,-0.270566
-0.361368,0.568266,0.497500,0.254800,0.462975,-0.848959
0.571329,-0.395859,0.621502,-0.837919,0.545712,0.009554
-0.076418,-0.597632,0.516529,0.021334,0.914215,0.404668
-0.186716,-0.230064,0.517000,0.523476,0.456266,-0.719579
-0.134514,0.143758,0.678249,0.552611,-0.566115,0.611665
-0.286196,-0.567190,0.506439,0.132754,0.660839,0.738694
-0.091672,-0.675225,0.412616,-0.037565,0.346237,0.937395
0.015648,0.444957,0.574558,0.781578,0.566195,-0.261837
-0.114583,-0.261532,0.728085,0.749472,0.661992,-0.007677
0.264015,0.081180,0.769677,-0.213534,-0.802337,0.557367
-0.367264,-0.310169,0.155712,0.174270,-0.100824,0.979522
0.175169,0.259993,0.698089,-0.321320,-0.271804,0.907125
0.302362,0.012300,-0.675396,0.091691,0.995286,-0.031591
0.580810,0.305965,0.507957,0.051949,-0.449276,0.891881
0.374860,0.065395,0.760555,0.841300,-0.033305,0.539542
0.313908,0.486316,0.737364,0.137314,-0.840791,0.523655
0.225305,-0.232011,0.520115,0.932734,0.312221,-0.180347
0.363191,0.376384,0.798704,0.957576,0.118219,-0.262817
0.237580,0.373616,0.341866,0.343567,0.826599,-0.445753
-0.292881,0.405596,0.400249,0.523859,-0.439155,0.729873
0.254473,-0.159287,0.798207,0.936336,-0.281172,0.210280
-0.141685,-0.424713,0.163905,-0.198894,-0.662354,0.722307
0.290632,0.644731,0.269245,-0.405837,0.357279,-0.841218
-0.437210,0.405801,0.572922,0.241527,-0.918286,0.313712
-0.048221,-0.472427,0.005915,0.035873,0.035639,0.998721
-0.355050,-0.475553,0.434066,0.886701,0.145400,0.438885
0.415272,0.473657,0.465266,0.527365,0.453305,-0.718610
-0.073198,0.661541,0.271313,0.503481,0.306721,-0.807731
0.457081,0.737905,0.430205,0.173906,0.296806,0.938969
0.416791,0.241902,0.817956,0.976426,-0.043563,0.211412
0.317250,-0.323544,0.767190,-0.316448,0.486930,0.814101
0.318950,0.533620,0.400157,-0.554889,-0.395283,0.732017
-0.044636,-0.160927,0.549221,0.257969,0.838692,-0.479634
0.341192,0.010404,0.923806,0.293461,0.809492,0.508530
0.212725,0.021474,0.657676,0.262220,-0.936417,0.233161
0.452098,0.401907,0.657689,0.436771,0.106464,0.893250
0.039410,0.392117,0.246460,0.039196,-0.383361,0.922766
-0.565132,-0.229859,0.154731,-0.442022,0.188965,-0.876875
-0.246210,-0.132278,0.528556,0.527922,0.087145,0.844810
0.280179,0.118286,0.735414,0.380730,0.338404,0.860539
-0.134575,0.587946,0.187174,0.027555,0.126044,0.991642
0.447115,-0.140529,0.467439,0.764998,0.520345,0.379498
-0.143204,-0.226169,0.643921,0.331757,0.498656,0.800799
-0.546352,0.396422,0.378458,0.810281,-0.338091,-0.478686
-0.407615,0.197212,0.493286,-0.355820,0.158524,-0.921012
0.103583,0.491031,0.266379,-0.426731,0.499438,-0.753964
0.066937,-0.142784,0.750085,0.893919,0.331212,0.302006
0.710736,0.220838,0.502604,0.021834,0.189483,0.981641
0.334629,0.273421,0.769166,0.663904,0.545760,-0.511251
0.337364,0.052634,0.635349,-0.637619,0.769442,0.037422
0.490445,0.765323,0.484374,0.626040,0.227184,-0.745964
-0.369391,-0.183682,0.214618,-0.643039,0.537667,0.545358
0.276960,0.177686,0.224656,0.172535,-0.209011,0.962573
-0.365865,-0.409953,0.475200,-0.220297,0.812613,0.539564
-0.196986,0.199108,0.690865,-0.397213,0.908497,0.129824
-0.747015,0.014606,0.411844,-0.464551,0.173072,0.868469
0.237094,-0.627819,0.487187,0.292653,0.778463,-0.555292
0.203306,0.072570,0.833124,0.086116,-0.988898,0.121094
0.169153,0.347068,0.631292,-0.448571,0.052588,-0.892199
-0.542463,-0.273524,0.158343,0.210157,0.125012,0.969642
-0.113913,-0.072674,0.385879,0.137971,0.409170,-0.901967
0.664854,0.052891,0.754325,-0.334680,0.588480,0.735990
0.191578,-0.522601,0.501976,0.695444,0.707959,-0.123090
0.484367,0.215662,0.810038,0.832462,0.500912,0.236844
-0.566408,0.425328,0.350517,0.695306,-0.407116,-0.592289
0.253501,0.094045,0.788797,0.913823,0.335089,-0.229440
-0.711951,0.177788,0.334982,-0.208624,0.027364,0.977613
0.572544,0.033723,0.459979,0.449844,-0.525863,-0.721878
0.398863,0.304735,0.821332,0.934917,-0.311990,0.169093
0.527150,0.003895,0.834446,-0.055668,0.799686,0.597832
0.616664,0.162003,0.698534,0.810274,0.555546,-0.186612
-0.827657,-0.235291,0.032129,-0.523899,0.318746,0.789893
0.348364,-0.749897,0.457807,-0.612608,0.785450,-0.088210
-0.460362,0.322571,0.497225,-0.162245,-0.301708,0.939494
0.179180,0.704746,0.365620,0.730317,0.394167,-0.557916
0.140287,0.091534,0.792749,0.830893,0.502547,-0.238879
-0.407919,-0.591585,0.462138,-0.656571,-0.740404,-0.143930
0.537237,-0.336459,0.726868,0.198334,-0.978743,0.052207
0.226642,0.032749,0.696610,-0.204150,-0.967517,-0.149112
0.101091,-0.157852,-0.035925,-0.334078,-0.298750,-0.893946
-0.390843,-0.255535,0.545662,0.470881,0.441826,0.763584
0.168910,-0.385917,0.675566,-0.351715,0.934287,-0.058351
0.509769,0.066266,0.828151,-0.046506,0.990189,0.131765
-0.004042,0.053505,0.771286,0.005496,0.985773,0.167991
0.611742,0.047356,0.860398,0.745122,0.139718,-0.652128
0.244690,-0.096915,0.320207,-0.843786,0.304427,-0.441984
-0.394307,0.495336,0.570920,0.825752,-0.516710,0.226149
0.152989,0.145859,0.323766,0.522624,0.850412,0.060532
-0.491174,-0.442497,0.508611,-0.694412,-0.358501,0.623915
0.657683,0.398319,0.791572,0.842945,-0.433526,0.318587
0.570843,-0.483600,0.592763,0.285825,0.933170,-0.217939
-0.233083,0.136531,0.606596,0.056156,-0.557447,-0.828311
0.552491,0.246207,0.676050,0.827680,0.012866,0.561053
-0.551215,0.058836,0.275527,-0.192561,0.800321,-0.567809
0.704963,-0.376486,0.670292,0.954765,0.224858,0.194584
0.465772,0.732882,0.474035,0.793425,-0.436621,-0.424074
0.387500,0.215508,0.879702,0.943927,-0.097008,0.315580
0.274347,0.042179,0.920874,0.963400,-0.239319,0.120780
0.562214,0.268194,0.663290,0.987771,0.095089,-0.123557
0.462003,0.361572,0.520338,-0.106691,0.153209,0.982417
0.433199,-0.111111,0.545858,0.219757,0.272444,-0.936740
-0.732004,0.208385,0.337351,-0.599312,0.709822,0.370105
0.049254,0.411644,0.650124,0.999161,-0.036963,-0.017610
0.185621,-0.068317,-0.056694,-0.669615,0.741353,-0.044840
-0.093556,-0.021628,0.677228,-0.494974,-0.772629,-0.397550
0.425725,0.733395,0.487580,0.342739,-0.491178,0.800796
0.230045,-0.250923,-0.517642,-0.048273,-0.843280,0.535303
0.113792,-0.441113,0.699699,0.999516,0.014229,-0.027662
0.624442,0.348247,0.805627,-0.257174,0.725337,-0.638551
0.192550,0.115724,0.064141,-0.181723,-0.805170,0.564515
-0.520403,-0.534543,0.279257,0.598476,0.656835,-0.458687
-0.329283,-0.917333,0.356786,-0.340134,-0.809161,0.479132
-0.473977,0.449672,0.433333,-0.238409,0.366623,-0.899305
0.301692,0.444496,0.387240,0.733615,0.339641,-0.588602
-0.546109,-0.350810,-0.287777,0.074626,0.884694,0.460160
0.518094,0.655238,0.420835,0.807637,-0.448882,0.382396
0.555347,0.827644,0.512982,0.553982,0.631882,-0.542060
-0.914680,0.257123,0.442769,-0.692582,-0.669674,0.268082
-0.170127,-0.027675,0.022942,0.172783,0.895375,0.410426
0.203063,-0.483702,-0.180696,0.932597,0.255376,0.255039
-0.113793,0.760455,0.281455,0.648628,0.338682,-0.681598
0.305218,0.001845,0.049117,-0.613731,-0.789424,-0.012027
-0.225730,0.259481,0.404463,0.976935,0.032367,-0.211071
-0.337789,-0.403239,0.432456,0.841531,-0.534553,0.077967
-0.281700,0.443317,0.175998,0.057430,-0.583001,0.810439
-0.057275,0.594198,0.580958,0.311464,-0.725079,0.614207
-0.358939,0.148524,0.650072,-0.688325,-0.621907,-0.373417
0.312571,0.374590,0.724787,0.303595,-0.286837,0.908600
0.486190,-0.112034,0.464782,-0.097471,0.027790,0.994850
0.726292,-0.010558,0.738712,0.703436,0.633497,-0.322272
0.231382,0.002665,0.652912,-0.102973,0.994655,0.007654
0.467838,-0.228526,0.461327,-0.099709,0.078410,0.991922
-0.867765,0.119054,0.275448,-0.356140,-0.832315,0.424754
-0.211813,-0.547612,0.355516,0.930997,-0.354271,-0.087963
-0.112699,-0.107882,0.728426,0.672205,0.452800,0.585758
0.548114,0.380894,0.522418,0.040059,-0.308967,0.950229
0.083224,-0.137044,0.820272,-0.718143,0.694188,0.048718
-0.000031,0.098400,0.613545,0.822403,0.382548,0.421082
0.276837,-0.023216,0.861118,0.986448,-0.164071,-0.000776
0.089787,-0.808836,0.455189,0.099736,0.946340,-0.307397
0.310321,0.023883,-0.256406,0.335460,-0.941911,0.016438
0.362341,0.086767,0.895720,0.953137,0.269993,0.136502
0.310017,-0.020705,-0.323806,0.965560,-0.259584,-0.017626
0.041535,-0.021474,0.679924,-0.354368,0.850986,0.387616
0.381241,0.325646,0.698155,0.762952,0.620065,0.182822
0.419647,0.273319,0.794634,0.759345,-0.236778,0.606078
-0.050834,0.055966,0.751512,-0.663893,-0.747540,0.020749
0.540275,0.160311,0.777267,0.054267,-0.902420,0.427426
-0.480113,0.121771,0.550098,-0.023902,0.846036,0.532590
-0.611681,0.065908,0.474532,-0.713773,0.276926,-0.643304
-0.059282,-0.604962,0.523518,-0.362122,0.866768,0.342901
0.315547,0.432247,0.426986,0.863948,-0.479132,-0.155008
-0.209931,-0.174713,0.227627,0.064921,0.277102,0.958645
0.312934,-0.025728,-0.203926,-0.804460,0.587638,-0.086757
-0.179362,-0.341636,0.622248,0.961270,0.237294,-0.140186
0.133237,-0.708487,0.544562,0.132607,-0.932836,-0.335010
0.465711,0.606857,0.475841,0.447396,0.136605,-0.883841
-0.402389,-0.257072,0.535702,0.779644,0.114575,0.615653
-0.235029,0.375461,0.523021,-0.424890,0.474885,-0.770683
0.206771,-0.025779,0.745648,0.814271,-0.485046,0.318895
0.334084,0.035209,0.205104,-0.306941,-0.951258,-0.029915
0.034913,0.324006,0.666745,0.995612,-0.056281,0.074758
-0.270397,0.615211,0.506517,0.317333,-0.415963,0.852218
-0.341193,-0.419127,0.420115,0.857123,-0.397604,-0.327493
-0.422626,0.434399,0.559469,-0.157567,-0.986251,0.049820
0.460423,0.360240,0.523766,-0.106691,0.153209,0.982417
0.472092,0.032698,0.832744,-0.791510,-0.019904,-0.610832
0.308378,0.029520,-0.849915,-0.347145,0.930910,-0.113560
-0.370363,-0.281827,0.385591,-0.076907,-0.455592,0.886860
0.344352,0.253793,0.696309,-0.546022,0.583088,-0.601554
-0.489412,0.097786,0.496296,0.678168,0.007778,-0.734866
-0.322052,0.613725,0.196728,0.031043,0.319960,0.946922
0.231625,-0.221402,-0.601662,0.974129,-0.214927,0.069851
0.252348,-0.023319,-0.742167,-0.346637,0.937574,0.028237
-0.431923,-0.253281,0.149849,-0.209014,0.109948,0.971712
-0.367264,0.117723,0.665960,0.724279,0.469896,0.504597
-0.409195,-0.508200,0.263670,0.144554,0.094084,0.985014
0.033453,0.265939,-0.378746,0.864729,0.502235,0.001992
0.498343,0.446187,0.643790,0.743417,0.564652,-0.358469
-0.108322,-0.318215,0.016333,0.194681,-0.466717,-0.862713
0.137371,-0.196700,0.729355,0.675226,0.629238,0.384876
-0.169943,0.134225,0.624853,0.505502,0.861757,-0.042930
0.156391,0.291103,0.633320,0.285745,0.023743,0.958011
0.492631,0.475194,0.648462,0.916026,0.252393,0.311759
0.051502,0.310475,0.699189,-0.739230,-0.069344,-0.669874
-0.055452,0.029827,0.652571,0.544425,0.669040,0.505951
-0.606818,-0.097735,0.399319,0.634614,0.407930,-0.656398
-0.189512,-0.463151,0.341827,0.904581,-0.307392,-0.295370
0.695725,0.635557,0.534642,0.441318,0.352829,0.825076
-0.036250,-0.113008,0.715273,-0.787843,0.381963,-0.483122
-0.230652,0.470326,0.519657,0.706503,0.570368,0.418968
-0.464859,-0.188397,0.155883,0.811977,0.096098,-0.575725
0.209626,0.087228,-0.493339,0.998722,0.039793,0.031164
0.175169,-0.100092,0.725088,-0.575169,-0.566460,-0.590173
0.380451,0.093378,0.613833,0.714201,-0.683004,0.153043
0.199052,-0.226169,0.659534,0.347904,0.402497,-0.846735
-0.115736,0.764401,0.282843,0.477877,0.348982,-0.806130
-0.751635,0.153085,0.472883,0.410178,-0.206000,0.888436
-0.159917,-0.011019,0.570239,0.027186,0.734870,0.677663
0.411381,0.093481,0.934328,0.923854,0.357187,0.137516
-0.403299,-0.302327,0.393338,0.252343,0.420152,-0.871662
-0.106744,-0.307144,0.568093,0.987520,-0.119400,0.102707
-0.328554,0.307503,0.477621,-0.626792,0.569284,0.532022
-0.168242,-0.350554,0.657204,0.829004,0.381011,0.409369
0.573091,-0.031980,0.770711,-0.450170,0.864333,0.224221
0.207804,-0.048791,0.799751,-0.561360,0.827494,-0.011353
0.459513,0.388735,0.511163,0.093197,0.668747,0.737626
-0.343381,0.394423,0.523596,0.361527,0.856221,-0.369032
-0.417277,-0.631406,0.274990,0.883699,0.297263,-0.361541
-0.329403,-0.855013,0.275880,0.691680,0.626319,-0.359587
-0.780135,0.192497,0.490813,-0.462145,0.067310,-0.884246
-0.241774,-0.509994,0.482934,0.049347,0.672132,0.738785
-0.469538,-0.021628,0.430768,0.199221,-0.501789,0.841735
0.496824,0.056580,0.827941,0.152959,0.961577,0.227976
0.326426,0.002767,-0.215037,0.978918,-0.091833,-0.182445
0.219956,-0.436706,-0.181246,0.932597,0.255376,0.255039
-0.000517,0.010763,0.509213,0.319254,-0.712761,0.624539
0.231807,0.981857,0.418976,-0.086769,0.558390,-0.825029
0.218619,0.173739,-0.394372,0.719920,0.540586,-0.435295
0.202577,0.224784,0.798259,0.523915,-0.321000,0.788969
0.068944,-0.162208,0.692566,0.774590,-0.174910,0.607797
-0.126858,-0.793256,0.384112,0.859263,-0.095122,0.502613
-0.482302,-0.217405,0.390263,0.246666,0.503641,0.827950
-0.421652,0.743440,0.484086,0.325698,0.476509,0.816615
0.335784,-0.029572,0.884047,0.868822,0.252991,-0.425611
-0.447419,-0.228987,-0.259142,0.031541,0.950476,0.309193
0.739723,0.245183,0.469441,0.996803,-0.038024,-0.070268
-0.517366,0.174662,0.448593,0.605102,-0.155966,0.780722
-0.100909,0.150421,0.183929,0.459640,-0.700233,0.546264
0.334265,0.567138,0.458422,0.462773,0.043508,-0.885408
-0.228890,-0.399601,0.401413,0.565742,0.800472,0.197942
0.264258,-0.081181,0.945033,-0.759715,0.582097,0.289821
0.145878,-0.065652,0.808572,-0.292525,0.893420,0.340925
0.319255,0.404315,0.429459,0.892309,-0.176782,-0.415371
0.150375,-0.041103,0.759390,0.503143,0.006721,0.864177
0.706786,-0.239802,0.453003,-0.240984,0.924621,0.294960
-0.328311,0.628434,0.524552,0.651906,-0.470953,0.594325
0.297683,0.403956,0.724381,0.304581,-0.256494,0.917301
0.488742,0.059963,0.533935,0.064819,0.493208,0.867493
0.206709,-0.263735,0.560620,0.395951,0.071559,0.915479
0.158276,-0.231088,0.650700,0.986801,0.157799,-0.036388
-0.060678,0.206796,0.681010,-0.569188,0.795779,-0.206787
0.372429,0.088048,0.916294,-0.512681,-0.061286,0.856389
0.650087,0.574211,0.460620,-0.257590,0.297211,-0.919409
0.394064,0.086767,0.754666,-0.563756,-0.110572,-0.818507
-0.772478,0.146833,0.482712,0.748466,0.312005,0.585194
0.513234,-0.015222,0.721123,0.076387,0.996811,-0.023062
0.396007,0.212638,0.504096,0.511448,-0.165543,-0.843218
-0.289054,0.011326,0.558709,0.250477,0.963304,0.096472
0.305581,0.689422,0.421581,0.850022,0.035538,-0.525547
0.277507,0.350963,0.724630,0.444145,-0.383675,0.809647
-0.049011,0.313756,0.500379,0.737142,0.373849,0.562901
-0.032239,0.292486,0.616699,0.168568,-0.269120,0.948240
0.143204,-0.331181,0.697239,0.991174,-0.130223,0.024813
0.386041,0.091431,0.610352,0.653798,-0.664853,0.361274
0.522592,-0.472735,0.415561,-0.401239,0.709575,-0.579233
-0.665826,0.136583,0.377817,-0.592326,0.258568,0.763081
0.565070,-0.419998,0.630441,0.827446,-0.561244,0.018383
0.018747,0.046176,0.674650,0.679835,0.528326,-0.508622
0.332563,0.597888,0.430127,0.916490,0.399138,-0.027091
0.612652,0.537413,0.537848,0.168748,-0.362141,0.916721
-0.131962,-0.362443,0.460084,0.494256,-0.224467,-0.839837
0.083224,-0.344147,0.613676,0.298451,-0.852221,-0.429706
0.430161,0.569854,0.462583,-0.597981,-0.092109,0.796200
-0.041658,-0.345326,0.015430,-0.143504,0.153362,0.977695
-0.223360,0.159184,0.716137,0.632447,-0.583888,0.509005
0.132084,-0.725964,0.565292,-0.225204,0.895368,0.384188
-0.599830,-0.045767,0.408847,0.396054,0.746891,-0.534130
0.611497,0.689216,0.481926,-0.677504,0.436973,-0.591644
-0.154873,-0.372438,0.204764,-0.287189,0.905968,-0.311038
0.306189,0.420203,0.396767,-0.691175,-0.400289,0.601703
-0.418676,0.412310,0.567282,0.286418,-0.682060,0.672874
0.139437,-0.470018,0.697199,-0.591230,-0.306765,-0.745883
0.106741,0.490518,0.642507,0.776582,0.622343,0.098029
0.345204,0.027111,-0.353841,0.963369,0.267370,0.020835
0.038984,0.544229,0.649247,-0.278989,-0.161726,-0.946578
0.061409,-0.124027,0.787475,-0.726363,0.674937,-0.129833
0.514995,0.434758,0.528556,0.321801,0.228577,-0.918802
0.343989,0.062423,0.602984,0.739604,-0.562694,0.369270
0.618850,0.111829,0.520560,0.981140,-0.155577,0.114717
0.469295,0.175482,0.671103,-0.404348,0.515113,-0.755752
0.001488,-0.259021,0.586520,0.944770,-0.249521,-0.212484
0.156877,0.701978,0.370501,0.769652,-0.100735,-0.630467
-0.507704,0.233856,0.501610,0.817965,0.283866,0.500353
-0.121632,-0.325543,0.594490,0.530249,-0.833951,-0.152846
0.203731,-0.005638,0.899830,0.686436,0.663056,0.298601
0.416001,-0.159748,0.633058,0.775968,-0.080195,-0.625653
-0.377898,0.481139,0.411294,-0.230633,0.615215,0.753870
0.735287,-0.276394,0.670711,0.112180,-0.082030,0.990296
0.318587,-0.182913,0.719984,-0.601019,-0.383243,0.701356
-0.545076,-0.251948,0.392069,-0.079110,-0.400085,0.913057
-0.217039,-0.611368,0.497867,0.294472,0.953734,0.060641
0.133785,-0.019373,0.721293,-0.740359,0.199778,0.641839
-0.617089,0.008610,0.472399,0.002781,0.858825,0.512262
0.305824,0.117671,0.491153,0.761513,-0.541971,-0.355480
0.164655,-0.390068,0.686716,0.050493,0.826875,0.560115
0.321382,-0.018399,0.743777,-0.283440,0.911256,-0.298788
0.195528,0.669947,0.390171,0.843970,-0.130699,-0.520223
0.464678,-0.473401,0.421921,0.202818,-0.717973,0.665867
0.071496,0.350554,0.659678,0.951650,0.290481,0.099918
0.217161,0.077388,0.358592,0.611116,-0.788282,-0.071755
-0.060131,-0.270296,0.669140,-0.631327,-0.598149,-0.493604
0.110692,0.392169,0.737521,-0.792983,0.579295,0.188668
0.268755,0.260711,0.352271,0.873637,0.485011,0.039017
-0.126554,0.384225,0.551734,0.364791,-0.895071,0.256466
-0.324967,0.007585,0.526934,0.254378,-0.965274,0.059486
0.490504,0.053864,0.910679,-0.109701,0.923824,-0.366764
0.418735,0.362751,0.808009,-0.159997,0.196342,0.967394
-0.306555,-0.009482,0.515705,-0.241934,-0.486363,-0.839595
-0.120901,-0.434861,0.503390,0.563532,0.373406,0.736885
0.192307,-0.292333,0.697474,-0.713336,0.668097,0.211656
0.380694,-0.152522,0.700078,0.673522,0.118301,-0.729639
-0.097627,-0.416103,0.011176,-0.006208,0.006339,0.999961
-0.316095,0.599784,0.516477,-0.588983,0.275980,-0.759562
-0.369452,0.475144,0.395812,-0.374090,-0.159261,0.913615
0.274529,-0.185579,-0.996833,-0.157758,-0.138659,0.977694
-0.049436,-0.098863,0.719369,0.857426,-0.280266,0.431593
0.411200,-0.007380,-0.838450,-0.108654,0.993814,-0.022981
0.188053,0.043665,0.806269,-0.556589,-0.545048,0.627001
0.084561,-0.061501,0.788496,0.551078,0.460189,-0.696089
0.287473,-0.012300,-0.587489,0.957576,-0.284555,-0.045566
0.325210,0.102603,0.782921,-0.229514,-0.142522,0.962814
0.316885,-0.440806,0.450687,0.736760,0.078709,-0.671557
0.290146,-0.021012,0.744287,0.480604,-0.054342,0.875252
-0.441646,-0.497438,0.355268,0.127573,0.807332,0.576142
0.735954,-0.355115,0.653854,0.884306,-0.463784,0.053918
-0.089910,0.919536,0.292815,0.110647,0.451359,0.885456
-0.031630,0.786490,0.292174,-0.225792,-0.553950,0.801347
0.282792,-0.315550,0.766562,0.385201,-0.456665,-0.801921
-0.201969,-0.417897,0.659050,-0.807947,-0.011222,-0.589149
-0.605603,-0.483856,0.305798,-0.528593,0.463894,0.710909
-0.108626,-0.326517,0.745413,0.830114,0.554582,0.057875
-0.403969,-0.559553,0.459953,0.705776,-0.706631,-0.050516
-0.341739,-0.498411,0.139275,-0.334457,-0.068236,0.939938
0.389201,0.369978,0.799188,-0.577804,-0.595929,0.557684
-0.014858,0.260814,0.534707,-0.311014,-0.540390,0.781824
0.261949,0.504663,0.389949,0.605385,0.433712,-0.667385
-0.193158,-0.403803,0.697147,0.934814,0.342214,0.094930
0.212299,-0.027419,0.098351,-0.097276,-0.937038,-0.335407
0.253259,0.011070,0.001767,-0.244808,0.958337,0.147172
0.247424,0.723196,0.398586,0.686595,0.444869,-0.575047
0.350187,0.079387,0.951826,0.133440,-0.007687,-0.991027
0.212056,0.958692,0.419919,-0.464631,-0.401303,0.789350
-0.165568,-0.001691,0.526397,-0.536695,0.648411,-0.539927
0.659385,0.022806,0.851341,-0.682043,0.667419,0.298947
-0.351889,-0.557862,0.280251,0.790187,-0.223988,-0.570468
-0.097141,-0.358138,0.760987,-0.639230,-0.674693,-0.369019
-0.769742,0.222735,0.328125,-0.246802,0.357596,0.900674
0.108566,0.192907,0.688248,0.513973,0.840000,-0.173872
-0.178268,-0.349683,0.184348,-0.463566,0.854699,-0.233659
-0.689528,0.601835,0.396807,-0.444132,0.871704,0.207075
-0.349701,-0.179735,0.502578,0.263148,0.182742,-0.947290
-0.461942,0.714227,0.458029,-0.649890,0.758967,0.040163
0.007931,-0.141042,0.852035,-0.736531,0.671530,-0.081057
0.385435,-0.014914,0.899489,0.386698,-0.682835,0.619840
-0.088693,0.072981,0.611020,0.385462,0.922593,0.015568
0.029382,-0.189729,0.771077,-0.711227,-0.486442,-0.507473
0.398986,0.273576,0.765004,-0.572433,-0.386083,0.723367
0.188357,-0.504869,0.537246,0.319629,0.483670,0.814801
0.443834,0.430350,0.513728,-0.595670,0.135104,-0.791786
0.661268,0.112546,0.753658,0.965726,0.242175,0.093400
0.546291,0.064678,0.836540,0.040524,0.988668,0.144545
0.774909,-0.440499,0.601518,0.146830,0.985711,-0.082546
-0.064690,-0.204387,0.728242,0.628324,0.344328,0.697601
-0.055636,-0.021371,0.707433,0.943966,-0.290913,0.155877
0.198080,0.157596,0.745596,0.804699,0.004412,0.593666
-0.196925,-0.409030,0.692514,-0.768463,-0.594440,-0.236865
0.126615,-0.703567,0.559874,-0.225204,0.895368,0.384188
-0.107715,0.669280,0.276233,0.598019,0.419350,-0.683021
-0.131719,-0.150471,0.757610,-0.618262,-0.673568,-0.405041
0.148066,0.463407,0.651577,-0.510288,-0.083488,-0.855941
0.299506,0.142682,-0.988614,-0.132426,0.085741,0.987477
-0.449304,-0.287721,0.562636,0.890441,0.322950,0.320654
0.400929,0.216482,0.800864,0.822384,-0.145775,0.549940
-0.195163,-0.130535,0.745518,0.516575,0.728662,0.449669
0.496765,0.287567,0.619539,-0.753300,0.444353,0.484860
-0.331714,-0.351937,0.380369,-0.541684,-0.595112,-0.593650
0.463036,-0.001538,0.865305,0.930318,0.316438,-0.185404
0.038132,0.264709,0.698469,-0.572297,0.142658,-0.807543
-0.116649,-0.145757,0.445347,-0.318455,0.880032,0.352322
-0.257756,-0.599682,0.290093,0.021730,0.543757,0.838961
-0.253198,0.116236,0.622392,0.270604,0.866366,-0.419743
-0.041233,-0.308016,0.392867,-0.692963,-0.047374,-0.719415
0.183192,0.299303,0.745962,0.895645,-0.418822,-0.149692
0.271003,0.063397,-0.437050,0.929242,0.340837,0.142617
0.309897,-0.297150,-0.433661,0.859219,-0.326187,-0.394137
0.009936,0.317907,0.545308,0.495880,0.403049,-0.769191
0.262982,-0.069393,0.855752,0.924985,0.362456,-0.114143
0.231807,-0.022858,0.794922,0.512196,-0.794289,0.326742
0.657987,0.305863,0.781612,0.344174,-0.853552,0.391144
0.250827,-0.050943,0.844169,0.917279,0.380772,-0.116670
-0.533226,-0.496669,0.367452,0.121738,0.522195,0.844093
0.162894,0.378843,0.330166,0.025869,0.750186,0.660721
0.309045,-0.052020,-0.575697,0.810888,-0.550509,0.198494
-0.390114,-0.381765,0.493378,0.859813,-0.072383,0.505453
-0.558081,-0.536439,0.377974,0.480877,0.268430,0.834687
0.072894,0.040949,0.717694,-0.292833,-0.942723,0.159756
-0.156512,-0.387659,0.665606,0.254041,0.834979,0.488132
0.346175,0.141810,0.901740,0.696735,0.474373,-0.538081
-0.268694,-0.004203,0.529145,0.113053,-0.716032,0.688852
