0.039260,0.079305,-0.407426,0.509363,0.851952,-0.121354
-0.106128,-0.211558,0.195621,-0.113076,-0.796245,0.594312
-0.719577,-0.206818,0.626865,0.979693,-0.173222,0.100975
0.138794,0.081743,0.368582,-0.351707,0.808867,0.471208
0.441109,-0.970858,0.399089,0.354891,0.003539,-0.934901
-0.226792,0.494821,0.859682,-0.737670,0.609888,0.289619
-0.515710,-0.013004,0.867888,-0.591826,0.592220,-0.546825
-0.176914,0.109700,0.883976,0.379769,-0.251740,0.890170
-0.240405,0.433052,0.759563,-0.551485,-0.623228,-0.554483
0.073890,-0.335169,0.013098,0.130868,0.574402,0.808045
-0.602180,0.144699,0.801077,0.936845,-0.301948,0.176490
-0.144680,-0.164917,0.700815,0.711516,-0.670995,-0.208593
-0.067356,-0.069127,-0.475162,-0.457874,0.885556,0.078372
-0.348653,-0.206120,0.294255,-0.123625,-0.374827,-0.918815
-0.074109,0.240911,0.553072,-0.684561,-0.728566,-0.023824
-0.600003,0.499983,0.765594,-0.351094,0.584300,-0.731660
0.663381,-0.089067,0.762728,-0.195880,0.538141,0.819778
-0.449932,-0.521178,0.608316,0.970492,0.233094,-0.061747
0.529758,0.256319,0.411998,-0.034726,-0.761125,0.647675
-0.590092,-0.096177,0.775950,0.238366,-0.466266,-0.851926
0.757036,-0.009864,0.401642,-0.428757,0.114803,0.896096
-0.072475,-0.445116,0.689391,0.319055,0.317477,0.892979
0.049822,-0.314880,0.204648,0.121125,0.981406,-0.148902
-0.120286,0.231149,0.544305,0.877343,-0.342522,-0.336079
-0.520502,0.325688,0.186828,0.930130,-0.367214,-0.003469
-0.061042,-0.145466,0.936562,-0.351955,-0.925807,0.137870
-0.422707,0.007983,0.784143,0.052549,-0.473968,0.878972
0.699646,0.111653,0.766909,-0.507171,0.435909,-0.743479
-0.600544,-0.149929,0.557175,-0.622551,0.707288,0.334924
-0.262294,0.274514,0.489843,0.891289,0.300819,-0.339282
-0.522463,-0.001570,0.820603,0.259200,0.857454,0.444508
0.365639,0.258689,0.624286,-0.623780,-0.102119,0.774900
0.052873,-0.029178,-0.698001,0.990811,0.133816,-0.019668
0.562102,0.335518,0.776783,0.700559,-0.713589,-0.002841
-0.264145,-0.214486,0.654611,0.810514,-0.585016,-0.028687
0.209690,0.538957,0.720614,-0.471487,-0.077186,0.878489
-0.149033,0.468677,0.848037,0.874255,0.200247,0.442243
-0.537601,-0.364798,0.701844,0.712240,0.505976,-0.486521
-0.342880,-0.346186,0.739971,0.968374,-0.035138,0.247017
-0.079883,0.225434,0.790969,-0.678824,0.077689,-0.730179
-0.031530,-0.201869,0.520011,0.708085,0.521039,0.476585
0.063215,0.074633,0.646691,-0.842722,0.467450,0.267040
-0.262294,0.388712,0.743840,-0.749576,0.034214,0.661033
-0.647375,-0.255481,0.569211,-0.113810,0.352756,0.928768
-0.768475,-0.094224,0.653152,0.518535,0.208763,0.829180
-0.163737,-0.311676,0.774308,0.818914,0.122220,-0.560751
-0.068227,0.044514,-0.242371,0.790765,-0.609379,0.057866
-0.641383,0.462056,0.773370,-0.295826,0.531327,-0.793838
-0.227008,-0.084463,0.933032,0.790520,-0.223442,0.570221
0.429131,0.103496,0.680741,-0.567767,0.666383,-0.483296
-0.492732,0.074633,0.410618,0.715927,-0.193433,0.670844
-0.107869,0.242306,0.361639,-0.479622,0.300890,-0.824274
-0.785245,-0.213579,0.655327,0.929544,-0.080193,0.359886
0.127251,-0.152019,0.123208,0.974921,0.146925,-0.167161
0.277429,-0.759123,0.402711,0.833364,0.533832,0.143276
-0.065834,0.063965,-0.160072,0.986900,-0.113475,0.114684
0.277648,-0.330288,0.805480,0.199823,-0.305947,-0.930842
-0.441657,-0.070590,0.863577,0.298054,-0.924072,-0.239281
-0.613506,0.366194,0.739867,-0.559972,0.511928,-0.651431
0.697576,-0.137798,0.412663,-0.726804,-0.571525,-0.380939
-0.139123,-0.401891,0.794668,0.035351,0.023297,0.999103
0.016823,-0.483388,0.380931,0.822715,-0.056143,0.565675
0.655212,-0.264268,0.405837,-0.641474,-0.323771,0.695474
-0.053853,0.062782,-0.956532,-0.328115,0.285006,0.900618
-0.198696,0.249344,0.198955,0.698306,0.122432,-0.705251
0.062345,0.001919,0.520923,0.848358,-0.020759,0.529017
0.361286,0.494476,0.719455,-0.376603,0.594164,-0.710731
-0.013450,-0.753545,0.402685,0.087641,-0.151186,0.984613
0.016823,0.311675,0.100360,-0.343950,-0.058965,0.937135
-0.285707,0.191409,0.467412,0.231267,0.898293,-0.373610
-0.026953,-0.001987,-0.194670,0.882249,-0.470565,-0.014314
0.103293,0.226966,-0.699382,-0.423688,0.094629,-0.900852
-0.440896,-0.220903,0.703420,-0.623772,0.440724,-0.645500
-0.133463,0.108866,0.569263,0.924315,0.301335,0.234177
0.410945,0.207307,0.794043,0.314740,0.483384,0.816871
0.475197,-0.040191,0.141210,0.719160,0.295590,0.628837
0.020310,0.117232,-0.175586,-0.128356,0.990740,-0.044269
-0.231146,0.157040,0.126855,-0.243788,0.405783,0.880856
-0.352901,0.898700,-0.537636,-0.350375,-0.372748,0.859242
0.015953,0.398614,0.518631,-0.052512,0.676594,0.734482
0.724476,-0.029595,0.333398,-0.466774,0.275530,-0.840360
-0.192598,0.396453,0.391899,-0.523635,0.412819,-0.745243
-0.339178,-0.193571,0.705400,-0.063061,0.738140,0.671694
-0.237029,-0.233728,0.828680,0.403479,-0.914241,0.036995
0.385896,-0.469099,0.762884,0.384426,0.445874,0.808340
-0.012034,-0.011749,-0.841732,-0.304208,-0.952605,0.000171
0.047645,0.344513,0.539929,-0.413773,0.066786,-0.907927
-0.394720,-0.185205,0.781850,0.269739,0.936382,0.224567
-0.707706,0.427546,0.755486,-0.013687,-0.614494,0.788803
0.119847,0.199499,0.435003,-0.161179,-0.960968,-0.224858
-0.351159,0.024923,0.380032,0.929851,0.367883,0.006308
0.063109,0.000106,-0.940535,-0.291238,0.100850,0.951320
-0.023470,0.102938,-0.319825,-0.809615,0.586491,-0.023502
-0.462129,0.083139,0.871914,0.936304,0.347259,-0.052405
-0.495347,0.259455,0.784130,0.953667,-0.143382,-0.264501
-0.155242,0.445809,0.385243,0.286794,0.863130,-0.415638
-0.411380,0.017463,0.739919,-0.072784,0.295009,0.952718
0.555784,-0.064944,0.378951,0.926689,0.309028,-0.213891
-0.116909,0.346743,0.097898,0.672143,0.243231,-0.699330
-0.088813,0.202775,0.202550,0.819239,0.490342,0.297341
-0.526711,-0.296965,0.763927,0.901665,0.285387,0.324891
0.513749,0.083347,0.794199,0.297490,0.513016,-0.805179
-0.104383,0.077701,0.725929,0.821466,0.129132,0.555444
-0.299210,-0.035383,0.875769,0.887584,-0.056233,-0.457201
-0.406917,0.108096,0.905625,0.932497,-0.350547,-0.086980
-0.723280,0.193711,0.817256,-0.656600,-0.050285,-0.752561
0.138143,0.301914,0.464754,0.387152,0.455213,0.801807
-0.123117,0.043118,-0.455128,0.893065,-0.371279,0.254141
-0.638881,-0.246277,0.696060,0.015333,0.493582,0.869564
-0.565914,-0.072194,0.860372,0.998165,-0.045254,-0.040245
0.568962,-0.149163,0.415255,0.494221,0.012917,-0.869240
0.185841,0.182695,0.587982,0.988867,0.097352,0.112534
0.154261,-0.083071,0.420570,0.844537,-0.239025,0.479192
0.214156,-0.723779,0.385959,0.614691,0.134623,0.777194
0.016823,0.376653,0.523424,-0.106857,0.560088,0.821513
-0.491861,0.330918,0.733576,0.497836,0.140588,0.855800
-0.240296,-0.017047,0.939767,0.665928,-0.019813,0.745753
0.229295,0.172725,0.424738,0.866396,-0.415038,-0.277670
-0.223196,-0.006519,0.943753,-0.128981,-0.147647,0.980594
0.219165,0.186741,0.899972,-0.715362,-0.654964,0.243473
-0.309886,0.204588,0.347519,-0.315697,0.794968,0.518035
0.134111,0.331267,0.817503,0.154761,-0.412443,0.897741
-0.426303,0.372258,0.357445,0.310259,-0.582512,0.751278
-0.052873,-0.004289,0.739007,0.447888,-0.065307,-0.891701
-0.427064,0.001987,0.466344,0.492737,0.268620,-0.827680
0.163408,-0.389551,0.737106,0.397922,0.828432,-0.394155
0.012360,-0.275489,0.151801,-0.283014,-0.458349,-0.842507
-0.678303,0.117232,0.841966,0.544621,0.075879,0.835243
-0.195100,0.378253,0.755681,0.242830,-0.135275,0.960591
0.406043,-0.949035,0.394166,-0.131212,-0.161280,0.978147
0.191178,-0.381321,0.753962,0.981761,-0.190107,0.002370
-0.045249,-0.090531,-0.566137,0.496225,0.859140,-0.125054
-0.384700,-0.117092,0.120655,0.860936,0.395089,0.320460
0.340159,0.473630,0.725734,-0.561952,0.136085,-0.815899
-0.789602,0.484715,0.762350,-0.200280,-0.188893,0.961357
0.155132,0.058390,0.396341,0.935547,-0.262966,0.235798
-0.458101,0.259387,0.167901,0.922077,-0.225936,-0.314208
-0.503297,0.857355,-0.555234,-0.388805,-0.333238,0.858943
0.178655,-0.211699,0.777513,0.990788,0.113962,0.073159
0.429021,0.071705,0.122179,0.525302,0.782770,-0.333660
-0.352356,-0.199150,0.282479,0.325040,-0.306828,0.894542
0.266212,-0.360824,0.770153,-0.736613,0.012049,0.676207
-0.073020,-0.140028,0.697167,-0.584641,0.726235,-0.361632
-0.645414,0.127687,0.603874,-0.527807,0.365224,-0.766832
-0.117780,0.260085,0.464090,-0.673996,0.554991,-0.487559
-0.387641,0.574024,0.774439,-0.251798,0.878386,-0.406247
0.159160,-0.369053,0.719729,-0.297682,0.920500,-0.253109
0.038060,-0.197337,-0.568599,0.473158,0.873270,-0.116278
-0.056904,0.068148,0.959528,0.301472,0.926030,0.227119
-0.152084,0.335518,0.191413,0.752415,0.654424,0.074836
0.308901,-0.005123,0.756111,-0.689634,0.283284,0.666449
-0.034142,-0.063408,0.925138,0.816566,0.224964,-0.531612
0.396567,0.104611,0.218247,0.496589,0.843807,-0.203443
-0.276016,-0.187925,0.195881,-0.183478,0.396124,0.899679
0.517887,0.180116,0.800322,-0.137089,0.221541,0.965467
0.762048,-0.312718,0.421442,-0.656327,0.113646,0.745869
-0.681244,0.013421,0.740167,-0.012681,0.363577,0.931478
0.131064,0.341654,0.529494,-0.544378,-0.126348,-0.829270
-0.351375,0.046676,0.303490,0.649428,-0.444432,-0.617028
-0.048080,-0.144419,0.894775,0.934689,0.304537,0.183340
0.143261,-0.243281,0.208764,0.927174,0.324164,-0.187793
0.163733,-0.356641,0.369520,-0.105050,-0.294288,0.949926
-0.191507,0.253391,0.797130,0.001603,-0.238826,0.971061
0.107431,0.473698,-0.758638,-0.281965,-0.390070,-0.876551
-0.013776,0.064803,-0.463165,-0.049223,0.996720,0.064237
-0.675146,0.100845,0.826426,-0.415281,-0.240356,-0.877366
0.022922,0.100985,0.738695,0.087912,0.753742,0.651264
-0.422055,-0.002826,0.059679,-0.491572,0.629741,0.601484
-0.116799,-0.166729,0.499495,0.479462,0.844545,-0.238453
-0.294747,-0.391015,0.727258,-0.896276,0.337012,0.288292
0.652925,0.300727,0.804412,0.430502,0.377592,-0.819812
0.298230,-0.004217,0.664016,-0.343438,0.852836,-0.393346
0.041762,-0.205703,0.508223,0.816739,0.537394,0.210107
-0.246068,0.193154,0.336707,-0.462696,-0.826751,0.319993
-0.756604,0.091922,0.815185,0.449398,0.389703,0.803849
0.371628,0.403704,0.309287,0.998100,0.037947,0.048547
-0.322082,-0.354692,0.796114,0.780055,0.250690,0.573296
0.695180,-0.058250,0.421481,-0.083384,-0.714399,0.694753
-0.093060,-0.073029,0.941643,-0.735335,0.573054,-0.361790
0.076722,-0.471052,0.379159,0.191402,0.251846,0.948651
-0.279609,0.145606,0.942255,-0.629548,0.602429,0.490662
0.339068,0.471468,0.321427,0.930456,-0.298398,0.212627
-0.551430,-0.245583,0.692869,0.954677,0.101097,0.279947
0.362918,-0.331752,0.802575,0.842156,-0.109313,-0.528038
-0.367275,-0.428942,0.821411,-0.338437,-0.506220,-0.793222
-0.053637,0.060688,-0.150876,0.933683,-0.351141,-0.070258
-0.188786,0.274025,0.883650,-0.661294,-0.086430,0.745131
0.590743,0.316484,0.786397,-0.497989,0.862924,0.085840
0.115600,-0.385436,0.378703,-0.712622,0.285215,-0.640954
0.424448,0.102798,0.861154,-0.710226,0.150310,0.687740
-0.481841,0.074913,0.162664,-0.571735,-0.621082,0.536075
-0.017917,0.086832,0.678566,0.865601,0.498801,0.043955
0.259352,-0.800536,0.411204,-0.160264,0.296591,0.941461
-0.495453,-0.054552,0.646027,0.173114,0.920074,-0.351419
-0.196516,-0.151044,0.920618,-0.136241,0.970024,0.201225
0.270679,-0.123156,0.817164,0.412239,0.640174,-0.648256
-0.358019,-0.265310,0.796700,0.702066,0.192300,-0.685656
0.031636,-0.517064,0.385542,-0.077253,0.909645,0.408139
0.091206,-0.647504,0.399246,0.428533,-0.696327,-0.575750
-0.471714,-0.380347,0.705361,0.594314,0.722860,0.352510
-0.480754,0.007983,0.114936,-0.412549,-0.909611,-0.049095
-0.580182,0.128108,0.152100,-0.060333,-0.957971,0.280448
0.383064,0.558058,0.735985,0.370914,0.608798,-0.701276
-0.074000,-0.288387,0.020510,-0.668765,0.252676,0.699219
0.283417,-0.783178,0.382351,-0.013429,-0.189311,0.981825
-0.233107,0.655244,-0.549073,0.258265,-0.163086,0.952209
-0.732755,-0.271515,0.626097,0.420375,0.090918,0.902784
0.098285,0.085509,0.688987,0.368085,0.862990,-0.346067
-0.312172,-0.330080,0.790682,-0.227017,-0.973403,-0.030819
0.119847,0.352666,0.519191,-0.576069,0.440519,-0.688540
-0.015846,-0.105517,0.933970,0.218340,0.479359,0.850025
-0.152084,0.773765,-0.441594,-0.463360,0.273849,0.842795
-0.083365,0.053161,0.547015,0.707613,-0.661676,0.247930
-0.764553,0.523965,0.769150,0.510632,0.283061,-0.811869
0.142606,0.084113,0.285658,0.089894,-0.995584,0.027050
-0.147727,0.428312,0.756996,-0.324155,0.124494,-0.937777
-0.593794,0.236519,0.318770,-0.389283,-0.760591,0.519577
-0.501881,0.148674,0.309105,0.794110,-0.073846,0.603271
-0.479990,-0.016630,0.054130,-0.580590,-0.180678,0.793895
-0.062674,0.108236,0.940640,0.555902,0.807326,0.197986
0.416934,0.388712,0.307359,0.998100,0.037947,0.048547
-0.337218,-0.104820,0.350515,0.692445,0.581075,0.427635
0.154477,-0.280442,0.235520,0.000937,0.933739,0.357953
-0.155461,0.014604,-0.595120,0.853409,-0.514947,-0.080761
-0.468992,0.103913,0.358513,0.960123,-0.091248,-0.264267
-0.532700,-0.088088,0.460443,0.784357,-0.317835,-0.532696
-0.095127,-0.409699,0.797573,0.345477,-0.156312,0.925317
-0.248245,-0.346045,0.283586,0.126360,0.629118,0.766970
-0.101990,0.444346,0.869790,-0.284261,0.676498,-0.679372
-0.075416,0.081535,-0.387236,0.688207,-0.658186,-0.305226
-0.236809,-0.223758,0.796844,0.876932,0.091292,0.471865
-0.633652,-0.391989,0.636856,0.504065,-0.348870,0.790069
-0.711627,-0.050093,0.662909,-0.722875,0.041206,0.689750
-0.120392,0.589990,0.333008,-0.254142,0.839967,-0.479445
-0.014540,0.315577,0.526629,0.176196,0.279522,-0.943834
-0.248681,0.575696,0.844520,-0.726655,-0.680809,0.092036
-0.157093,-0.276046,0.885083,-0.167687,-0.956474,-0.238826
0.245194,0.676299,-0.570136,0.259778,-0.573806,0.776699
-0.419659,0.125947,0.365039,0.821868,-0.497922,-0.276779
-0.419004,0.006519,0.859864,0.426454,0.674526,-0.602621
0.875088,-0.150487,0.398451,0.631325,0.732494,0.254719
-0.614486,-0.072194,0.459440,-0.453469,0.317850,-0.832669
0.501768,-0.357339,0.395651,0.155081,-0.197312,0.967997
-0.120937,0.023808,0.972072,0.825024,-0.497763,0.267521
-0.363466,0.347717,0.213662,-0.551767,-0.788821,0.270766
-0.284292,0.076169,0.873854,0.965885,0.245659,-0.081961
0.299426,-0.045910,0.819809,0.502328,-0.142351,-0.852879
-0.257175,0.123853,0.890124,-0.214519,-0.479672,-0.850821
-0.101551,0.409767,0.854563,0.101760,-0.290803,0.951356
0.426409,0.151393,0.857024,-0.667559,0.581960,0.464421
0.146528,-0.691218,0.389020,-0.363629,-0.221195,0.904902
-0.421836,-0.453482,0.710298,0.801077,0.598427,0.012692
-0.683747,-0.128036,0.617590,0.312767,-0.361698,-0.878266
0.226028,-0.203052,-0.942672,0.371982,-0.056221,-0.926536
-0.375989,-0.085718,0.575842,-0.688610,0.644236,0.332832
-0.112771,0.204516,0.793079,0.156743,-0.308913,0.938086
-0.653145,-0.362220,0.708331,-0.486066,-0.846846,0.215852
0.306615,-0.737370,0.383315,0.391971,0.397148,0.829839
-0.146966,0.024017,-0.395221,0.993300,0.056151,-0.101008
-0.028043,0.413601,0.752021,-0.632347,0.199136,-0.748654
0.080099,0.000034,-0.684571,0.984502,0.162229,-0.066609
0.284833,-0.212673,0.084234,0.475348,-0.053314,-0.878181
0.187801,-0.330778,0.214990,0.812389,0.578563,0.072719
0.012250,-0.138704,0.401656,0.218690,0.522842,0.823900
-0.072804,0.159759,0.676404,-0.268228,0.963314,0.008919
-0.153065,0.159967,0.848466,-0.137987,-0.908830,0.393684
-0.330903,-0.399938,0.719442,0.769641,-0.169153,-0.615662
0.713695,0.074424,0.813100,-0.429260,-0.684528,0.589201
0.495125,0.172656,0.756788,-0.351640,0.653809,0.669988
-0.559815,-0.257153,0.613735,0.869844,-0.341649,-0.355876
0.197932,0.077632,0.385751,0.877259,-0.416949,0.237842
0.386222,-0.006102,0.501228,0.776838,-0.454482,0.435853
-0.825649,0.594939,0.789705,0.551729,0.392278,0.736012
-0.600329,-0.037404,0.852452,0.768364,0.630252,0.111354
-0.556984,0.140168,0.778659,0.281038,-0.002773,0.959693
-0.658701,-0.105726,0.704931,0.810739,-0.567531,0.143566
-0.497089,0.019974,0.140129,0.671089,0.740704,0.031583
-0.078357,0.210584,0.164175,-0.251519,0.897813,0.361483
-0.002669,-0.244953,0.208308,0.651709,0.314654,-0.690121
0.049277,0.067314,-0.390414,-0.423830,-0.896029,-0.132292
0.033813,0.311811,0.524675,0.351433,0.102924,-0.930538
-0.575389,-0.349947,0.681432,0.720607,0.239196,0.650778
-0.129977,-0.375675,0.694158,-0.083891,0.181053,0.979889
0.601960,0.180184,0.763848,0.581650,-0.018745,-0.813223
0.275467,-0.454805,0.742277,0.525574,0.815713,-0.241627
-0.598693,0.133683,0.781824,0.069211,0.114786,0.990976
0.106560,-0.064871,0.459896,-0.857375,0.281238,0.431060
-0.611110,0.123853,0.599145,-0.453380,0.361875,-0.814551
-0.169725,0.234983,0.840560,0.711496,0.679173,-0.180272
0.256956,0.002825,0.010362,0.990517,0.128409,-0.048854
-0.013015,-0.492941,0.707862,-0.214423,0.389106,0.895890
0.047535,-0.094156,0.920293,0.709830,-0.028421,0.703799
0.088919,-0.071565,0.703641,0.650468,0.466010,0.599772
0.488591,-0.194618,0.845236,0.246839,0.775749,0.580762
-0.164717,-0.285880,0.159486,0.161510,0.914514,0.370916
-0.466051,0.042774,0.289656,-0.013928,0.383797,0.923313
-0.104822,0.458081,0.390232,0.943215,0.332167,0.003243
0.402666,0.260221,0.415945,-0.011145,-0.761886,0.647616
0.000814,0.030642,0.649869,-0.262485,0.953912,-0.145441
0.022922,0.122321,0.842084,0.429537,0.787318,-0.442298
-0.009422,0.003940,0.770895,-0.274899,0.380300,0.883064
-0.396461,0.599888,0.770687,0.078812,-0.371209,0.925199
-0.499265,-0.356224,0.658428,0.516586,0.340370,-0.785677
-0.101990,0.100500,0.284120,-0.306763,0.934231,-0.181958
0.139123,-0.310489,-0.944626,-0.320232,0.174493,0.931131
-0.164498,-0.120300,0.880602,-0.633153,0.464495,-0.619162
-0.126274,-0.082165,0.921205,-0.590390,-0.614897,-0.522820
-0.616989,0.521527,0.770466,-0.510524,0.371787,-0.775332
0.560467,-0.105032,0.222715,-0.711065,0.410390,0.570934
-0.219604,0.273191,0.848571,0.311393,-0.838716,-0.446755
-0.174953,-0.301982,0.782111,0.718908,0.488023,0.494980
-0.030439,-0.142398,0.507376,0.996278,0.084655,0.016229
-0.101226,0.010561,0.829618,0.975717,0.014014,0.218584
0.168635,-0.273540,0.221126,0.818861,0.573983,0.003030
-0.330903,-0.035174,0.622202,0.422123,-0.568268,-0.706317
0.217643,0.287829,0.073630,-0.361907,0.659168,-0.659182
-0.184428,0.137517,0.923823,0.432174,-0.894017,-0.118151
-0.353991,0.045280,0.921309,0.654064,0.586558,-0.477651
-0.497524,-0.268029,0.785706,0.484034,0.654933,-0.580322
-0.150778,-0.403840,0.786631,-0.251118,0.901698,0.351966
-0.076071,0.485621,0.760188,-0.449186,-0.132001,-0.883633
-0.114839,-0.118696,0.063678,0.670446,0.559915,0.486824
-0.055379,0.398959,0.569589,-0.038295,0.300024,0.953163
0.781975,-0.103007,0.405733,-0.162035,0.174754,-0.971188
-0.090770,0.363543,0.464846,0.803026,-0.595524,0.022361
0.246720,0.023251,0.842461,0.408944,-0.708661,0.574947
-0.097523,0.074913,0.864932,0.856363,-0.112392,0.503995
-0.144570,-0.241958,0.401955,-0.234285,-0.495077,0.836665
0.016607,-0.177606,0.211447,0.398244,-0.167970,-0.901769
-0.019223,0.077003,0.899321,0.097137,0.959819,-0.263272
-0.344951,0.124832,0.891153,-0.667209,0.093762,-0.738946
-0.322189,-0.244119,0.901991,0.417620,0.346189,0.840087
0.483582,-0.092969,0.216619,-0.448731,0.429666,0.783599
-0.024560,-0.119743,-0.475162,0.231380,-0.969992,-0.074696
-0.565043,-0.076446,0.666921,0.250539,0.019133,0.967917
-0.328832,0.030850,0.877762,0.728771,0.335552,-0.596907
0.216769,-0.353437,-0.938230,-0.313553,0.124131,0.941422
0.007787,-0.142819,0.893224,0.982498,-0.035259,-0.182905
-0.570926,0.252345,0.323837,0.228360,0.671411,-0.705024
-0.186824,0.014536,0.627503,-0.451051,0.481522,0.751458
0.400709,-0.052323,0.207214,-0.353202,-0.932134,-0.079841
-0.111027,0.034476,-0.683985,0.728177,0.320594,0.605786
0.819002,-0.200124,0.420205,0.524013,-0.537501,-0.660684
-0.154152,0.015165,-0.813843,-0.290187,-0.956848,0.015275
-0.153936,0.318369,0.854302,0.863039,-0.424138,0.274356
-0.341465,0.188414,0.203046,-0.898366,0.352100,0.262610
-0.297579,-0.405095,0.796948,-0.416138,-0.243688,-0.876040
0.169290,-0.191550,0.726164,0.249518,-0.967589,0.038881
-0.644760,0.250881,0.327341,0.050369,0.824474,-0.563654
0.828696,-0.292434,0.414499,0.278709,0.128580,-0.951729
0.565695,-0.856939,0.389828,-0.148772,0.614919,0.774430
-0.665126,0.267544,0.325361,0.076191,-0.874077,0.479775
0.063654,-0.052672,-0.504471,0.856776,-0.459097,0.234874
0.512549,-0.228154,0.435471,0.114793,0.325253,0.938634
0.635610,-0.781574,0.386285,0.253907,0.077208,-0.964142
0.111133,-0.053229,0.923067,0.970558,-0.238044,-0.036765
-0.308905,-0.040191,0.196103,-0.404074,0.790682,0.459943
0.078244,-0.190227,0.208061,-0.037245,0.162034,0.986082
-0.392324,-0.065293,0.131545,-0.812938,-0.053609,0.579877
-0.063983,-0.580994,0.380775,-0.692709,0.226254,0.684809
-0.169509,-0.028757,0.729094,0.913865,-0.100114,0.393481
-0.133898,0.326245,0.855201,-0.117475,-0.900870,-0.417891
-0.546857,-0.018719,0.863277,-0.774664,0.590233,0.226981
0.441002,0.049463,0.851918,0.310644,-0.879195,0.361270
-0.204901,-0.385436,0.714114,-0.639389,0.143514,-0.755371
-0.199347,0.164499,0.424647,0.754185,0.616802,-0.225301
0.157964,0.151670,0.465927,0.628184,-0.732982,0.261001
0.039260,0.015583,-0.622527,-0.346559,-0.936679,0.050292
-0.042417,0.043259,-0.138097,0.989605,-0.110192,-0.092409
0.280586,0.175725,0.699160,-0.051796,0.158459,0.986006
-0.167658,-0.491826,0.366811,0.452793,0.286538,0.844319
-0.708251,-0.141283,0.652409,0.982198,-0.133207,0.132450
0.865613,-0.362500,0.398920,0.885583,0.176324,-0.429713
-0.572883,-0.291246,0.639045,-0.491817,0.870559,-0.015597
0.298991,-0.310978,0.747553,0.572735,0.681937,-0.454903
-0.173537,0.464217,0.859760,-0.604015,-0.677480,0.419745
-0.063438,-0.312301,0.748855,-0.451203,-0.796396,0.402702
0.754749,0.291037,0.807616,0.179622,0.917602,-0.354601
0.432072,-0.241817,0.383211,0.134987,0.148620,0.979638
-0.140433,0.541186,0.327224,0.076338,-0.794406,0.602571
-0.142174,-0.211907,0.871914,0.643203,0.448871,0.620326
0.207188,-0.314812,0.200792,0.824153,0.559133,-0.090233
-0.517016,-0.275140,0.661124,0.805437,0.327149,-0.494212
0.041327,0.215324,0.084468,0.491153,-0.693036,0.527703
0.347673,0.511485,0.725643,0.144577,-0.499326,0.854266
-0.122462,0.317322,0.759406,0.329943,0.230155,0.915514
-0.080534,0.020532,-0.371787,0.921470,-0.376343,-0.096221
-0.235068,0.136053,-0.965481,-0.365030,0.085924,0.927022
-0.710647,0.593960,0.780353,0.964800,-0.008153,0.262858
-0.365207,-0.154389,0.061047,-0.731355,-0.084601,0.676729
0.317287,-0.238400,0.448107,0.046376,-0.998040,0.042017
-0.503732,0.014468,0.301028,-0.598920,0.260984,0.757088
0.045358,0.160665,0.851762,0.013289,-0.220186,0.975367
-0.179526,-0.347300,0.780626,0.291782,-0.515919,-0.805413
0.436100,-0.036987,0.404417,0.251070,-0.665889,-0.702535
-0.088048,0.107262,0.943961,0.635464,0.715171,0.291060
0.141190,0.073935,-0.240769,-0.291815,-0.742832,-0.602532
-0.504384,0.016489,0.227365,0.962833,0.257036,-0.082975
-0.019223,0.171682,-0.396224,0.898032,-0.320116,-0.301768
-0.468337,0.480741,0.757101,0.183675,0.644775,-0.741977
-0.386334,0.146861,0.759003,-0.044828,0.955957,0.290064
-0.316964,-0.073237,0.615558,-0.589288,0.557093,0.585139
0.002559,-0.251579,0.478054,0.777788,-0.321427,-0.540120
0.115164,-0.468541,0.691436,0.809444,0.566583,0.154220
-0.007677,0.050582,0.447391,0.282704,-0.800642,0.528253
-0.125949,0.364662,0.837329,-0.466646,0.859588,0.208206
0.808765,-0.187576,0.415646,-0.235946,0.638195,0.732828
0.185841,-0.313556,-0.940562,-0.386161,0.140495,0.911669
-0.167658,-0.275421,0.687411,-0.259657,-0.075840,0.962718
-0.210348,0.554084,0.820890,0.432805,0.834584,0.340807
-0.330903,0.416738,0.331536,-0.832612,0.331326,-0.443824
0.160795,-0.262732,0.194826,0.812401,0.582402,-0.028503
0.636155,-0.119743,0.764604,-0.252807,0.438214,0.862588
-0.251293,0.236447,0.418160,0.639341,0.269703,-0.720072
0.334602,0.378883,0.299335,0.453663,0.395505,-0.798602
0.194120,0.058876,0.878830,0.892486,0.085263,0.442944
-0.559490,0.099871,0.839439,-0.341685,0.177282,-0.922942
-0.145006,-0.058599,0.900506,0.820437,0.027122,-0.571094
0.032287,0.422039,0.742069,-0.687484,-0.095690,-0.719868
0.319793,0.056437,0.430222,0.019269,-0.175500,0.984291
-0.209913,0.084743,0.891401,-0.290351,-0.956385,-0.031991
0.518758,0.260221,0.785902,0.329850,0.099603,-0.938764
-0.366294,-0.438980,0.800921,-0.700623,-0.664703,-0.259419
-0.670899,-0.429218,0.593622,-0.653699,-0.715388,0.246776
-0.267631,0.197337,0.371695,0.758276,-0.457556,0.464392
0.467464,-0.827029,0.381491,-0.200764,0.100569,0.974464
-0.642363,0.278489,0.329386,0.080415,-0.892225,0.444375
-0.035012,0.290829,-0.222754,0.911448,-0.213069,0.351943
-0.202834,0.151950,0.936067,-0.330252,0.850162,-0.410072
-0.763683,-0.040540,0.644450,-0.654512,0.161748,-0.738547
0.003430,-0.004426,-0.187636,-0.431085,0.878118,0.207546
-0.060713,-0.153274,0.403753,-0.350638,0.466910,0.811818
-0.047100,-0.252413,0.880094,0.305967,-0.951001,0.044513
0.100897,-0.276395,0.771508,0.949091,-0.308808,-0.062168
-0.268611,-0.004009,0.618711,0.454514,-0.407961,-0.791823
-0.170270,-0.167427,0.868279,0.798832,0.014406,0.601382
0.051018,0.018302,0.110104,-0.802387,0.395388,0.447038
-0.237899,-0.126364,0.765633,0.745560,-0.542744,-0.386743
-0.159380,0.405304,0.749819,-0.190895,0.114706,-0.974886
0.011054,0.426499,0.455871,0.157152,-0.986119,-0.053593
-0.419224,-0.438840,0.599028,0.598595,-0.319999,0.734360
-0.613506,0.661172,0.763822,0.569591,0.821449,-0.028064
0.282547,-0.445252,0.745976,0.926154,-0.108180,-0.361297
-0.132809,0.022136,-0.713984,0.584910,0.796649,-0.152414
0.113858,0.055182,-0.400640,-0.819800,-0.572489,0.013598
0.296704,0.298288,0.708956,0.661005,0.013523,0.750259
0.336347,0.056927,0.830412,0.910895,-0.404953,0.079264
-0.690826,-0.326871,0.626943,-0.656837,0.309519,0.687578
0.094037,-0.151393,0.091098,0.090528,0.472793,-0.876511
0.273072,-0.471120,0.748243,0.790836,-0.539360,-0.289254
-0.512769,-0.133755,0.680520,-0.492060,0.722340,0.485902
0.153822,0.109351,0.529990,-0.484597,-0.780900,0.394159
-0.779256,0.186877,0.820004,-0.388312,0.916917,0.092067
-0.282224,0.066475,0.186033,0.001855,0.885370,0.464883
-0.422491,0.229545,0.187128,0.719386,0.272669,-0.638854
-0.364117,0.231707,0.413562,0.895728,-0.227315,0.382099
-0.413996,-0.021927,0.028260,0.844707,0.226599,0.484894
-0.497415,0.341373,0.152725,0.868627,-0.339775,-0.360612
-0.713695,0.479975,0.762363,-0.286796,-0.080126,0.954635
-0.634523,0.111794,0.808880,-0.611063,0.476544,-0.632066
-0.265996,0.470979,0.805376,-0.460833,-0.149461,0.874811
0.363463,0.073169,0.665840,0.041821,-0.991472,0.123430
-0.042962,0.507234,0.742746,-0.731764,0.384148,-0.562985
-0.493931,0.307420,0.737132,0.056533,-0.316114,0.947035
-0.077486,-0.303097,0.730527,0.608375,0.165988,-0.776098
-0.548709,-0.289365,0.201873,-0.342426,0.519112,0.783113
-0.060822,0.134521,-0.302240,-0.554407,0.832046,0.018217
-0.131502,0.159619,0.364661,0.461072,0.496056,0.735759
-0.581813,-0.126504,0.544058,0.505688,-0.836724,-0.210174
-0.092295,0.356083,0.525456,-0.305026,0.951138,-0.047909
0.226028,-0.855196,0.394700,-0.078226,0.866266,0.493421
-0.544352,0.068918,0.415607,-0.698344,0.080505,-0.711220
-0.200002,-0.082582,0.784339,0.801976,0.386581,-0.455401
-0.297904,-0.185903,0.402554,0.178108,0.143735,0.973457
-0.064418,0.441490,0.854693,0.681077,0.724206,-0.107980
0.180832,0.030012,0.637950,0.942869,-0.293763,-0.157169
0.521479,-0.367517,0.394035,-0.100262,0.125961,0.986956
0.917452,-0.335237,0.425858,0.873435,-0.377459,0.307630
-0.646285,0.628194,0.757726,0.853549,-0.149790,0.499016
0.361937,-0.390457,0.749989,0.510622,-0.216505,-0.832100
0.046445,0.086764,0.703993,-0.125628,-0.882370,0.453476
0.449278,-0.104543,0.762468,-0.337209,-0.280961,0.898527
-0.261097,0.308535,0.751096,0.507106,0.751371,-0.422240
-0.133679,0.155435,0.587735,0.921588,0.048527,-0.385125
-0.243343,-0.358803,0.790422,0.565572,0.645481,0.513305
-0.693658,-0.304425,0.702013,0.963476,-0.266909,0.021776
-0.124749,0.243213,0.583723,-0.115287,-0.728530,0.675243
-0.450697,0.039357,0.809427,0.234383,0.892328,0.385765
-0.645959,-0.276885,0.622944,0.871010,0.410786,-0.269436
-0.258372,-0.302191,0.711705,-0.024993,0.577296,0.816152
0.008113,-0.384181,0.736363,0.543032,0.642814,-0.540283
-0.347782,-0.207375,0.893342,0.316763,0.488197,0.813219
-0.635504,-0.200963,0.569511,-0.177686,0.640946,0.746737
-0.297469,0.324782,0.867888,-0.636302,0.733941,-0.237592
-0.342010,0.051207,0.829227,0.803017,0.182609,-0.567290
-0.149033,0.030153,0.916958,-0.664582,0.531925,0.524773
0.949032,-0.323458,0.445046,0.542912,-0.727494,-0.419522
0.043069,0.036987,0.857168,0.191682,-0.278528,0.941106
-0.193904,-0.023042,0.552642,0.588361,0.019991,0.808351
-0.350069,0.050301,0.200610,-0.138534,-0.967705,-0.210606
-0.008986,0.028340,0.859773,0.086552,-0.062235,0.994302
0.403102,-0.749643,0.381934,0.139470,0.075558,-0.987339
-0.099158,-0.532889,0.704879,-0.037501,0.305490,0.951456
-0.381216,0.197405,0.232993,0.385320,0.484271,-0.785500
0.098394,0.047305,-0.118688,0.994544,0.103947,-0.008808
-0.164826,0.482064,0.317637,0.136934,-0.627521,0.766464
-0.034142,-0.123364,0.891518,0.961569,0.236010,0.140303
-0.474001,-0.220971,0.787295,-0.185529,0.004603,0.982628
0.829131,0.305956,0.801716,0.087494,-0.818206,0.568229
0.024122,-0.040331,0.809140,0.369230,0.509015,-0.777543
0.314239,-0.316207,0.785980,0.761870,0.548955,-0.343805
0.154587,-0.256804,0.211473,0.864245,0.394614,-0.312025
0.106124,0.467494,0.729629,0.179737,-0.393912,0.901403
0.134111,-0.519502,0.684324,0.331640,-0.090229,-0.939081
-0.063764,0.435005,-0.164358,-0.488895,-0.273934,0.828216
0.079660,0.050650,0.640582,0.957444,-0.278000,-0.077566
0.410835,-0.422874,0.369103,-0.107530,0.768420,0.630847
-0.528017,0.034753,0.732833,0.076377,-0.256236,0.963592
-0.095127,0.815875,-0.446479,-0.463360,0.273849,0.842795
0.041001,0.226549,0.509030,-0.673758,0.270008,-0.687856
-0.255215,0.069335,0.503221,0.115824,-0.322228,0.939550
-0.525946,-0.400704,0.641845,-0.535783,0.842730,-0.052376
-0.709993,-0.144632,0.774999,-0.472475,-0.790551,-0.389611
-0.197061,-0.215465,0.478588,-0.044451,-0.881797,0.469529
-0.632018,-0.261336,0.621681,0.864107,0.480117,0.151017
0.147943,0.226966,0.486287,0.815028,0.560013,0.148713
-0.374138,-0.356713,0.809818,-0.529151,-0.535382,-0.658306
-0.428479,0.067939,0.468037,0.584990,-0.068382,-0.808152
0.441983,-0.003868,0.784834,-0.484028,-0.854067,0.190489
-0.305528,-0.327709,0.789797,-0.561449,-0.827448,-0.010204
0.268173,0.061178,0.905065,0.529236,0.186035,-0.827829
0.129322,0.224039,0.707771,-0.371495,0.687334,-0.624150
-0.396571,0.009378,0.222337,-0.130384,-0.479511,0.867795
-0.346693,0.131734,0.411790,-0.412502,0.895840,-0.165265
-0.719142,-0.017744,0.652787,-0.263826,0.946215,0.187275
-0.540975,-0.345837,0.712825,0.643885,0.612673,-0.458305
0.168961,-0.843692,0.388199,0.584156,-0.809883,-0.053405
0.753769,-0.106913,0.402112,-0.096122,-0.473753,0.875396
-0.066705,0.049603,-0.263448,0.814317,-0.580337,0.009845
0.367491,0.063131,0.202967,-0.283969,-0.414437,0.864640
-0.133679,-0.077701,0.535135,-0.561735,0.159040,-0.811887
-0.708361,-0.180882,0.628324,0.915964,-0.102892,0.387844
-0.459298,-0.017953,0.353472,0.748892,0.344021,0.566402
0.102642,0.329173,0.530993,-0.167105,0.212205,-0.962832
-0.453744,0.338096,0.350528,0.189802,-0.703872,0.684500
-0.703349,-0.340190,0.624429,-0.508054,0.613987,0.604070
0.079334,0.012515,-0.512222,0.952823,0.287746,0.096596
0.127142,-0.193644,0.648541,0.576149,0.437988,0.690086
0.269263,-0.465265,0.753388,0.885240,-0.342615,-0.314587
-0.471060,0.173703,0.905000,0.937906,-0.314708,0.145916
-0.091425,0.467213,0.841224,0.323051,-0.427920,0.844110
-0.257391,-0.305748,0.383679,0.798543,0.040479,-0.600576
-0.046339,0.279744,0.511310,0.847982,0.470423,0.244190
0.196516,0.052463,0.599432,-0.392508,-0.654500,-0.646195
-0.138581,0.040612,-0.554895,-0.514638,0.815718,-0.264105
0.161882,-0.295289,0.217036,0.917075,0.394795,-0.055763
-0.501446,-0.386551,0.657438,0.669271,-0.015350,-0.742860
-0.198257,0.235889,0.578538,0.913525,-0.251275,0.319894
-0.683531,0.001919,0.672613,0.736687,-0.578642,-0.349951
-0.186934,-0.254158,0.877046,-0.350692,0.844880,0.403972
0.384264,-0.094573,0.618854,-0.106464,0.774430,0.623638
-0.310211,0.323526,0.360688,0.401427,0.716796,-0.570140
-0.048080,0.094156,-0.213414,0.959299,-0.277508,-0.052299
0.249006,-0.381811,0.719651,-0.535161,0.686552,0.492188
-0.283311,0.429499,0.320073,-0.639294,0.579400,-0.505568
-0.076832,0.051697,0.630617,0.802285,-0.577303,0.151858
0.126490,0.373304,0.845340,-0.631822,-0.379413,-0.675904
-0.318270,0.467354,0.773006,-0.332710,-0.286152,0.898566
0.419765,-0.620317,0.400613,-0.435323,0.504312,0.745764
-0.110046,0.165265,0.943753,0.399695,0.643445,0.652857
-0.101551,-0.055599,-0.511115,0.886613,-0.344878,-0.308184
-0.085001,0.210026,0.179156,-0.666850,-0.615610,0.419923
-0.058320,0.446788,0.800517,0.940990,-0.335221,-0.046524
0.481076,-0.504583,0.397813,0.779700,0.258213,-0.570433
-0.117125,0.047582,-0.629770,-0.277104,0.946700,0.164232
0.270785,-0.095547,0.831819,0.273563,0.822222,0.499113
-0.066270,-0.085301,-0.527137,0.003453,-0.999182,0.040304
0.039476,-0.494821,0.700854,0.632786,0.286225,0.719484
-0.069862,0.334262,0.430808,-0.591526,-0.147616,0.792658
-0.069536,-0.356781,0.073240,0.000374,0.742752,0.669567
-0.300846,-0.118347,0.883259,-0.070532,0.284658,0.956031
-0.012034,0.034893,0.906355,0.883804,-0.438700,-0.162580
-0.342445,0.497681,0.767261,-0.419172,-0.382442,0.823428
-0.440567,0.606513,0.773787,-0.461254,-0.703726,-0.540383
0.861585,-0.170495,0.408872,0.388484,0.879724,0.274163
-0.444705,-0.017396,0.859734,0.247868,-0.182201,0.951506
-0.065399,0.266774,0.299726,-0.369995,0.298309,0.879838
0.409419,-0.248302,0.429401,-0.355861,0.817448,-0.452927
0.238225,-0.239239,0.841185,-0.614456,-0.276210,0.739021
-0.257936,-0.047165,0.933136,0.759248,0.104180,0.642409
0.720009,-0.394917,0.387705,0.228755,0.967217,-0.110281
-0.443618,-0.067731,0.143998,0.938617,0.304764,0.161608
0.530629,-0.017885,0.755850,-0.502937,0.261314,-0.823875
0.312494,-0.107820,0.807056,0.627039,0.446397,-0.638397
-0.453744,0.126083,0.068355,-0.694934,0.718567,0.026984
-0.561341,-0.265591,0.705361,0.634601,-0.210891,-0.743510
0.492838,-0.036846,0.217309,-0.616245,0.145353,0.774025
0.078789,-0.011051,-0.582068,0.862830,0.497702,-0.088411
-0.318270,-0.314395,0.721826,0.257971,0.957665,0.127783
0.306941,0.212673,0.442753,0.584839,0.548115,-0.597940
-0.101226,-0.371773,0.792832,0.972395,-0.231959,0.025368
-0.088268,0.159967,0.894058,0.460591,0.872016,-0.165661
0.139884,0.401959,0.458072,0.372211,0.465666,-0.802879
0.564279,0.061735,0.130412,0.887816,0.307257,0.342603
0.164714,0.341164,-0.699043,0.773469,-0.507316,-0.379969
0.374354,-0.140866,0.202068,-0.197139,0.959488,-0.201295
0.116035,-0.018302,0.862014,-0.486994,0.211072,0.847517
0.142281,0.474537,0.276891,-0.196148,-0.979774,0.039598
-0.241386,0.472724,0.374704,-0.413033,0.419319,-0.808440
-0.102861,0.399448,0.853677,0.002993,-0.408953,0.912550
-0.447971,-0.275838,0.780613,-0.140640,0.545515,0.826217
-0.080753,-0.280442,0.162456,0.316679,0.776809,0.544318
0.414647,-0.632585,0.398686,-0.371489,0.621752,0.689507
0.172663,-0.010353,0.943857,0.925496,0.377329,0.032878
0.158289,-0.652593,0.392199,0.918233,0.395846,-0.012392
0.644215,0.204099,0.771208,-0.348599,0.738598,-0.577020
0.083581,-0.400844,0.725864,-0.299220,-0.916504,0.265495
-0.185844,0.330918,0.371292,-0.658089,0.627715,-0.415804
0.153171,0.253179,0.503129,-0.414324,-0.628793,0.657994
0.286033,-0.267544,0.855383,0.877114,0.353357,-0.325284
-0.067031,0.087113,-0.224474,0.969176,-0.243628,-0.036648
0.138252,-0.255830,0.405042,-0.173648,-0.779613,0.601706
-0.317400,-0.187367,0.620183,-0.703277,0.306465,0.641468
-0.273294,0.289714,0.856972,-0.360814,-0.499707,0.787468
-0.685598,-0.083556,0.659496,0.628936,0.081722,-0.773150
0.837516,-0.094292,0.410787,0.867909,-0.019108,0.496355
-0.107869,0.306722,0.260335,-0.654307,-0.163389,0.738367
-0.474872,-0.080837,0.856074,0.257770,-0.068471,0.963777
0.182029,0.287901,0.798615,0.252657,-0.804932,0.536888
0.093927,-0.276046,0.687072,-0.429020,0.330662,0.840598
0.152952,0.250323,0.603144,-0.784304,0.280736,0.553222
0.031091,-0.325131,0.410774,0.384876,0.903201,-0.189994
-0.013234,-0.453622,0.700645,0.294588,0.579464,0.759894
0.353988,0.199358,0.438897,-0.711795,-0.444936,0.543488
-0.061258,-0.032034,-0.399923,0.881041,-0.469328,0.059154
-0.073129,0.071496,0.811720,0.956906,0.057854,-0.284578
0.099916,-0.259736,-0.944261,0.333011,-0.138734,-0.932661
-0.283421,-0.261825,0.271576,0.006799,0.408627,0.912676
0.034139,0.267753,0.531005,-0.145418,0.094413,0.984855
-0.454615,-0.115696,0.310095,0.945483,-0.190040,0.264473
-0.553717,0.234843,0.790891,0.871300,-0.431764,0.233271
0.284617,-0.828144,0.411477,0.957566,-0.255013,0.134294
0.027063,-0.195592,0.403245,-0.221934,0.038302,0.974309
-0.603921,-0.153415,0.710715,-0.500914,0.062100,0.863266
-0.060171,-0.756264,0.404613,0.070609,-0.136796,0.988080
-0.134224,-0.001149,0.217322,0.877243,-0.479661,0.019263
-0.538579,0.519923,0.768121,-0.084632,-0.531878,0.842581
-0.200653,0.105377,0.616731,0.314230,-0.058601,0.947537
0.140429,0.021161,-0.948690,-0.247179,0.153590,0.956720
0.654016,-0.989543,0.409484,0.451020,-0.377123,-0.808925
0.091531,0.225783,0.588047,0.053315,-0.998268,0.024851
-0.042527,0.072263,0.901262,-0.388018,0.881803,-0.268076
0.246175,0.248230,0.077656,0.768624,-0.515671,0.378550
-0.216772,-0.052531,0.004136,-0.069392,0.754587,0.652521
0.189002,-0.100288,0.701570,0.727121,0.641045,-0.245676
0.072145,0.094505,-0.358474,0.044090,-0.007786,0.998997
0.074000,0.588526,-0.573536,-0.374576,0.669133,-0.641836
0.264686,-0.210235,0.399454,-0.428553,0.536174,-0.727228
-0.013885,0.087811,-0.417013,-0.059818,-0.972860,0.223529
0.107650,-0.546204,0.369650,0.123003,-0.279545,0.952221
-0.396681,-0.029663,0.143073,0.900621,0.197741,-0.387015
0.787967,0.330428,0.769658,-0.625975,-0.777691,0.057899
-0.571903,0.345347,0.722386,0.911917,0.312537,0.265947
-0.265125,-0.167499,0.073722,0.228634,0.956914,-0.179000
-0.171141,0.332731,0.844754,-0.630231,0.757310,0.171147
-0.627880,-0.234217,0.783349,0.407659,-0.044445,-0.912052
-0.035993,0.172725,0.470225,-0.312330,-0.910699,0.270326
0.675252,-0.185065,0.328292,0.847312,-0.360320,0.390168
0.082820,-0.203052,0.463230,-0.675552,-0.706413,-0.211212
-0.284401,-0.174469,0.888548,-0.162467,-0.915826,-0.367242
0.350611,0.019136,0.503273,0.809195,-0.356289,0.467184
-0.398532,0.400287,0.766362,0.269417,0.021986,-0.962773
0.429892,0.142261,0.450126,0.931379,0.294850,-0.213533
0.105144,0.038378,-0.283378,-0.164188,0.986168,0.022706
-0.155026,0.226409,0.855540,-0.814846,0.108755,-0.569385
-0.793630,-0.104262,0.779128,0.851093,0.437879,0.289659
-0.172447,0.324709,0.848805,0.875230,-0.219397,-0.431088
0.008548,0.176839,0.472570,0.765678,-0.019337,0.642933
-0.738198,-0.135219,0.614529,-0.315243,0.242536,-0.917496
-0.133134,-0.353505,0.404300,-0.027970,0.321985,0.946332
0.077157,-0.004009,-0.616548,0.552835,0.832924,0.024706
0.189108,-0.268170,0.416089,-0.164110,0.934766,-0.315087
0.353226,0.577858,0.729550,-0.495537,0.349923,0.794982
0.357474,-0.099105,0.098589,-0.839203,0.529480,0.124056
-0.033381,-0.027434,0.782958,-0.895051,0.439892,-0.073344
-0.631692,-0.270540,0.668497,0.018434,-0.875753,0.482406
-0.695073,0.117789,0.849105,-0.306536,-0.948937,-0.074526
0.422487,0.031127,0.778333,0.488381,0.779849,-0.391559
-0.081514,0.215043,0.115783,-0.160562,0.628562,0.761005
0.544568,0.314531,0.790109,-0.642394,0.177998,0.745417
-0.544026,0.309790,0.133824,-0.467478,0.805934,-0.363228
-0.221455,-0.045701,0.582107,0.728417,-0.571254,0.378256
-0.057010,0.360198,0.368269,-0.516332,0.323763,-0.792830
0.017043,0.315437,0.448328,0.719650,-0.389096,-0.575072
-0.610020,0.221668,0.793978,0.934252,-0.212342,0.286502
0.053308,-0.485064,0.382624,0.057641,0.483713,0.873326
-0.746477,-0.145674,0.777943,0.558111,0.572578,0.600556
-0.429240,-0.048770,0.361613,0.843841,0.534429,-0.048153
-0.086088,0.021719,-0.382012,0.999333,-0.023973,-0.027553
-0.306618,-0.267472,0.140090,0.792519,0.583377,-0.177724
0.182903,0.441490,0.729394,0.098646,0.496014,-0.862693
-0.629186,0.109143,0.806861,-0.387947,0.651393,-0.652062
-0.102751,0.034195,0.717697,0.963017,0.068817,0.260505
-0.642038,0.047233,0.463256,-0.422051,0.568438,-0.706223
-0.375879,-0.292918,0.079062,0.796062,0.202626,-0.570287
0.139123,-0.289225,0.444981,-0.470436,0.519213,-0.713518
-0.051241,0.148742,0.809974,0.942942,-0.230447,-0.240323
0.728723,-0.026178,0.339312,-0.660657,0.125046,-0.740200
-0.210348,-0.247464,0.890293,0.862786,0.292297,0.412507
0.263925,-0.660542,0.411477,0.074257,-0.918178,-0.389147
-0.071933,-0.085858,-0.544032,0.496005,0.850068,-0.177096
-0.557639,0.183044,0.778464,0.480912,-0.321776,0.815588
0.086523,-0.371424,0.370666,0.469314,-0.082271,0.879191
0.003430,0.012723,-0.755746,0.799677,0.579430,-0.157413
-0.334715,-0.026178,0.838762,0.855155,-0.300367,-0.422480
-0.585409,-0.036497,0.669135,0.091473,-0.109920,0.989722
-0.631802,-0.276187,0.636752,0.928815,-0.336989,-0.154083
-0.226137,-0.337820,0.797078,0.594938,0.661352,0.456795
-0.007571,0.102313,-0.081733,0.827262,-0.560377,0.040193
0.505690,0.292501,0.427955,0.836123,-0.326234,0.440988
0.346148,0.223690,0.745442,-0.248147,0.588069,0.769804
0.148379,-0.005404,0.937279,0.594977,0.763988,-0.249651
0.058752,0.250740,0.385295,-0.429554,0.236264,0.871586
0.317177,-0.311467,0.396367,-0.264581,-0.304235,0.915116
-0.682221,-0.027434,0.472752,-0.286638,-0.064615,0.955857
0.290171,-0.388781,0.769762,-0.755040,-0.013113,0.655547
-0.099594,0.390666,0.838176,0.318295,-0.132781,-0.938647
-0.613832,-0.305122,0.630122,-0.513540,-0.718451,-0.469153
-0.411925,0.107053,0.342855,0.993693,-0.034473,0.106701
0.446665,0.263289,0.480620,0.878887,-0.232989,-0.416261
-0.461149,0.404746,0.370979,0.142482,-0.957833,0.249510
-0.288213,0.257085,0.808671,0.070663,0.348478,0.934650
0.381974,-0.374492,-0.932264,0.197575,-0.106481,-0.974487
0.242253,-0.095828,0.845145,0.510258,0.787835,0.344894
0.027714,-0.025272,-0.841159,-0.304208,-0.952605,0.000171
-0.363028,-0.093250,0.369963,0.869459,0.491468,-0.050011
0.165478,-0.074144,0.739776,0.277814,0.170366,-0.945407
0.413992,-0.031340,0.758781,-0.124708,-0.348223,0.929079
-0.635723,0.101892,0.849430,0.165955,0.956528,0.239820
-0.018352,0.181512,0.643252,0.903597,-0.167746,-0.394175
-0.572122,-0.086556,0.456613,-0.468912,0.594491,-0.653224
-0.074871,0.208422,0.886737,0.283737,0.766420,0.576275
0.389924,-0.267404,0.857363,-0.044293,-0.889823,0.454151
-0.016066,-0.208839,0.409172,0.881079,0.323219,-0.345295
0.494908,0.055322,0.797430,-0.319549,0.086245,0.943637
-0.131283,-0.028272,0.224578,0.943240,-0.312536,0.112339
0.023792,0.119670,-0.186893,-0.026237,-0.988952,0.145895
-0.455595,0.181512,0.741183,0.621026,0.606950,0.495921
-0.512878,-0.057552,0.764408,0.344451,0.328832,0.879331
-0.036103,0.086347,-0.955177,-0.375777,0.212240,0.902079
-0.275471,-0.057412,0.500798,-0.151742,0.538481,0.828862
-0.648791,-0.043816,0.632870,0.968747,-0.206012,0.138159
0.576802,-0.875553,0.396536,-0.040398,0.615463,0.787130
-0.267086,0.375883,0.409445,0.897815,-0.435734,0.063747
-0.431637,0.270957,0.720680,0.016858,-0.726920,0.686516
-0.443834,0.070658,0.147788,-0.486263,-0.826824,0.282685
0.442853,-0.054067,0.771312,0.089303,-0.632837,0.769118
0.252273,-0.316625,0.741496,0.785807,0.354035,-0.507116
-0.541085,0.362917,0.365573,0.198184,-0.863106,0.464513
-0.440786,0.065080,0.796987,0.042275,0.949655,0.310433
-0.148163,-0.361453,0.792975,0.271801,-0.558483,-0.783723
-0.363356,0.019417,0.151214,0.218310,-0.975872,0.003729
-0.289194,0.341232,0.872786,0.576788,-0.782869,0.233308
-0.249006,0.961375,-0.473143,-0.602450,0.111089,0.790388
-0.099158,-0.509881,0.705648,-0.050322,0.317036,0.947078
0.065505,-0.263638,0.476634,0.561551,-0.407828,-0.719956
0.284292,-0.335309,0.756059,-0.100919,-0.950491,-0.293909
-0.034687,0.103007,-0.197978,-0.677075,0.713997,0.178263
-0.290280,0.191409,-0.966653,0.432371,-0.189656,-0.881525
0.262290,0.401678,0.331340,0.606513,-0.737055,-0.298147
-0.612306,0.458920,0.768629,0.520353,-0.789938,0.324393
0.311953,0.367726,0.333828,0.713728,-0.699182,-0.041682
-0.326981,-0.078539,0.881826,0.504350,0.014941,-0.863370
-0.355406,-0.092828,0.627230,0.396756,-0.436441,0.807529
-0.018133,0.073101,-0.284225,-0.394231,0.918260,0.037154
-0.093712,-0.242234,0.409693,0.340182,0.864680,-0.369602
-0.342555,0.132151,0.232289,-0.561152,0.401027,-0.724076
-0.100790,0.455571,0.097911,0.390432,0.583735,-0.711910
-0.610674,0.283927,0.338505,0.021106,-0.927923,0.372174
-0.260662,0.089483,0.620456,-0.723263,0.412104,0.554131
0.813884,0.261127,0.776380,-0.639096,0.735450,-0.225097
-0.598587,-0.166661,0.759654,-0.170304,-0.978323,-0.117819
-0.518106,0.093735,0.128054,-0.607396,-0.782388,0.137618
0.490771,0.271727,0.486169,0.841444,-0.355874,-0.406603
-0.506129,-0.055880,0.870950,0.088583,0.801003,0.592070
0.011054,0.068846,0.666491,0.984715,0.101149,0.141790
-0.092625,-0.206890,0.012238,-0.641963,-0.419528,0.641779
-0.737328,-0.077701,0.767847,-0.784001,-0.189244,-0.591210
-0.095018,0.511068,0.870038,-0.789138,0.613863,0.020808
0.433053,-0.399172,0.737158,-0.571171,0.819327,0.049668
0.344622,-0.315020,-0.934817,0.232035,-0.003173,-0.972702
0.086958,0.080696,0.892365,-0.451924,0.786858,-0.420261
0.271114,-0.244187,0.847633,0.947593,0.250083,-0.198810
0.048296,-0.211282,0.915499,0.932750,0.093795,0.348108
-0.182903,0.111653,0.958082,-0.311736,-0.941817,0.125703
0.327087,0.280229,0.792754,-0.417115,0.547657,-0.725318
0.091641,-0.239588,0.865335,0.020244,-0.979741,0.199244
-0.490880,0.264336,0.113100,0.329012,-0.828190,0.453710
-0.040785,-0.479835,0.381400,0.217686,0.845561,0.487483
-0.717726,-0.055808,0.622632,0.859252,-0.398669,0.320545
-0.629625,-0.328267,0.637924,0.828308,-0.499397,-0.253987
-0.040676,-0.060340,0.936276,0.793909,0.580438,0.181111
-0.636265,-0.169938,0.609436,0.293959,-0.519181,0.802520
0.268934,-0.196499,0.744518,-0.943321,0.324078,-0.071549
-0.323605,-0.121832,0.186685,-0.369860,-0.343534,-0.863243
0.158944,-0.170635,0.129304,0.405937,0.906820,-0.113548
-0.169074,0.221179,0.185942,0.175080,-0.548925,0.817330
-0.288323,-0.300867,0.801338,-0.700993,0.289083,-0.651951
-0.396351,-0.074565,0.373910,0.935336,0.183833,-0.302244
-0.364337,0.117581,0.834411,-0.201171,0.463715,0.862843
0.006913,-0.050369,0.886359,0.910104,0.164392,0.380376
0.405498,-0.487086,0.754626,0.487417,-0.206330,0.848441
0.107215,-0.806046,0.410526,0.476137,0.431855,0.766026
0.171467,0.202077,0.569576,0.876653,-0.078917,-0.474607
0.164607,0.434239,0.734018,-0.105058,-0.683064,0.722763
-0.283421,0.267404,0.724066,0.277236,0.680193,-0.678585
0.336888,0.157180,0.838228,-0.627852,-0.684480,-0.370526
-0.684618,0.033638,0.858093,-0.077744,-0.937436,0.339366
0.342661,-0.205354,0.442844,-0.795017,0.242863,-0.555846
-0.107108,0.101334,0.951373,0.747316,-0.055275,0.662166
0.353878,0.085301,0.298045,0.950362,-0.180507,-0.253434
0.079553,0.188971,0.498414,-0.657089,0.238989,-0.714926
0.476503,0.321922,0.702690,0.610460,0.010790,0.791974
0.455921,0.115904,0.815667,-0.138523,0.949648,-0.281033
0.001688,0.156972,0.616119,-0.773259,0.625353,-0.104897
0.124965,0.006238,0.676729,0.951489,0.307267,0.015996
-0.191181,-0.024923,-0.633483,0.056180,0.990846,0.122755
-0.237790,0.323386,0.525352,-0.225950,0.973838,0.024192
-0.684947,-0.376998,0.633183,0.912944,-0.122064,0.389402
-0.529107,0.483668,0.757622,-0.143384,-0.717732,0.681397
0.288100,-0.469584,0.753962,0.803883,-0.390847,-0.448342
-0.332864,-0.085858,0.293577,-0.583847,0.064347,-0.809310
-0.258372,-0.395474,0.780730,0.540907,-0.813734,0.212735
0.080099,-0.285808,0.761582,0.726198,0.583678,0.363258
-0.263709,-0.170776,0.102744,0.952062,-0.191078,0.238886
-0.120611,0.046957,0.959762,0.888490,-0.156624,0.431340
0.319683,0.275421,0.802523,0.310023,0.280520,0.908402
0.126597,0.325130,0.320646,0.005981,-0.473061,0.881010
-0.103296,0.045003,-0.428919,0.977589,-0.164721,-0.131097
-0.159380,0.110398,0.951660,0.420860,0.627984,0.654608
-0.496544,-0.154181,0.751487,0.171015,-0.915550,0.364036
0.251838,-0.287693,0.800491,-0.103910,0.499100,0.860292
-0.175389,-0.260642,0.059953,-0.291698,-0.070065,-0.953941
-0.137272,-0.056855,0.950435,0.997303,-0.059861,0.042461
-0.077812,0.432146,-0.749246,-0.310923,-0.194233,-0.930376
0.049277,-0.361313,0.471215,0.794295,-0.594937,0.123071
0.379252,0.006727,0.838085,0.976313,-0.199722,-0.083205
-0.769562,0.026668,0.738434,0.357340,0.623677,0.695223
0.461259,0.247115,0.778946,-0.192451,0.307802,0.931784
-0.231581,0.263846,0.587552,0.854415,0.431149,-0.289976
