0.301226,0.369775,0.575872,0.177660,-0.045232,-0.983052
0.244736,0.125492,0.965284,0.168985,0.471847,0.865335
0.092392,0.148891,0.683681,0.793194,0.325559,0.514641
-0.513260,0.376036,0.692374,0.186449,-0.889753,0.416625
0.094921,-0.152776,-0.961637,0.266068,-0.218628,-0.938834
0.246269,-0.354095,-0.256482,0.834786,0.537653,-0.118579
0.416133,-0.039275,0.512049,0.367390,0.878302,-0.305958
-0.031308,0.102188,0.771652,0.352618,0.932641,-0.076429
0.365241,0.277392,0.956721,0.926058,0.168272,0.337788
0.453302,-0.291324,0.273724,0.019455,0.882616,0.469692
0.341392,0.101946,0.546779,0.259524,0.363204,0.894835
-0.311951,0.487742,0.674454,-0.670536,-0.005883,-0.741854
0.422996,-0.261421,0.031868,0.942632,0.044477,-0.330859
0.435583,0.411622,0.673258,0.806489,0.426829,0.409136
0.331000,0.101800,0.833601,0.861320,-0.476500,-0.176284
0.289834,0.030389,0.561859,0.919318,0.347227,0.185169
0.322941,0.379971,0.575685,-0.500972,0.171636,0.848274
-0.425394,0.165784,0.812610,0.951168,0.189829,-0.243404
0.424728,0.065877,0.661464,0.561315,0.078989,-0.823824
0.159270,0.416283,0.757639,0.981089,0.168055,-0.096027
0.552758,0.541921,0.724841,0.951205,0.033443,0.306742
0.431985,-0.281081,0.235880,0.954520,0.168828,0.245741
0.392950,-0.138308,0.231368,0.239301,-0.900307,0.363569
-0.668600,-0.122773,0.496234,-0.636183,-0.643877,0.425081
0.013988,0.729841,0.115601,0.000685,-0.290403,0.956904
-0.881764,-0.088256,0.530906,0.405732,-0.857452,0.316477
0.106114,-0.017088,0.575540,-0.038454,-0.375299,0.926106
0.617172,-0.112870,0.591918,-0.004409,0.598303,0.801258
0.306552,0.180978,0.794531,-0.182722,-0.982478,0.036748
0.215426,-0.420798,-0.664420,-0.464894,0.882232,0.074432
-0.834202,-0.059468,0.415903,-0.406755,0.082786,-0.909778
0.580003,0.079178,0.415773,0.710807,-0.351070,0.609511
-0.006796,0.099519,0.774420,-0.061099,-0.830411,0.553791
0.230616,0.597892,0.630209,0.180456,-0.751303,0.634807
0.310549,0.296713,0.668010,0.862384,0.415109,-0.289791
0.671861,0.346862,0.727003,-0.037613,-0.805850,0.590924
-0.293501,0.334142,0.582504,0.095680,0.909387,0.404797
0.140486,0.477063,0.808343,0.210415,-0.802987,0.557617
0.661070,0.733820,0.359533,0.893775,-0.237405,-0.380534
0.244005,-0.311131,-0.376156,0.871304,0.485852,-0.069118
0.342526,-0.102337,0.296258,0.018800,-0.294701,0.955404
0.280109,-0.203941,-0.952338,-0.287464,0.292656,0.911985
0.409672,-0.094615,0.169549,-0.640686,-0.154247,-0.752150
0.188914,0.487937,0.741838,-0.563245,-0.315296,-0.763769
0.174659,0.392786,0.661580,0.309636,0.216193,-0.925952
0.463629,0.050925,0.657558,0.114079,0.011333,0.993407
-0.275648,0.202098,0.695921,0.666240,0.543817,0.510282
-0.098190,0.510219,0.662157,-0.582066,0.141764,-0.800689
0.310882,0.241954,0.596330,-0.500902,0.219276,0.837266
0.302958,0.046410,0.654271,-0.243508,-0.360594,0.900376
-0.694645,0.267101,0.608973,0.891824,0.306918,-0.332341
0.032105,-0.084567,0.724870,-0.455998,-0.333881,-0.824979
0.376032,0.057527,0.495066,0.235911,0.094111,0.967207
0.048759,-0.179962,-0.964102,-0.282415,0.127763,0.950746
0.376296,0.279869,0.590476,0.713714,-0.696757,0.071702
0.679321,-0.089421,0.714432,0.850474,-0.473515,0.229082
-0.317615,0.993979,0.511587,-0.640773,0.722247,0.260327
0.365372,-0.054081,0.963194,0.826068,0.178710,0.534485
0.029576,-0.143988,0.854520,0.092180,0.980350,0.174405
0.561284,-0.150397,0.604994,-0.621118,0.239436,0.746246
-0.194711,0.157579,0.604547,-0.741406,0.476848,-0.472159
0.386022,-0.226952,0.153907,-0.453735,0.875441,0.166515
0.336997,0.092529,0.867322,-0.714093,0.634987,-0.294725
0.689246,0.555610,0.040244,-0.169359,-0.980464,0.100043
0.291501,-0.060392,-0.959402,-0.249986,0.185563,0.950302
-0.245672,0.197195,0.591817,0.239828,-0.091219,-0.966521
0.273380,-0.357737,-0.333900,0.983192,0.065604,-0.170380
-0.364644,0.421913,0.692302,-0.657401,0.430435,-0.618506
-0.218760,-0.133161,0.681677,0.822374,-0.410535,0.393906
-0.262459,-0.091898,0.746134,0.418303,0.850547,0.318737
0.427391,0.036555,-0.700159,0.911727,-0.410580,0.013323
-0.101321,0.576775,0.809424,-0.564711,-0.602443,-0.564059
0.097519,-0.289626,-0.270539,-0.634940,-0.535278,-0.557071
0.361842,0.200641,0.930612,-0.736781,0.252564,-0.627188
0.133957,-0.149472,0.453863,-0.251571,-0.056685,0.966178
0.450704,0.074372,0.801149,0.834917,0.537444,-0.118608
0.466426,-0.006166,0.529637,0.847978,0.477281,-0.230514
-0.013923,0.580224,0.581019,0.723466,0.555386,-0.410053
0.241207,0.529443,0.670389,0.894745,0.221357,0.387856
0.224351,-0.400846,-0.589640,0.803141,-0.584884,-0.113469
0.530307,-0.186901,0.590490,0.869661,0.268017,-0.414556
-0.009861,-0.098307,0.826133,0.989944,-0.140505,0.016416
0.357447,0.262295,0.954068,0.934681,-0.086875,0.344710
0.406806,0.321860,0.576045,-0.023714,-0.079597,0.996545
-0.259393,0.109617,0.599544,-0.757353,0.636859,0.144315
-0.689449,-0.227681,0.440787,-0.294519,0.634689,0.714442
0.001730,0.400407,0.543002,-0.388351,0.128160,0.912556
-0.157274,0.628429,0.543924,-0.635294,0.437550,-0.636358
0.312151,0.003446,0.860359,0.829664,-0.230358,0.508521
0.338729,-0.037236,0.826090,-0.010343,-0.088494,0.996023
0.245468,-0.029224,0.815378,-0.295978,-0.946109,-0.131436
0.234743,-0.108888,0.505979,0.858755,-0.504666,-0.088613
0.253994,-0.045586,0.814658,0.888376,-0.227694,0.398677
0.235011,0.690955,0.498021,0.546322,0.757158,-0.358111
-0.384761,-0.264965,-0.981878,-0.177337,0.169924,0.969370
0.009922,-0.202632,-0.966596,-0.166837,0.294504,0.940974
-0.533043,-0.341327,0.460581,0.506283,0.826285,0.246840
0.108314,0.786153,0.521376,0.223740,0.897212,0.380725
-0.426793,0.907471,0.487756,-0.279335,0.743599,0.607480
0.012590,0.078789,0.343127,-0.665611,-0.641473,0.381413
0.506059,0.482500,0.685887,-0.196403,-0.812045,0.549553
0.509991,-0.152969,0.599169,0.330275,0.308350,-0.892098
0.473155,-0.299383,0.222891,0.986333,0.160609,0.036771
0.454835,-0.126755,-0.946816,0.197195,-0.178073,-0.964056
0.183583,-0.477597,-0.808920,-0.658907,0.746894,0.089394
0.454436,0.470459,0.584421,0.177509,0.652229,0.736945
0.283906,0.626583,0.510074,0.820680,0.304353,0.483585
-0.309886,0.342782,0.692648,0.279497,-0.080217,0.956790
-0.718296,0.580126,0.547269,0.339607,0.681111,0.648657
0.187584,0.091169,0.722938,0.419245,0.843761,0.335113
0.334399,0.498957,0.573666,0.270916,0.254108,0.928458
0.344189,0.386330,0.679904,0.328652,0.399620,0.855741
0.338928,-0.012234,0.381850,0.064496,0.020931,0.997698
0.346189,0.269528,0.932053,0.711191,0.562981,0.421022
0.587797,0.298705,0.858975,-0.709559,0.598127,0.372518
-0.306158,0.585320,0.560158,-0.625662,-0.758857,0.180782
0.420064,-0.071800,0.362604,0.954278,0.216765,0.205831
-0.497204,0.247195,0.585906,-0.361683,0.567588,0.739614
-0.208901,0.146948,0.767803,-0.663034,0.661823,-0.349824
-0.342128,-0.389583,0.491880,0.686967,0.726245,-0.025406
0.449573,0.251566,0.472547,0.042854,-0.500979,0.864398
0.678191,-0.056363,0.581855,0.234597,-0.404735,0.883829
-0.320144,-0.061897,0.451628,0.097292,-0.134288,0.986155
0.053491,0.665031,0.595753,-0.588097,0.748543,-0.306308
0.322474,-0.032090,0.583369,-0.594494,0.506321,-0.624672
-0.267252,0.165784,0.703144,0.745935,0.631658,0.211163
-0.193914,-0.138162,-0.982469,-0.207057,0.186794,0.960331
0.296160,0.489538,0.596502,0.550682,0.834314,-0.025849
0.283040,0.629060,0.244877,-0.568854,0.382997,0.727818
-0.573010,0.303315,0.567020,0.869733,0.335365,-0.362070
0.217158,-0.135348,-0.958422,0.161530,-0.237948,-0.957752
0.080533,-0.054422,0.903451,0.416023,0.909036,-0.024052
-0.460901,0.140542,0.787828,0.471000,-0.583032,-0.661992
-0.101719,0.063400,0.725547,0.532282,-0.558077,0.636574
0.273981,-0.150444,-0.955221,0.299991,-0.051138,-0.952570
-0.375768,0.263071,0.698559,0.846325,0.161821,0.507492
-0.230153,0.110734,0.579534,-0.605823,-0.444544,0.659817
0.429456,-0.072917,0.592985,0.972997,0.129916,0.190786
0.332333,-0.159084,0.354560,-0.054199,-0.942280,0.330411
0.571274,0.455362,0.737499,-0.811784,-0.529684,0.245847
0.236410,0.592408,0.262018,0.117122,0.722307,0.681583
-0.711697,-0.030584,0.444203,-0.389517,-0.662305,0.640023
-0.761527,-0.088452,0.499578,-0.449643,-0.654502,0.607822
-0.244537,0.292684,0.645476,-0.020351,-0.917992,0.396075
-0.788837,-0.047284,0.513101,0.141502,0.032282,-0.989411
-0.247269,0.102965,0.782205,0.412701,-0.513910,-0.752046
-0.524782,0.481140,0.718685,0.919900,0.065104,0.386711
0.241337,-0.238555,0.191174,-0.289213,-0.956621,0.035098
-0.287838,-0.176270,0.685959,0.901557,-0.199224,0.384064
-0.051227,0.048108,0.789154,-0.760906,0.203283,-0.616196
0.180188,0.115442,0.461720,0.630706,0.771763,0.081189
-0.033443,0.532646,0.567409,0.933401,-0.294783,-0.204611
0.061614,0.175348,0.835893,0.170234,0.857509,0.485489
-0.096856,0.897714,0.527489,0.304492,-0.945105,0.118579
0.371303,-0.098402,0.302328,-0.292863,0.440658,0.848559
0.430387,-0.100977,0.437946,0.473693,-0.827436,-0.301604
0.273116,-0.048546,0.529349,0.292956,-0.433629,0.852140
0.497001,0.153988,0.876477,0.672510,-0.640577,-0.370663
0.417198,0.868149,0.398430,-0.136553,-0.984893,0.106482
0.106647,-0.569738,-0.889351,0.930389,-0.347221,-0.117533
0.493402,0.318607,0.420963,-0.596265,0.292966,0.747422
0.053955,0.842711,0.487785,-0.369647,-0.525565,0.766252
0.142552,-0.185689,-0.960253,-0.056050,0.216070,0.974768
0.232746,-0.150687,0.318864,0.190769,0.979720,0.061280
0.544631,0.001455,0.312578,-0.676453,0.646755,-0.352304
0.201839,-0.103839,-0.962069,-0.220143,0.192709,0.956243
-0.260394,0.220786,0.770816,0.466087,0.802340,-0.372845
-0.122971,0.657508,0.536197,0.807632,-0.224014,0.545480
0.467024,0.093984,0.911005,0.731045,-0.666823,0.144640
-0.057423,0.090538,0.586021,-0.148610,-0.098507,0.983977
0.281109,0.011067,0.802922,-0.356609,0.778510,0.516481
0.338660,0.061604,0.653968,-0.392815,-0.309139,0.866100
-0.366177,-0.020243,0.530531,0.572417,0.117705,-0.811471
0.178924,-0.473034,-0.705263,0.867634,-0.497179,-0.005011
0.415864,0.146317,0.757999,0.990316,-0.071553,0.118972
0.329467,0.044516,0.330138,0.814342,0.570391,0.107244
0.098654,0.721734,0.487079,0.431277,-0.871676,0.232770
0.175659,0.129667,0.881451,-0.171307,-0.034496,-0.984614
0.486609,-0.064274,0.803787,0.930811,-0.040665,0.363232
-0.703704,0.341861,0.598492,0.427451,0.879751,0.208145
0.447906,-0.109276,0.803643,0.863787,-0.445831,0.234750
0.344258,0.549491,0.258169,-0.205298,-0.039722,-0.977893
0.392084,0.141123,0.590793,0.839696,0.436030,0.323710
0.378496,0.307878,0.501380,0.894124,0.331931,-0.300606
-0.295298,0.297780,0.658826,0.939694,0.059093,0.336873
0.222220,0.078935,0.891095,-0.218495,0.130857,0.967024
-0.302027,-0.202048,0.551234,0.824663,-0.003572,-0.565612
0.545497,0.095634,0.582258,0.189518,0.286961,0.939008
-0.116775,0.079664,0.812524,0.908959,0.087976,0.407497
0.549559,0.469537,0.511660,-0.019516,0.378979,0.925200
-0.100520,0.443566,0.656347,-0.290955,-0.266647,-0.918828
0.255129,0.073498,0.946254,-0.441849,-0.613652,0.654370
-0.681257,0.275353,0.574964,-0.192246,-0.135927,0.971888
0.046563,0.061702,0.590765,-0.048948,0.140978,0.988802
0.401411,-0.288947,-0.001954,0.916407,0.399346,0.026837
0.457567,0.244964,0.771018,0.873718,0.391455,-0.288756
0.134957,0.561435,0.117259,0.166744,-0.003647,-0.985993
0.164068,0.111412,0.828887,-0.307658,-0.009956,-0.951445
0.352784,0.194913,0.652411,0.579521,0.233155,-0.780893
0.337793,-0.022234,0.696238,-0.140421,0.655687,0.741860
0.257328,0.487401,0.544241,-0.302400,0.565918,0.767001
0.148545,-0.189378,-0.959028,0.081543,-0.206645,-0.975012
0.587927,-0.041992,0.656159,-0.459780,-0.847733,-0.264483
0.018050,0.097480,0.728878,0.508714,0.013564,0.860829
0.247001,0.098159,0.498396,0.064456,-0.524540,0.848943
0.013919,0.811641,0.487108,-0.536920,0.119391,-0.835142
0.019916,0.134325,0.658970,0.000179,-0.127322,0.991861
-0.322344,0.194184,0.769720,0.253373,0.799347,0.544836
-0.549697,-0.227634,0.439705,0.430932,0.650736,0.625173
0.463828,0.352931,0.413135,0.235999,0.351739,0.905861
0.581735,0.688237,0.733967,-0.359182,-0.777357,0.516435
-0.453773,0.343997,0.681720,-0.287335,-0.890613,0.352487
-0.318546,-0.125297,0.435092,0.044799,-0.219541,0.974574
0.500733,0.021070,0.947854,0.999887,0.003631,-0.014582
0.230547,0.436769,0.744722,0.998576,-0.038372,-0.037075
-0.162206,-0.286373,-0.963223,-0.207148,0.503485,0.838804
0.210499,0.756007,0.531122,0.229003,0.946468,0.227499
-0.270184,-0.152385,0.688496,0.777462,-0.482843,0.403009
0.055687,-0.187971,0.445933,0.133966,0.103194,-0.985598
0.307821,0.715956,0.118470,0.247094,-0.138831,-0.958994
0.081533,0.043399,0.309608,0.066571,-0.886603,0.457716
0.371434,-0.201710,-0.948056,-0.200923,0.163344,0.965893
-0.116840,0.897568,0.474291,-0.399534,-0.889208,0.222895
0.440580,-0.223118,-0.941958,-0.261008,0.278495,0.924292
0.243870,0.848003,0.327831,-0.339504,-0.882148,0.326422
0.060415,-0.065441,0.885718,0.674295,0.683597,0.279323
-0.365709,-0.178551,-0.985756,-0.160711,0.166789,0.972807
0.275047,-0.484539,-0.622986,0.828919,-0.252439,-0.499166
0.350784,0.395651,0.647884,0.245289,-0.138458,0.959512
0.140620,-0.524830,-0.808184,0.976602,-0.209638,-0.047972
0.595457,0.276275,0.706820,-0.711328,0.356756,0.605589
0.362977,0.130346,0.375277,0.941021,0.318010,-0.115542
0.318745,-0.403272,-0.288271,0.998487,0.041988,-0.035497
-0.563882,-0.169523,0.448399,0.006647,-0.600701,0.799446
0.073141,-0.461235,0.588631,-0.028953,0.024400,0.999283
0.577405,0.471431,0.725043,0.654550,-0.119386,0.746533
0.457298,-0.218845,0.136664,0.863807,0.483939,0.140143
0.062550,0.539153,0.666280,0.190115,-0.956481,0.221358
-0.277445,0.178794,0.707108,0.728473,0.631903,0.264624
0.048625,0.417157,0.662834,0.635959,0.696781,0.331741
-0.084802,0.670761,0.529897,0.642676,0.359622,0.676490
-0.711766,-0.021651,0.476569,0.920665,-0.338052,0.195182
0.157205,-0.123647,0.928911,-0.429694,-0.902822,0.016600
0.708034,-0.093548,0.697319,-0.634301,-0.768572,0.083422
0.631093,-0.143843,0.608987,-0.732381,-0.158073,-0.662293
0.257393,-0.252585,0.214645,-0.094302,-0.991439,0.090311
0.026645,0.199331,0.436721,-0.659159,-0.735354,0.157364
0.418064,0.176611,0.674872,0.084149,0.984307,-0.155108
-0.243407,0.218845,0.585978,0.439159,0.532580,0.723531
0.142885,0.421913,0.655957,-0.407249,0.042847,-0.912312
-0.417336,0.023156,0.760883,-0.694426,0.698202,-0.174031
-0.259528,-0.353268,0.484239,-0.407436,0.197964,0.891519
0.255328,0.774212,0.513534,-0.585318,-0.772450,0.246422
-0.226286,0.409681,0.435496,0.885340,0.463740,-0.033427
0.652878,0.356424,0.726297,0.308332,0.919828,-0.242588
0.940514,0.523956,0.133737,-0.484299,0.874434,-0.028625
0.374833,0.310696,0.573061,-0.048259,0.110035,0.992755
0.308951,-0.090490,-0.956937,0.247924,-0.180218,-0.951869
-0.242874,0.499443,0.669336,-0.464498,0.871238,0.158700
0.183453,0.477789,0.653218,-0.779202,0.621362,0.082178
-0.324076,0.322441,0.653881,0.780378,-0.041013,0.623962
0.368502,-0.338705,-0.097796,-0.230031,0.972777,-0.028117
-0.178257,0.169864,0.590490,-0.049720,-0.510408,0.858494
-0.165934,0.064905,0.536009,0.208371,0.899646,0.383690
-0.047897,-0.122823,0.553901,0.256953,0.517478,-0.816206
0.363774,0.104423,0.658408,-0.274774,0.204536,0.939502
0.185315,0.066363,0.312924,0.058690,-0.532079,0.844658
0.203038,-0.447401,-0.746495,0.008284,-0.966803,0.255388
0.296160,0.041604,0.904445,0.380406,0.606535,-0.698145
0.584398,-0.266858,0.374138,0.815414,0.393585,-0.424489
-0.340794,0.123647,0.563992,-0.098053,-0.712645,0.694638
0.383359,-0.254867,0.096888,0.587389,0.801667,0.110923
-0.028446,0.794067,0.279246,-0.221279,0.536648,-0.814276
0.328670,-0.107723,-0.954702,-0.150776,0.185094,0.971085
-0.484815,0.368756,0.692158,-0.001344,-0.909882,0.414865
0.078203,0.105928,0.721900,-0.562938,0.129664,-0.816265
-0.628499,0.169473,0.613860,-0.811928,0.527997,-0.248981
-0.641490,0.034661,0.476670,0.112482,0.985040,0.130554
0.259857,0.069468,0.793061,0.800143,-0.386432,0.458739
0.395149,0.147579,0.942261,0.660001,0.121535,-0.741369
-0.279978,0.107771,0.777001,0.508477,0.402467,0.761230
-0.451175,0.434002,0.713077,0.232167,-0.875969,0.422821
-0.334000,0.157096,0.562133,0.165265,0.667683,-0.725870
-0.285040,0.281712,0.660513,0.870876,0.432641,0.233231
0.266053,-0.052380,0.348317,0.981719,0.014720,-0.189768
-0.366376,0.439391,0.687213,-0.475451,0.511217,-0.715963
-0.099190,0.090102,0.815263,0.535643,-0.725516,0.432104
-0.004332,0.043693,0.728849,0.327548,-0.351065,0.877192
0.238674,0.525559,0.538677,-0.255313,0.558103,0.789516
0.258592,0.174039,0.810361,0.952794,0.184640,0.241024
0.042567,0.132628,0.750099,0.057529,-0.994418,0.088448
0.497602,0.346424,0.604605,-0.535016,0.375111,0.757000
-0.239744,-0.451430,0.512049,-0.193363,0.955534,-0.222632
-0.102187,-0.101510,0.446899,0.684999,0.545785,0.482592
0.345124,0.124666,0.946254,0.889411,0.438548,0.128936
0.157339,-0.479102,-0.819300,0.758957,-0.646835,-0.074761
0.263256,-0.053548,0.296965,0.082159,0.267670,0.960001
-0.150679,0.471917,0.533241,0.514289,0.467475,-0.719009
-0.307288,0.174765,0.496882,-0.281523,0.357062,0.890646
0.337728,0.149134,0.972622,0.795562,-0.546654,0.261249
0.503197,0.342445,0.535159,-0.726688,-0.244143,-0.642121
-0.470492,0.392932,0.695517,-0.359380,0.899986,-0.246721
0.056354,0.231954,0.852098,0.559912,-0.494180,0.665044
0.012390,0.103015,0.837032,-0.453777,-0.878462,0.149635
-0.305890,-0.385844,0.511083,0.437443,0.704991,-0.558240
-0.442247,-0.125105,0.527172,0.629553,-0.542418,-0.556278
-0.717759,0.320355,0.609564,-0.697867,0.587914,0.409071
-0.455436,0.554250,0.519704,0.255182,0.949320,0.183502
-0.720625,-0.114568,0.426644,0.091263,0.443142,0.891794
-0.540968,-0.119617,0.520583,-0.440229,-0.631196,0.638585
0.685184,-0.043787,0.694133,0.776152,0.524796,-0.349538
0.383224,0.000098,0.492428,0.963532,-0.128752,-0.234584
0.558686,-0.064614,0.653506,0.105777,0.897753,0.427611
0.515853,0.536919,0.757452,0.869553,-0.480971,-0.112004
0.083663,-0.188311,0.595969,0.857884,0.441821,0.262353
-0.662603,-0.249720,-0.996655,-0.219774,0.491838,0.842494
0.582199,0.318560,0.826378,-0.429782,0.529916,0.731079
-0.062883,0.238653,0.408824,0.689972,0.709009,-0.145759
-0.047697,0.538229,0.792038,0.899216,-0.320246,0.298083
-0.262057,0.071361,0.578380,0.568108,0.296770,-0.767581
0.479750,0.203749,0.667505,0.297571,-0.238066,0.924541
0.122833,0.368075,0.743323,-0.216401,0.818768,0.531779
0.492605,-0.009757,0.710438,0.882447,-0.268677,-0.386134
0.260056,0.079130,0.885631,0.131080,0.288275,0.948533
0.324604,-0.131416,0.515206,0.067848,0.988752,-0.133288
0.191178,-0.483567,-0.898707,0.250826,0.957492,-0.142464
0.229750,0.219379,0.800702,-0.392076,0.912104,0.119763
0.398548,0.030487,0.537898,0.834943,0.549976,0.019909
0.209563,0.070052,0.755923,-0.430815,-0.761810,-0.483781
0.511056,-0.291422,-0.935629,-0.244286,0.345436,0.906089
-0.210369,0.151561,0.699251,-0.698616,-0.675228,-0.236649
0.216158,-0.419195,-0.493120,0.992706,-0.031714,-0.116313
0.386022,0.099178,0.487713,-0.676660,0.230818,-0.699181
0.225550,-0.072043,0.647062,-0.171637,0.601548,0.780180
-0.433522,0.339482,0.655525,-0.246883,-0.871716,0.423273
0.064481,-0.351766,0.510910,-0.615663,-0.441058,-0.653013
0.375300,-0.003932,0.912706,0.749196,0.608399,-0.261832
-0.448911,-0.143647,0.655136,0.453341,0.887692,-0.080530
-0.575340,0.322492,0.554391,-0.713825,0.338573,0.613044
-0.537040,0.226078,0.578352,0.488153,0.198084,0.849982
0.603983,0.072866,0.418195,0.679307,-0.559018,0.475438
0.091124,0.381379,0.659403,0.147844,-0.317245,0.936749
0.437714,0.369046,0.654703,0.789833,0.546947,-0.277513
-0.401480,0.379728,0.698862,0.490508,-0.174417,0.853804
0.192979,-0.290841,-0.950493,-0.210551,0.321160,0.923322
-0.314948,-0.190300,0.555833,-0.286836,0.593859,-0.751702
0.346454,-0.014273,0.641930,0.109990,0.327189,0.938536
-0.819078,-0.204282,0.420516,-0.489429,0.647593,0.584023
0.244468,0.616971,0.240278,0.865939,0.103733,0.489274
0.431786,0.350113,0.664881,0.784775,0.226653,0.576851
-0.325340,-0.226854,0.428576,-0.332630,0.361777,0.870904
0.211897,0.957134,0.364406,-0.280061,0.428907,-0.858839
-0.047364,0.069711,0.777102,0.640575,-0.123275,0.757936
0.408204,0.032187,0.818521,0.837683,-0.215661,0.501775
0.104516,-0.014951,0.589654,0.562012,-0.279398,0.778511
0.459632,0.225399,0.675708,0.721258,-0.691621,0.038040
-0.120304,-0.028205,0.541776,0.115862,-0.220015,-0.968592
0.190979,0.503324,0.602673,0.667714,0.735498,0.114896
-0.018318,0.090102,0.592235,-0.209791,-0.205027,0.956008
-0.353853,0.001360,0.727147,0.103112,-0.690816,0.715640
0.341526,-0.138986,0.296042,-0.036985,-0.761484,0.647128
0.440247,0.205156,0.538720,0.785918,-0.317740,-0.530447
0.573339,0.448372,0.725764,0.039677,0.109315,-0.993215
0.495671,-0.031070,0.911683,-0.052661,0.993041,0.105337
-0.122304,-0.167144,0.649542,-0.412649,0.579758,-0.702568
0.562817,-0.065927,0.654271,0.105777,0.897753,0.427611
-0.007064,0.590855,0.604057,0.909907,-0.338894,0.239209
0.331935,0.180785,0.939723,-0.438771,-0.244071,-0.864818
0.659139,0.340210,0.862637,0.403883,-0.892186,0.202194
-0.384627,0.121463,0.796334,0.332587,-0.940495,-0.069680
-0.263126,0.242585,0.594354,-0.313735,-0.813955,0.488925
0.129830,0.377687,0.770672,-0.288135,0.292411,-0.911852
0.630427,0.322103,0.883800,-0.041294,-0.991658,0.122100
-0.022648,0.360842,0.552690,0.726859,0.686303,-0.025766
0.213162,-0.185203,-0.957903,-0.297002,0.128161,0.946237
0.879296,0.616097,0.207537,-0.331248,-0.899508,0.284886
-0.214032,0.101996,0.751483,0.800453,0.069833,0.595314
0.169662,0.575901,0.274027,0.268450,0.277638,0.922416
-0.038171,0.488664,0.559437,0.402192,0.662367,0.632070
0.333931,-0.348368,-0.320853,0.983184,-0.179399,-0.034131
-0.000067,0.537793,0.654717,-0.059830,-0.173248,0.983059
-0.005662,0.387494,0.668514,0.149056,0.474141,0.867740
0.376366,-0.246807,0.092707,0.352685,0.932843,0.073605
0.224887,-0.108064,0.510391,-0.568301,-0.329192,0.754100
-0.298827,0.039758,0.521319,-0.524730,0.691300,0.496751
-0.225420,0.129279,0.773353,0.315923,0.655773,0.685678
-0.148748,0.085344,0.772402,-0.740182,0.666576,0.088356
0.874698,0.254769,0.861440,0.012115,-0.317596,0.948149
0.300092,-0.383319,-0.231512,-0.732248,-0.679029,0.052267
0.406806,0.115685,0.974006,-0.742278,-0.356935,0.567117
0.413933,-0.189378,-0.945663,-0.201770,0.150659,0.967776
-0.171597,0.656586,0.514702,0.940903,0.324431,-0.097190
0.107846,-0.563376,-0.886453,0.946205,-0.290208,-0.143093
0.264321,0.482352,0.550124,-0.162894,0.544843,0.822564
-0.382696,0.077284,0.553468,-0.091091,-0.455898,0.885359
0.563016,-0.123502,-0.944380,-0.172654,0.233846,0.956821
0.288370,0.459878,0.557462,-0.004651,0.609076,0.793098
0.569745,-0.051411,0.774045,0.896075,-0.295773,-0.331012
0.100918,0.175008,0.829564,0.534808,0.806655,0.251571
-0.139092,0.091655,0.749104,-0.022658,-0.420071,0.907208
-0.711900,-0.806545,-0.851348,-0.222712,0.629847,0.744105
0.584597,-0.069711,0.614221,0.615154,-0.140639,-0.775762
-0.436787,-0.216176,0.446928,-0.439906,-0.312822,-0.841799
-0.288370,-0.001070,0.546577,0.323176,-0.908701,0.264235
0.061614,0.399097,0.549994,-0.424198,-0.221308,0.878111
0.435250,-0.025100,0.549763,-0.209790,0.960238,-0.184204
0.325206,0.706733,0.253728,-0.501341,0.254633,-0.826933
0.145016,-0.054905,0.832289,0.328056,0.830327,0.450484
-0.368905,0.045147,0.732236,0.524197,0.289267,-0.800963
0.454700,-0.016457,0.716349,0.661904,0.742051,0.106033
0.349121,-0.119812,0.850253,0.448632,0.729822,-0.515838
-0.148484,0.539977,0.786314,0.245196,0.879560,0.407742
-0.119905,-0.138746,0.545092,0.191397,-0.094282,-0.976974
-0.067547,0.224185,0.591471,0.298684,0.149762,0.942528
-0.283040,-0.168163,0.696425,0.920292,-0.390731,0.019789
0.276246,-0.492160,-0.605744,-0.466458,-0.831328,-0.302177
0.388290,-0.035488,0.710986,0.191335,-0.862036,-0.469345
0.082667,0.324240,0.540378,-0.191303,-0.498324,0.845622
-0.794167,-0.194863,0.402928,0.758523,0.341749,-0.554842
0.445044,0.350308,0.665991,0.916123,0.290447,0.276331
0.534706,0.321229,0.704974,0.914941,0.352438,-0.196648
1.000000,0.611632,0.217196,-0.331248,-0.899508,0.284886
0.157005,-0.009176,0.304245,-0.038309,-0.416187,0.908471
-0.576807,0.491627,0.525125,0.184328,0.558544,0.808734
0.476684,0.611389,0.757423,0.904745,0.036960,0.424347
0.285439,-0.353754,-0.343459,-0.760275,-0.645810,-0.070083
0.087062,0.708869,0.503601,0.335930,-0.733772,0.590534
0.429123,0.097916,0.744073,-0.806418,-0.588228,-0.060648
0.235011,-0.249237,0.448456,-0.234202,0.860289,0.452827
-0.022384,0.582941,0.667433,0.233511,-0.895212,-0.379563
0.106314,0.542647,0.575050,-0.068067,-0.786064,0.614386
0.376231,0.878780,0.350797,0.438074,0.124998,0.890206
-0.386294,-0.035924,0.647163,-0.224923,0.964453,-0.138710
0.488475,0.084956,0.553757,0.770796,-0.540137,-0.337824
0.577271,0.517209,0.707238,0.885476,0.010506,0.464566
0.497867,0.025390,0.788923,0.369768,0.887177,0.276024
-0.392153,-0.188359,-0.986520,-0.123375,0.101067,0.987200
-0.661005,0.258606,0.574416,0.093806,-0.302979,0.948369
0.407273,-0.005633,0.594037,0.990159,-0.003575,0.139898
0.228551,0.678382,0.518983,0.837747,0.022605,0.545590
0.385558,0.108111,0.301823,0.927980,-0.276760,0.249513
-0.278112,-0.145007,0.539787,-0.184114,0.184616,0.965411
-0.238211,0.517840,0.559422,0.842439,0.420276,0.337142
0.236141,0.058982,0.761459,-0.267330,-0.798503,-0.539377
0.423927,-0.044273,0.792614,0.956628,0.023412,-0.290370
0.503262,-0.226614,0.292351,0.940749,-0.024930,0.338187
0.509259,0.052768,0.927988,0.915036,0.283588,-0.286856
0.361444,-0.261519,-0.000079,0.986800,-0.130572,0.095795
0.410006,-0.250739,0.115861,-0.703127,0.519813,0.485187
0.153810,0.802029,0.501380,0.970708,-0.077215,-0.227515
0.177590,0.374727,0.667203,-0.306973,0.847583,-0.432863
-0.306825,-0.199719,0.643083,0.095590,-0.350653,0.931614
0.482746,0.393708,0.592725,0.643144,-0.149644,-0.750981
0.442780,0.056119,0.612707,0.824592,-0.452480,-0.339574
-0.214963,0.907181,0.485493,-0.190323,-0.880534,-0.434093
-0.107850,-0.170542,0.700649,-0.275679,-0.863298,-0.422749
0.042497,-0.064324,0.838460,-0.634658,0.752441,-0.176185
0.336464,-0.325793,0.299444,-0.180183,-0.959662,0.215830
0.536105,-0.069954,0.874761,0.929739,0.321097,-0.180226
-0.439982,-0.015437,0.443338,0.231939,-0.342336,0.910500
-0.022116,0.113744,0.777779,0.250990,0.893270,-0.372923
-0.060887,-0.128112,-0.972767,-0.298119,0.188385,0.935754
0.432985,-0.008107,0.630252,0.195467,0.909517,-0.366841
-0.331138,0.914218,0.495988,0.810896,0.421511,0.405926
-0.301096,0.308654,0.672191,-0.009826,-0.976542,0.215104
-0.227351,-0.102239,0.695603,0.700900,-0.712005,0.042284
-0.585532,0.209912,0.588083,0.453614,-0.858736,-0.238344
0.384090,0.266325,0.924427,0.999682,0.016018,-0.019494
-0.149614,0.901693,0.509137,0.117486,0.993016,-0.010738
0.564813,-0.084179,0.586555,-0.897315,0.358327,0.257735
0.431188,-0.037817,0.164431,0.317283,0.608912,0.727019
0.107777,-0.065391,0.886439,0.081617,0.460325,-0.883991
0.561882,0.043254,0.770340,0.656860,0.661990,0.360977
0.295294,0.119229,0.948777,-0.038938,-0.456778,0.888728
0.480815,0.291324,0.419824,0.508413,-0.307573,-0.804310
0.251197,-0.207728,-0.952093,0.247873,-0.259650,-0.933349
-0.142820,-0.014516,0.736244,0.849945,0.163337,0.500913
0.307618,-0.161804,-0.952439,-0.474418,0.108889,0.873539
0.351650,0.120781,0.324861,-0.746324,0.655884,-0.113214
-0.527778,-0.198602,0.429080,-0.187839,0.871398,0.453191
0.540167,0.130005,0.745904,-0.599588,0.254345,-0.758817
0.583467,0.496868,-0.102741,0.956000,-0.136093,0.259891
0.541098,-0.098064,0.700765,0.149902,0.577612,0.802430
-0.073877,0.027331,0.529479,0.176003,0.781910,0.598030
-0.717296,-0.151902,0.484037,-0.533440,-0.810681,0.241324
-0.408143,-0.106849,0.439821,-0.231262,0.319304,-0.919001
-0.851453,0.327200,0.578380,-0.582629,0.692641,-0.425197
-0.389957,-0.137045,0.640834,0.106244,0.367394,0.923977
-0.426126,-0.007476,0.451556,-0.262416,0.437470,-0.860092
0.434916,0.540075,0.506988,0.680689,0.556573,0.476329
0.021514,0.593231,0.783272,0.748637,0.485736,0.451225
0.269582,0.168990,0.884492,-0.445698,-0.826534,-0.343794
-0.314818,0.534199,0.522962,0.181750,0.951883,-0.246752
0.424325,0.078354,0.913225,0.424877,-0.780026,0.459390
-0.429590,-0.260061,-0.985122,-0.089022,0.221687,0.971046
0.645482,0.369725,0.705248,0.840724,0.211861,0.498295
0.378829,-0.164086,-0.948964,-0.208495,0.132804,0.968965
-0.123235,0.124180,0.651661,-0.226870,0.672033,-0.704913
-0.168934,0.064422,0.790769,-0.209637,-0.301191,0.930234
0.548559,0.453516,0.515956,-0.393189,0.566647,0.724095
0.275579,0.158989,0.957312,-0.280778,-0.724514,-0.629478
-0.128565,-0.122287,0.668284,-0.079157,-0.763266,0.641217
-0.014655,-0.135736,0.668889,0.259747,0.937690,0.230800
0.402212,0.249041,0.904532,0.853041,-0.206281,0.479343
0.128228,0.431525,0.760638,-0.388266,0.165701,-0.906528
-0.693779,-0.153212,0.458750,0.834990,0.433846,0.338482
-0.010927,-0.353609,0.529940,0.168579,0.431077,0.886428
0.301425,0.120005,0.997621,0.228637,-0.906980,0.353712
-0.715031,-0.160252,0.432944,-0.544371,0.254056,0.799447
0.150744,-0.064905,0.888875,0.058554,-0.731579,0.679237
-0.456636,-0.118888,0.623577,-0.215846,-0.956439,0.196559
-0.005064,0.851790,0.496594,-0.068095,-0.653654,0.753724
-0.282174,-0.158308,0.684056,0.836341,-0.313143,0.449973
0.321543,-0.282731,-0.135021,-0.727722,0.618933,0.295536
0.655008,0.232534,0.723010,0.771626,-0.009028,-0.636012
-0.504799,-0.325452,0.448499,-0.556158,0.512107,0.654549
0.459030,-0.269430,0.318114,0.857486,0.434459,-0.275615
0.064347,0.474779,0.757697,-0.428279,-0.536782,0.726941
-0.700707,-0.228748,0.437672,-0.221684,0.608603,0.761879
-0.207900,0.486675,0.810102,-0.703510,0.680717,-0.204201
-0.658940,0.572940,0.536255,-0.377767,-0.472419,-0.796312
0.247400,-0.392300,-0.441753,-0.598448,0.745985,-0.292175
-0.319746,-0.117531,0.540061,0.217655,-0.236522,-0.946934
-0.200708,0.437788,0.432367,0.909406,0.405406,-0.092882
0.319542,-0.040730,0.639810,-0.261282,0.156892,0.952427
-0.340595,0.158504,0.496205,0.586190,-0.364059,-0.723770
-0.185519,0.492450,0.655409,0.759555,0.466495,0.453276
0.005462,0.553666,0.676602,-0.184442,-0.903742,0.386305
-0.474488,-0.222197,0.432180,0.199078,-0.723730,-0.660745
0.242073,-0.199186,0.499924,0.258904,-0.079334,0.962640
0.323340,0.062576,0.918502,0.894359,0.182672,-0.408353
-0.540037,0.631244,0.536427,0.056787,-0.013244,0.998298
-0.277311,0.168018,0.784224,-0.590109,0.479269,-0.649671
0.149012,0.550659,0.630843,-0.704245,0.305112,-0.641050
0.171797,-0.137531,0.547370,0.511826,-0.465604,0.721974
-0.327674,0.013591,0.734817,0.257496,-0.802531,0.538181
0.292696,0.576825,0.627124,0.773527,-0.184086,-0.606439
0.082000,0.568668,0.272932,0.207009,0.207834,0.956009
-0.229750,0.910627,0.490971,-0.100064,0.868084,0.486228
0.092124,0.829603,0.272802,0.057631,-0.125603,0.990405
-0.241675,0.307490,0.674007,-0.166684,-0.029984,0.985554
-0.001266,0.134325,0.844125,0.096198,-0.142272,0.985142
0.408404,-0.310646,-0.932573,0.262638,-0.439948,-0.858759
-0.436254,0.127386,0.806526,-0.496370,0.820112,-0.284663
-0.147085,0.506142,0.795887,-0.408849,-0.873832,-0.263175
0.276579,0.583329,0.569370,0.199508,0.907059,0.370729
0.363375,0.086265,0.740195,0.306628,-0.951829,0.001186
-0.087265,0.108840,0.751555,0.159086,-0.749876,0.642166
0.407538,0.148794,0.808775,0.972638,-0.166576,-0.161949
0.390486,-0.130636,0.447721,-0.941250,0.036358,-0.335747
0.381826,0.224961,0.590577,-0.698578,-0.304993,-0.647278
0.397548,0.032039,0.929170,0.625006,0.084076,0.776079
0.295363,-0.462838,-0.604273,0.895670,0.443092,-0.038011
0.379561,0.047624,0.820713,0.846799,-0.017507,0.531625
0.449907,-0.214525,0.385786,0.808554,0.506510,-0.299481
0.027645,0.775427,0.478775,-0.422053,-0.480685,-0.768644
0.236276,0.670856,0.501380,-0.558499,-0.821500,-0.114962
0.488674,-0.057868,0.448499,0.847967,-0.472800,0.239610
-0.071876,0.206321,0.597396,0.380087,0.278252,0.882105
0.686050,0.284043,0.743885,-0.845505,0.144315,0.514096
0.203436,-0.164765,0.445241,-0.413296,0.901171,-0.130684
0.577206,-0.337639,0.327701,0.715864,0.698164,0.010274
-0.164868,0.698578,0.524058,0.659519,0.312941,-0.683449
-0.115709,-0.170009,-0.975737,0.285526,-0.198521,-0.937584
-0.721756,-0.136414,0.454929,0.784720,0.582183,0.212785
0.216691,-0.136414,0.183201,0.937427,-0.310873,0.156806
0.322409,-0.290112,-0.945418,0.188605,-0.252963,-0.948914
0.056020,-0.153357,0.696224,0.048489,0.987714,0.148556
-0.694914,-0.118162,0.502087,0.152878,0.909513,-0.386542
0.664067,0.306761,0.882777,0.245977,0.680376,0.690351
0.258991,0.356569,0.722260,0.902800,0.404031,0.147348
0.060285,0.775475,0.267266,0.067286,-0.223866,0.972294
0.392950,0.528910,0.253988,-0.180018,0.078602,-0.980518
-0.222224,0.134666,0.702019,0.887660,0.370515,0.273456
0.342591,0.626340,0.249648,-0.413876,0.273688,0.868217
-0.586199,0.130734,0.567164,-0.333687,0.523149,-0.784199
0.567411,-0.188845,0.609593,0.870139,-0.225933,-0.437963
0.262788,0.141656,0.935643,-0.619904,0.567865,-0.541524
0.411668,-0.163407,0.312621,0.069695,0.392642,0.917047
0.399012,-0.039177,0.967793,0.228377,-0.498127,0.836489
-0.431725,0.039808,0.493927,0.809453,-0.517784,-0.276923
0.301689,0.559008,0.648850,0.900699,-0.430229,0.060369
-0.105252,0.156901,0.734284,-0.034508,-0.651184,0.758135
0.617705,0.582988,0.510809,-0.392330,0.351956,-0.849826
0.069543,0.342202,0.545496,-0.007011,-0.796944,0.604013
-0.396418,-0.354048,0.474752,0.178877,0.756220,-0.629392
-0.174130,0.104858,0.680884,0.869931,-0.229672,0.436430
0.222086,0.437788,0.737254,0.017925,0.202133,0.979194
-0.113445,-0.307733,0.513952,-0.196820,0.729117,0.655477
0.508124,0.579397,0.743309,-0.747705,0.206003,-0.631268
0.439714,-0.117335,-0.948244,0.256611,-0.151177,-0.954618
0.424658,0.296180,0.823971,0.828347,0.345050,0.441341
0.535036,0.808776,0.308757,-0.731981,-0.678137,-0.065829
0.071076,0.056896,0.329763,-0.670678,-0.732458,-0.117032
-0.831535,-0.137093,0.498973,-0.192810,-0.959461,-0.205572
0.075007,0.875479,0.499895,-0.246911,0.368073,-0.896413
-0.276913,0.391426,0.676617,-0.472043,0.425164,-0.772276
0.427525,-0.093596,0.947897,0.470331,0.818459,0.330022
0.228416,0.468711,0.650003,-0.410006,0.281405,0.867587
0.444443,0.069616,0.755260,0.775466,0.602563,-0.188600
-0.230083,-0.127386,0.670922,-0.047601,-0.435003,0.899170
0.478351,0.469635,0.508978,0.202682,0.004548,0.979234
-0.065416,0.553521,0.805532,0.853096,0.311817,0.418328
0.323872,-0.130785,0.350811,0.195869,-0.978382,-0.066357
-0.547497,0.213263,0.590793,-0.164525,0.890976,0.423194
0.169861,-0.224283,0.168511,-0.040365,0.997918,0.050303
0.874901,0.295984,0.844644,-0.080654,-0.231523,0.969480
0.206965,0.445119,0.555472,-0.682419,-0.288097,-0.671792
0.357712,0.292198,0.596877,0.569768,0.347265,-0.744830
0.233812,-0.172240,0.192154,0.440765,0.160654,-0.883129
0.308886,-0.239915,0.325870,-0.214596,0.555451,-0.803382
0.349385,-0.021701,0.369322,0.186177,-0.122136,0.974895
-0.097389,0.349870,0.475473,0.095439,0.148073,0.984361
0.374898,0.017766,0.821188,0.884736,0.180588,-0.429687
-0.178924,0.345550,0.627989,0.430983,-0.834879,0.342389
-0.736547,0.343464,0.578251,-0.711231,-0.702644,-0.021018
0.122568,-0.274624,-0.956332,-0.138207,0.374557,0.916845
0.100052,-0.096704,0.560806,-0.472952,-0.767930,-0.431973
-0.250802,-0.176027,-0.979355,-0.217395,0.257301,0.941560
-0.102520,0.103596,0.773382,0.164991,0.851685,0.497404
0.163067,0.112286,0.592841,-0.267873,0.111434,0.956988
-0.150216,-0.087480,0.438076,-0.304945,-0.102727,0.946813
0.297762,-0.338803,-0.151254,0.838601,0.109870,0.533551
0.114042,0.728967,0.488939,0.431277,-0.871676,0.232770
-0.374369,-0.239429,0.557173,0.363454,0.238698,-0.900513
-0.350922,0.324530,0.665732,0.615234,0.762997,0.198302
-0.113579,0.560173,0.665717,-0.416835,-0.696338,-0.584263
0.215028,0.673576,0.242728,0.712778,-0.110975,0.692555
0.449838,-0.138260,0.350826,0.789703,0.559742,-0.251115
0.538370,0.242487,0.606565,-0.649035,0.032180,0.760077
0.347852,-0.263703,-0.063845,-0.713377,0.700627,0.014656
0.416934,0.333511,0.675391,0.265225,-0.208154,0.941450
-0.552958,0.133161,0.561008,0.940061,-0.325059,0.103064
0.305422,-0.321425,-0.237524,0.972913,-0.056922,0.224055
0.248733,-0.051314,0.703662,0.302675,0.324351,0.896206
-0.356118,-0.075101,0.532492,0.626019,0.143165,-0.766553
0.404277,-0.217633,0.027024,0.889057,-0.183974,-0.419203
-0.210767,0.663381,0.531958,0.851616,-0.321826,-0.413736
0.017851,-0.192729,0.493739,-0.481141,0.521200,0.704879
-0.043099,0.568425,0.540421,-0.270266,0.648573,0.711554
0.270717,0.034128,0.901389,-0.589809,0.263821,0.763233
0.375032,0.114618,0.938238,0.930516,0.360337,0.065558
0.132493,-0.018448,0.278598,-0.445201,-0.702774,0.554891
0.243472,0.749987,0.531511,-0.387448,-0.921589,-0.023639
0.367173,0.192436,0.944481,0.904620,0.386846,-0.178922
0.259723,-0.196466,0.224664,-0.695673,0.337948,0.633901
-0.688120,0.524978,0.536874,-0.822816,0.402130,-0.401578
0.350450,0.636633,0.653016,0.778905,-0.534520,-0.328018
0.502729,0.533666,0.506556,0.181618,-0.351106,-0.918553
-0.281178,0.336862,0.675838,0.042620,-0.393707,0.918247
-0.256462,0.147143,0.763276,0.682318,-0.421820,0.597085
0.436848,0.832806,0.330484,-0.475845,-0.860112,0.183789
0.388953,-0.234914,0.011469,-0.667850,0.741647,-0.062738
-0.632163,-0.098597,0.432929,-0.238854,-0.377154,0.894820
-0.255665,0.064324,0.786343,-0.297746,0.095065,0.949900
-0.133363,-0.011748,0.727724,0.443140,-0.319949,0.837413
-0.112176,0.456429,0.546202,0.717152,0.674024,0.177159
-0.046966,0.701829,0.528023,-0.257159,-0.250717,-0.933279
0.249266,0.497401,0.571677,-0.628250,-0.450611,0.634233
-0.671531,-0.211029,0.441320,-0.299361,0.408826,0.862116
0.451903,0.344433,0.650666,-0.665699,-0.061723,0.743663
0.063216,-0.128260,0.848263,-0.255629,0.932799,0.254046
0.114506,-0.073498,0.663800,0.196471,0.880470,0.431475
0.361444,0.215349,0.947162,0.889520,-0.009872,-0.456790
-0.205571,0.159229,0.763031,-0.375618,0.690660,-0.617980
-0.209169,-0.178892,0.522040,-0.194809,-0.367827,0.909259
-0.178591,0.119424,0.753891,-0.104695,0.077799,-0.991457
0.046762,0.819167,0.498266,-0.363171,-0.204509,0.909001
-0.043367,-0.135928,-0.971066,-0.320490,0.185558,0.928900
0.418397,0.009467,0.286556,0.723721,0.316178,-0.613400
0.559020,0.029808,0.698069,-0.292874,-0.528398,0.796882
0.422459,-0.244819,0.032113,0.918179,-0.030393,-0.394999
0.457766,-0.187873,0.198209,0.893477,-0.121151,0.432460
-0.451972,0.423077,0.747418,0.886972,0.418981,0.194257
-0.002600,0.075927,0.809626,0.169853,-0.897422,0.407165
-0.110180,-0.035438,0.744750,-0.569304,-0.669054,0.477766
-0.212430,0.336619,0.676083,-0.283709,0.550520,-0.785135
0.250933,-0.067480,0.436418,0.141842,0.478887,0.866342
-0.234747,-0.059565,0.627859,0.457337,0.857743,0.234776
0.351251,0.242730,0.966034,0.957378,-0.247382,0.149093
0.209832,0.321179,0.658783,0.105471,-0.302645,0.947250
0.029641,0.492160,0.653305,-0.171164,0.085827,0.981497
0.064814,0.702703,0.104154,0.056348,-0.315742,0.947170
0.222753,-0.436867,-0.699828,0.964284,-0.212194,0.158527
0.566944,-0.185932,0.613500,0.870139,-0.225933,-0.437963
0.194508,0.563717,0.565852,-0.329783,0.530601,-0.780836
0.117836,-0.173262,-0.958090,0.161051,-0.209834,-0.964382
-0.178924,0.173698,0.779279,0.098411,0.089834,0.991083
0.183185,0.904363,0.365689,-0.044116,-0.625969,0.778599
0.630093,0.309528,0.703533,-0.650384,0.483720,-0.585676
0.451037,0.155591,0.760364,0.795324,0.557636,0.237701
0.481681,-0.302005,0.282029,0.191925,-0.932268,0.306662
-0.004064,-0.274577,-0.959085,0.094944,-0.270147,-0.958126
0.385692,0.146414,0.859292,0.992750,0.010163,0.119770
0.517585,-0.018350,0.923331,0.161304,0.922038,0.351890
0.530242,0.566727,0.715181,0.090644,-0.392807,0.915143
-0.762060,-0.096899,0.430536,0.311762,0.938262,0.149898
0.063147,-0.097531,0.902946,0.428017,0.874495,-0.228166
0.368372,-0.083160,0.914148,0.622870,-0.782129,0.017525
0.680720,0.347639,0.725432,-0.037613,-0.805850,0.590924
0.306154,-0.390795,-0.243118,-0.688267,-0.725444,-0.004453
0.234812,0.639982,0.641079,-0.030430,-0.964069,0.263904
0.324340,-0.159621,-0.951891,-0.441945,0.146864,0.884938
0.605979,0.346957,0.719348,-0.551454,-0.127205,0.824450
-0.167068,0.556143,0.662445,-0.658460,0.730876,0.179586
0.103317,-0.165348,0.839022,0.206614,0.687582,0.696090
0.272579,-0.122530,0.310689,0.884471,-0.454914,0.103749
-0.375036,-0.151028,0.547572,0.679743,-0.429250,-0.594721
-0.787707,-0.186030,0.423083,-0.263617,0.826036,0.498168
0.660603,0.404389,-0.181198,0.965370,-0.149436,0.213844
-0.179526,-0.104375,0.678001,-0.130393,0.455203,-0.880788
0.618103,0.416185,0.722361,0.490378,0.247433,-0.835647
-0.116641,0.827369,0.499953,-0.424436,-0.743340,0.517010
0.314546,-0.388321,-0.258659,0.490149,0.866195,-0.097263
-0.434323,0.370356,0.694248,0.382800,0.851265,-0.358904
0.405074,-0.063305,0.169549,-0.583676,-0.432004,-0.687528
-0.447378,-0.107237,0.637129,0.120762,0.966524,-0.226382
0.000864,0.383708,0.536673,-0.345238,0.037064,0.937783
0.453436,-0.103501,0.392779,0.947591,0.044894,-0.316315
0.276709,-0.095101,0.364204,0.890473,0.340812,-0.301506
-0.535572,-0.102917,0.499304,-0.000605,0.621568,0.783360
0.113510,0.892955,0.498266,0.548908,0.510926,-0.661555
-0.364445,0.271664,0.609780,-0.183886,-0.979125,0.086601
0.284573,0.264283,0.558255,-0.768054,0.348159,0.537475
0.422996,-0.080295,0.316197,-0.292482,0.915138,0.277449
0.287037,-0.353076,-0.218407,0.635075,0.682628,-0.361522
-0.137091,-0.161126,0.647769,0.898782,-0.437241,-0.031794
0.598852,-0.011748,0.608901,-0.289287,0.815657,0.501016
0.466959,-0.219088,0.334304,0.867739,0.496015,0.031605
-0.090530,-0.319772,0.507219,-0.096710,0.974085,0.204463
0.270648,-0.031070,0.752334,0.774186,0.425014,-0.469040
0.615107,0.084858,0.708492,-0.665969,0.630912,-0.398039
0.479347,0.279626,0.532549,-0.619757,-0.210053,-0.756161
-0.055089,0.320646,0.473787,-0.054653,0.082324,0.995106
0.451236,-0.112094,0.373792,0.537926,0.826774,0.164561
0.159205,0.796494,0.521593,-0.134803,0.903893,0.405962
0.763788,0.431430,0.116279,-0.475972,0.858440,0.191131
0.330467,0.050487,0.968744,0.973020,-0.221713,-0.063836
0.225953,0.048205,0.887967,0.238220,0.525609,0.816692
-0.118974,-0.242052,-0.973156,-0.288736,0.218632,0.932111
-0.056288,0.674984,0.533097,0.675257,0.277919,0.683220
0.486808,-0.277780,0.333295,0.910842,-0.409322,-0.053122
0.064745,0.742464,0.498814,-0.214926,-0.969386,0.118732
0.473488,-0.353707,0.361581,-0.059370,0.945709,0.319546
0.357248,0.127045,0.790898,0.928923,0.365833,0.057159
-0.033374,-0.062623,0.724091,0.486908,0.362335,0.794754
0.174927,-0.067041,0.861728,0.634630,-0.723043,-0.272863
0.233543,0.375310,0.559682,0.704397,0.067642,-0.706576
0.049161,0.012768,0.592610,0.960423,0.255127,0.111790
0.135355,0.059906,0.595637,-0.008310,-0.129327,0.991567
0.197175,-0.461866,-0.590101,0.933097,0.336274,-0.127474
0.304556,-0.097531,0.580932,-0.733731,0.135414,0.665809
0.188649,-0.087528,0.551969,0.133577,0.041296,0.990178
0.688051,0.507695,0.682124,0.944970,0.327020,0.009424
-0.128565,0.395456,0.672767,0.862316,0.301711,0.406670
-0.214564,-0.173502,0.673113,0.803558,-0.306490,0.510253
0.368437,-0.048303,0.668067,0.139598,-0.230590,0.962985
0.322275,0.053693,0.754366,0.139578,-0.935741,-0.323894
0.438848,-0.173698,0.118153,0.982312,0.064281,-0.175875
0.000465,0.886985,0.374628,0.177640,-0.813894,0.553192
0.237544,-0.381622,-0.374758,0.908707,0.413352,0.058240
0.256462,-0.447691,-0.389895,0.773481,0.565296,-0.286649
-0.743739,-0.251907,-1.000000,-0.219774,0.491838,0.842494
0.064814,0.472207,0.772661,-0.183952,-0.944967,0.270555
0.144150,-0.121318,-0.963713,0.176160,-0.315356,-0.932480
0.147813,0.618962,0.634202,0.368739,0.230138,0.900593
-0.291903,0.124376,0.811371,-0.033310,0.998405,-0.045578
-0.048096,0.921936,0.547716,0.674151,-0.660881,0.329783
0.130562,-0.129327,0.749104,0.960115,0.263590,0.093273
0.292964,0.209574,0.368587,0.887013,0.375359,0.268913
0.371767,0.171902,0.945504,0.985005,-0.153965,0.077840
0.340794,0.103501,0.775948,0.856106,-0.335645,0.392970
0.266984,0.292829,0.370029,-0.648387,-0.196849,0.735422
0.042632,0.088840,0.828368,0.053780,-0.897186,0.438366
-0.613045,-0.271566,0.464531,-0.001051,0.343333,0.939213
-0.133160,0.931356,0.382384,0.065127,-0.753927,0.653722
-0.174862,-0.355793,0.507810,-0.553149,0.814619,0.174418
0.023445,0.196125,0.655654,-0.058217,-0.104544,0.992815
0.620303,-0.135297,0.890057,0.952902,-0.286619,-0.099133
-0.569013,0.545414,0.533184,-0.054932,-0.858982,0.509050
0.572876,-0.122094,0.878755,0.766756,0.155538,-0.622811
0.227018,-0.340649,0.595118,-0.340432,0.549338,0.763108
0.244936,-0.189378,0.537581,-0.779622,0.402093,-0.480115
0.762922,0.503470,0.054791,0.382876,0.923418,-0.026577
0.081866,0.512889,0.274056,-0.334312,0.274196,-0.901694
0.688250,0.331958,0.702293,0.830117,-0.555558,0.047543
0.348255,0.232146,0.956259,0.847425,-0.206916,0.488933
0.340392,0.118209,0.824101,-0.378460,0.555114,0.740687
0.082134,-0.128503,0.558903,-0.051498,0.341741,0.938382
0.388754,0.139182,0.492730,0.873309,0.070070,-0.482101
0.468557,-0.092239,0.433347,-0.636919,0.759026,0.134961
0.158807,-0.020196,0.725043,-0.080026,-0.401066,0.912547
0.363241,-0.259237,-0.085095,0.962103,0.271895,-0.020741
0.132160,-0.187826,0.723399,0.971803,0.218919,0.087599
0.026576,0.202632,0.853367,0.771553,-0.523698,0.361175
0.069677,0.547598,0.638686,-0.605097,0.417344,-0.677998
0.032305,0.067527,0.331031,0.836452,0.547374,0.027024
0.272380,0.170785,0.956764,-0.828137,0.491454,-0.269558
0.426460,0.066555,0.673863,-0.648820,0.740768,0.174055
0.471020,0.577163,0.263835,-0.028120,-0.025408,0.999282
0.443577,-0.196806,0.308181,0.456875,-0.050247,0.888111
0.697642,0.006214,0.608973,0.383316,-0.900487,0.205407
0.325804,-0.107190,0.829218,0.058345,-0.380086,0.923109
0.457701,-0.118986,0.252979,0.877584,-0.404275,-0.257698
0.326604,0.077237,0.417922,-0.892746,0.447771,-0.050062
-0.152680,0.006116,0.750243,0.969384,0.084278,-0.230634
-0.370506,0.309967,0.678260,0.839146,0.518185,0.165284
0.039501,0.205058,0.473614,-0.038691,0.263531,0.963875
-0.349987,-0.211710,0.547182,0.078253,-0.960545,-0.266890
0.144881,-0.043399,0.817310,-0.345215,0.513939,0.785298
0.509259,-0.158213,0.462311,0.539348,-0.149975,-0.828620
-0.579670,0.316326,0.576434,0.228322,0.471742,0.851662
-0.408741,0.417933,0.714590,0.937543,-0.335516,0.091878
0.369303,-0.227729,0.020133,-0.764730,0.636750,0.098683
0.294761,-0.068546,0.286051,-0.066905,-0.119730,0.990550
0.158937,-0.069809,0.646961,0.057930,-0.664160,0.745343
-0.368705,0.033740,0.743237,0.896409,0.148873,-0.417478
-0.441914,0.184765,0.566242,0.295310,0.406078,-0.864808
0.056288,-0.108355,0.690543,0.419564,0.207901,-0.883597
-0.004531,-0.240449,-0.951242,-0.078796,0.212179,0.974049
0.520582,0.608912,0.757163,0.950350,-0.150062,0.272610
-0.202640,0.517499,0.526163,0.412972,0.386408,-0.824708
0.116840,0.051654,0.714245,0.207758,-0.025765,0.977841
-0.137156,0.330210,0.431978,0.913488,0.404516,0.043653
0.613773,0.638527,0.521506,-0.838099,0.543364,0.048438
0.601186,0.468663,0.522472,-0.492240,0.604960,0.625878
-0.208433,-0.139182,0.719867,0.249950,0.948306,-0.195551
-0.657610,-0.142385,0.425317,-0.059442,0.134671,0.989106
0.087729,-0.104520,0.914681,-0.409299,-0.884371,0.224415
0.853385,0.545414,0.078521,-0.077298,0.989521,0.121954
0.292098,0.181609,0.831554,0.339679,0.929455,0.143987
-0.301425,-0.159523,0.697665,0.906858,-0.285655,-0.309854
-0.028377,0.606437,0.656260,0.404727,-0.755962,-0.514508
0.469089,-0.156415,0.208835,0.987359,-0.006515,-0.158365
-0.102585,0.499683,0.543968,-0.062263,-0.501858,0.862706
0.413067,0.394291,0.572023,-0.028637,0.334582,0.941931
0.394019,-0.207293,-0.950132,0.124175,-0.143173,-0.981877
0.432587,0.012720,0.595320,0.999790,-0.008978,-0.018413
0.391218,0.088547,0.602154,0.944498,0.154073,0.290146
0.377565,-0.126026,-0.952079,0.206722,-0.194055,-0.958962
0.372767,-0.221468,0.070015,0.798759,0.598319,0.063234
0.036569,0.096414,0.591168,-0.114815,-0.255445,0.959982
0.323006,0.203118,0.675723,0.055573,-0.959540,0.276035
0.273981,-0.134278,0.436361,-0.117768,0.704785,0.699578
-0.597124,-0.100636,0.511847,0.256483,0.161158,-0.953019
0.379097,-0.313413,-0.035891,0.437354,0.892602,0.109468
0.090392,-0.111655,0.882445,0.983267,0.100655,-0.151838
0.274514,-0.122337,0.340373,0.892159,0.341188,-0.296046
0.311285,0.919510,0.355915,0.335532,-0.540081,0.771836
0.544830,0.569201,0.737946,0.743598,-0.203720,0.636836
-0.265655,-0.096120,0.683306,-0.731583,0.681503,0.018420
-0.060553,-0.288947,0.508747,-0.066977,0.839359,0.539435
0.309219,0.355307,0.753847,-0.398121,0.897207,-0.191102
0.412201,-0.234138,-0.945649,-0.192669,0.238965,0.951722
0.328271,-0.416718,-0.385239,0.834243,0.528598,-0.156917
