-0.707574,-0.065728,0.493747,0.466831,0.815504,-0.342085
-0.555690,-0.042761,0.293744,0.717054,0.633778,-0.290102
-0.538417,-0.003755,0.575334,0.302557,0.328804,-0.894621
-0.647980,-0.093879,0.518671,-0.561413,0.506606,-0.654343
-0.729501,-0.156625,0.520250,0.999665,0.019626,0.016858
-0.714905,-0.226785,0.476225,-0.255331,0.529604,-0.808904
-0.757034,-0.259928,0.471252,-0.183804,-0.297661,0.936811
-0.267535,0.114809,0.428308,-0.139854,-0.664819,0.733796
-0.528474,-0.096786,0.330311,0.968408,-0.159218,0.191926
-0.551292,-0.115488,0.319926,-0.500345,0.428608,-0.752296
-0.574174,-0.135015,0.302462,0.716021,0.309434,-0.625751
-0.634022,-0.165588,0.464114,0.023247,-0.321202,0.946725
-0.668567,-0.187491,0.513025,0.199905,-0.630681,0.749853
-0.328915,0.011942,0.537188,0.188476,-0.694436,0.694432
-0.474680,-0.103424,0.510802,0.147166,0.970927,-0.188792
-0.591894,-0.190542,0.545584,0.225160,0.947088,-0.228751
-0.682144,-0.265306,0.496848,-0.413339,0.409914,0.813094
-0.726696,-0.301937,0.475435,0.251043,0.397111,-0.882769
-0.751681,-0.324127,0.447644,0.548155,0.490513,-0.677438
-0.748367,-0.369820,0.450921,-0.160116,0.163148,0.973522
-0.280538,0.003802,0.563135,0.145866,0.985555,0.086043
-0.436311,-0.144318,0.293423,0.490076,0.455458,0.743225
-0.789731,-0.401508,0.452998,-0.352295,0.305370,0.884668
-0.354919,-0.104926,0.527154,0.514641,0.733652,-0.443734
-0.540010,-0.249655,0.511796,-0.088440,-0.864583,0.494647
-0.389911,-0.194031,0.292720,-0.626584,-0.302696,-0.718170
-0.595463,-0.335127,0.466279,0.104967,0.818708,-0.564534
-0.725230,-0.438573,0.436938,0.570312,0.318823,-0.757031
-0.383792,-0.235555,0.293803,0.347003,-0.292154,0.891199
-0.409031,-0.226737,0.564861,0.848601,-0.503167,0.163401
-0.679594,-0.439786,0.532244,0.624905,0.077869,-0.776808
-0.085630,-0.049884,0.443871,-0.612900,-0.745144,0.262895
-0.241786,-0.163458,0.513669,0.680189,0.455501,0.574336
-0.332865,-0.260024,0.271892,-0.254257,-0.804236,0.537176
-0.348928,-0.250188,0.479062,-0.033267,0.957165,-0.287626
-0.281557,-0.278049,0.276631,-0.378159,-0.838665,0.391964
-0.324453,-0.293942,0.435358,-0.181947,-0.973350,0.139586
-0.181619,-0.253822,-0.206599,-0.202443,0.093324,0.974837
-0.194429,-0.186957,0.490763,0.718342,0.675440,0.166630
-0.390994,-0.415898,0.572760,0.430542,0.825025,0.366016
-0.121260,-0.269570,-0.248665,-0.395602,-0.147318,-0.906530
-0.286593,-0.305521,0.572555,0.310909,0.733629,-0.604255
-0.311259,-0.328149,0.542600,-0.478719,-0.819102,0.316068
-0.609102,-0.566346,0.482222,-0.139595,0.207703,0.968180
-0.231143,-0.311626,0.391040,0.771201,0.264276,0.579144
-0.274164,-0.328877,0.539499,-0.644634,-0.721068,0.253983
-0.264668,-0.340554,0.465635,0.979953,0.080838,0.182090
-0.380732,-0.425879,0.512235,0.143272,-0.817649,-0.557605
-0.224833,-0.315697,0.379660,0.894497,0.201781,0.398949
-0.410305,-0.448797,0.469262,0.674631,-0.713353,0.189740
-0.232352,-0.316472,0.387032,0.859448,0.257447,0.441667
-0.191179,-0.294086,0.246501,-0.268003,-0.951714,0.149719
-0.234583,-0.315019,0.398236,0.840908,0.272940,0.467309
-0.357724,-0.404802,0.507233,-0.143873,0.898212,0.415350
-0.387425,-0.422681,0.572292,-0.351560,-0.914439,-0.200515
-0.356959,-0.409697,0.506502,-0.098231,0.891608,0.442024
-0.541796,-0.554280,0.502640,0.568423,0.186093,-0.801414
-0.190924,-0.302178,0.258407,-0.315496,-0.932822,0.174087
-0.540712,-0.557091,0.520719,0.499838,0.374068,-0.781175
-0.189076,-0.308041,0.240533,-0.267912,-0.944078,0.192196
-0.274674,-0.360565,0.483918,0.725652,0.572210,0.382106
-0.194238,-0.305280,0.255277,-0.315496,-0.932822,0.174087
-0.104815,-0.258328,0.477190,0.629145,0.777288,-0.000857
-0.155041,-0.308283,0.284120,0.113487,0.992748,-0.039638
-0.104433,-0.310367,0.336483,-0.256935,0.962727,-0.084500
-0.059371,-0.329507,0.216780,-0.769846,0.171786,-0.614675
-0.079639,-0.344574,0.227369,0.361891,0.560140,0.745170
-0.117498,-0.372387,0.257061,0.888745,0.150602,0.432957
-0.150514,-0.430725,0.429274,0.548807,0.698483,0.459274
-0.209599,-0.468905,0.561410,0.255152,-0.793233,-0.552883
-0.130118,-0.452917,0.438225,0.763747,0.579465,0.284448
-0.148348,-0.459263,0.570098,-0.083349,0.954023,0.287912
-0.122598,-0.494198,0.310243,-0.697143,-0.537549,-0.474377
-0.157844,-0.506263,0.578523,-0.302252,0.509625,0.805560
-0.045540,-0.816121,0.382761,0.955978,0.134094,-0.261008
-0.676280,0.354362,0.441180,-0.556760,0.360108,0.748559
-0.518276,0.287060,0.476488,0.002551,0.834910,0.550381
-0.560025,0.289967,0.476985,0.133459,0.928083,0.347635
-0.593677,0.305472,0.467537,-0.103858,0.872619,0.477230
-0.435547,0.311335,0.520631,-0.061457,-0.191619,0.979543
-0.081360,0.342540,0.494011,-0.078830,-0.167174,0.982771
-0.181235,0.266517,0.506940,-0.214962,0.452485,-0.865476
-0.217247,0.313225,0.484503,-0.042449,-0.222474,0.974014
-0.311769,0.333527,0.505127,-0.114295,0.216336,-0.969606
-0.392906,0.270101,0.499598,0.143599,-0.283068,0.948289
-0.230824,0.395547,0.497141,-0.015945,0.232685,0.972421
-0.629498,0.160210,0.659875,0.983745,0.088210,0.156410
-0.656012,0.078033,0.650807,-0.663540,0.254016,-0.703697
-0.547468,0.069312,0.621612,-0.577698,-0.712434,0.398375
-0.629625,0.004045,0.600696,-0.617864,0.631412,-0.468576
-0.642244,-0.001284,0.653498,-0.309465,-0.914371,0.261069
-0.500429,0.038737,0.717153,0.731941,-0.418556,-0.537655
-0.616814,-0.063159,0.589346,-0.667525,0.741515,-0.067577
-0.656521,-0.081523,0.725548,-0.625816,0.001047,-0.779970
-0.293668,0.188749,0.608390,0.063957,-0.047298,0.996831
-0.424010,0.095235,0.690240,0.322463,0.550951,0.769722
-0.494120,0.033602,0.608507,0.859216,0.468973,0.204479
-0.674432,-0.183275,0.602071,0.238441,0.946057,-0.219365
-0.168297,0.211377,0.632816,-0.388533,0.105307,-0.915397
-0.267154,0.135789,0.641621,0.467127,0.831333,-0.301129
-0.437840,0.010635,0.713437,0.066702,0.794088,0.604131
-0.467925,-0.020133,0.636180,0.905427,0.413253,0.097074
-0.557856,-0.082977,0.706709,0.119927,0.706892,0.697081
-0.577807,-0.098772,0.703023,0.416064,0.737143,0.532457
-0.595080,-0.110255,0.722681,0.361611,0.796542,0.484518
-0.322541,0.041451,0.778935,0.868280,0.070044,0.491105
-0.343192,0.024686,0.771710,0.944736,-0.173371,0.278239
-0.363076,0.008599,0.764455,0.943342,-0.284802,0.170274
-0.229293,0.128763,0.930203,-0.432193,0.723462,0.538341
-0.442238,-0.068973,0.602627,0.927565,0.371451,-0.040587
-0.491891,-0.099014,0.686934,0.268386,0.962009,0.050074
-0.509737,-0.111564,0.698840,0.113741,0.929816,0.350007
-0.525352,-0.120867,0.725402,0.185831,0.413608,0.891288
-0.563402,-0.162634,0.603826,-0.061289,-0.758972,0.648232
-0.612097,-0.192335,0.681786,-0.211878,0.922174,0.323580
-0.566716,-0.205127,0.684945,-0.658672,0.215246,-0.720986
-0.249753,0.038399,0.669529,0.170186,-0.984749,0.036130
-0.285829,0.014268,0.704135,-0.542721,0.720848,-0.431083
-0.390485,-0.071202,0.660226,0.102830,0.994151,-0.033004
-0.404824,-0.078277,0.700186,-0.324527,0.913518,0.245289
-0.465949,-0.126584,0.690796,0.749319,-0.303517,0.588556
-0.520316,-0.178527,0.594992,0.452502,0.597113,-0.662343
-0.463527,-0.179010,0.622578,0.105372,0.926567,0.361068
-0.473023,-0.178284,0.699601,0.303609,-0.374125,-0.876272
-0.223940,0.005015,0.609940,0.621310,0.201591,0.757189
-0.369834,-0.096205,0.722096,-0.577964,0.582406,-0.571630
-0.390485,-0.112679,0.717708,0.060367,0.059958,0.996374
-0.080213,0.112435,0.937867,0.399663,-0.252934,-0.881075
-0.144140,0.034377,0.661192,-0.773363,0.632374,-0.044860
-0.191115,-0.009231,0.589609,0.815970,-0.314247,0.485223
-0.318079,-0.095720,0.704574,0.067632,0.671882,0.737564
-0.364989,-0.137486,0.652152,-0.511297,0.247784,-0.822908
-0.427006,-0.187344,0.633577,-0.615154,0.649846,-0.446414
-0.574045,-0.292537,0.718352,-0.684334,0.082515,-0.724485
-0.202141,-0.025462,0.957759,-0.507144,-0.046353,0.860614
-0.295389,-0.128571,0.662800,0.976996,-0.208381,0.045341
-0.308135,-0.132060,0.723296,-0.245091,0.190433,0.950613
-0.430830,-0.230274,0.693341,-0.533249,-0.228915,0.814398
-0.039549,0.040772,0.954658,-0.143292,-0.014986,0.989567
-0.076579,0.012138,0.954307,-0.277245,0.046705,0.959664
-0.178559,-0.122757,0.961620,0.113273,0.147886,0.982496
-0.056312,-0.039369,0.856543,0.916143,-0.376141,0.138565
-0.105198,-0.123871,0.934649,-0.459815,-0.072238,-0.885072
-0.123044,-0.136226,0.947315,0.498924,0.779543,0.378667
-0.252303,-0.266904,0.678597,0.862802,0.488117,0.131584
-0.416170,-0.397001,0.655019,0.998825,0.042308,0.023634
-0.437204,-0.413621,0.651948,-0.287218,-0.788164,0.544337
-0.197743,-0.222424,0.963288,-0.107879,0.738321,0.665765
-0.545620,-0.530538,0.622519,0.803687,0.344679,0.485061
-0.197170,-0.235361,0.962322,0.019710,0.640399,0.767790
-0.096976,-0.163118,0.912417,-0.488239,-0.012718,-0.872617
-0.020874,-0.113308,0.805468,0.701138,0.098829,0.706143
-0.390866,-0.412022,0.690298,0.733645,0.412334,0.540135
-0.480097,-0.491630,0.618160,-0.143690,-0.465012,-0.873566
-0.541605,-0.539695,0.615498,0.606112,0.582700,0.541377
-0.163198,-0.231679,0.966418,-0.423900,0.146357,-0.893805
-0.095956,-0.187344,0.912153,-0.081261,0.173457,0.981483
-0.219351,-0.305910,0.686291,0.698357,0.641906,-0.316629
-0.026546,-0.227948,0.720780,0.800532,0.043593,0.597703
-0.094235,-0.276304,0.795814,-0.525616,0.670449,-0.523666
-0.041142,-0.284299,0.751700,-0.684623,0.583598,-0.436698
-0.026929,-0.319089,0.693662,-0.529711,0.847265,-0.039350
-0.081680,-0.398552,0.724934,0.651312,-0.194251,0.733525
-0.126868,-0.478450,0.641153,-0.723155,0.201171,0.660740
-0.159310,-0.501370,0.682078,0.127712,-0.835792,0.533986
-0.234967,-0.565037,0.602100,-0.162158,0.482925,0.860516
-0.094618,-0.490952,0.607834,0.163926,-0.985460,0.044691
-0.116479,-0.502338,0.707470,0.212240,-0.358466,0.909097
-0.167406,-0.545269,0.652065,-0.177342,-0.002328,-0.984147
-0.177859,-0.550598,0.700625,0.347761,0.646773,-0.678784
-0.214125,-0.583788,0.615060,-0.312613,0.421277,0.851351
-0.232098,-0.597210,0.627843,0.298963,-0.589344,-0.750529
-0.019471,-0.466822,0.661543,-0.002100,-0.754467,0.656335
-0.093087,-0.522495,0.695330,-0.426707,-0.000558,-0.904390
-0.034768,-0.509025,0.686817,0.817001,-0.397047,-0.418166
-0.060264,-0.530781,0.653293,0.852278,-0.337144,-0.399945
-0.070972,-0.536207,0.705890,0.442138,-0.410961,0.797261
-0.270150,-0.696926,0.615557,-0.416071,0.819659,0.393757
-0.034960,-0.543862,0.664409,0.892491,-0.421524,-0.160551
-0.157653,-0.688544,0.649783,0.716356,-0.087890,-0.692178
-0.404188,0.407467,0.714842,0.821617,-0.088152,-0.563182
-0.349821,0.391574,0.741286,-0.479126,0.398208,0.782221
-0.352242,0.394141,0.728649,-0.479126,0.398208,0.782221
-0.379585,0.396322,0.734558,-0.669054,0.120348,0.733405
-0.359826,0.396322,0.746172,-0.479126,0.398208,0.782221
-0.408777,0.411681,0.714432,0.821617,-0.088152,-0.563182
-0.482521,0.279598,0.731369,-0.872570,0.463610,0.153904
-0.386978,0.398308,0.733681,-0.669054,0.120348,0.733405
-0.146052,0.382076,0.643786,0.829033,0.356348,-0.430952
-0.081232,0.291082,0.759248,0.801935,0.434526,-0.409984
-0.103795,0.350243,0.767175,-0.265376,0.272172,-0.924931
0.006214,-0.117233,0.513698,0.551548,0.537999,0.637457
0.302399,0.065484,0.013149,0.409722,0.068771,-0.909615
0.127570,-0.022314,0.539704,-0.090717,0.919566,-0.382320
0.118710,-0.032925,0.529670,0.077767,-0.902378,0.423871
-0.004430,-0.151781,0.300794,0.498023,-0.605325,0.620931
0.308647,0.057682,0.007240,0.406704,0.346773,-0.845187
0.006342,-0.124888,0.507555,0.633080,0.478321,0.608620
0.315274,0.077306,0.017537,-0.438107,0.365928,0.821072
0.130437,-0.034572,0.534175,0.077767,-0.902378,0.423871
0.298511,0.063109,0.014436,-0.311908,-0.249038,0.916893
0.010421,-0.126342,0.528237,0.606200,0.785551,-0.124225
0.323050,0.084235,0.008235,-0.765724,0.224174,0.602837
0.302018,0.068052,0.011394,-0.065375,0.138541,0.988197
0.011249,-0.121545,0.515599,-0.570271,-0.646214,-0.507148
0.303801,0.072509,0.015431,-0.396218,0.047224,0.916941
0.111572,-0.037092,0.522649,0.017437,-0.967827,0.251011
0.014181,-0.110789,0.553511,0.671280,0.697332,-0.251218
0.321776,0.085979,0.007737,-0.718770,0.253950,0.647209
0.300806,0.070087,0.012564,0.092991,-0.059762,0.993872
0.103414,-0.286286,0.166757,0.851503,0.084228,0.517540
0.013607,-0.340941,0.434217,0.777267,0.047542,0.627372
0.282769,-0.118299,-0.002881,0.908030,0.112699,0.403460
0.261289,-0.135160,-0.003583,0.188082,-0.212765,-0.958831
0.049237,-0.243841,0.233951,-0.452645,0.764670,-0.458684
0.284426,0.018920,0.011599,0.135194,-0.165463,0.976906
0.115651,-0.088501,0.443432,0.714239,-0.668800,0.206324
0.302018,0.061753,0.013149,-0.311908,-0.249038,0.916893
0.213168,-0.327181,0.466425,-0.959347,0.124321,0.253371
0.426687,-0.210070,-0.987275,-0.002726,0.030314,0.999537
0.264475,-0.291760,-0.178721,0.583390,0.812147,0.008627
0.231078,-0.312886,-0.089353,-0.443234,0.825114,0.350328
0.216801,-0.291616,0.493308,0.257516,-0.794334,0.550200
0.113610,-0.389443,0.185157,0.951377,0.254886,0.172957
0.083018,-0.400539,0.413360,0.573757,0.105278,0.812231
0.225278,-0.282216,-0.118168,0.890681,-0.452698,0.041860
0.207241,-0.294086,-0.077272,0.160065,-0.691334,0.704582
0.190031,-0.304844,-0.030818,0.710719,-0.698831,0.080704
0.172694,-0.316085,0.010546,0.968675,-0.238162,0.070343
0.089646,-0.370352,0.195893,0.831936,0.512106,0.213611
0.064724,-0.374810,0.462125,0.628782,0.741909,-0.232818
0.145990,-0.296412,0.104741,-0.794116,-0.599531,0.099710
0.128589,-0.308090,0.139142,-0.158485,0.680886,-0.715036
0.738997,-0.131574,-0.971566,0.024327,-0.052243,0.998338
0.638484,-0.210698,-0.980313,-0.103109,0.155076,0.982507
0.564614,-0.268406,-0.978967,0.131433,0.227118,-0.964957
0.454029,-0.331831,-0.566909,0.972451,-0.201102,-0.117883
0.661557,-0.136420,-0.973848,-0.165056,-0.158221,0.973511
0.612862,-0.174650,-0.975369,-0.198166,0.039328,0.979379
0.486281,-0.274463,-0.991868,-0.103361,-0.099538,0.989651
0.461679,-0.293748,-0.991283,-0.098285,-0.301855,0.948274
0.436885,-0.313565,-0.997221,0.062219,0.301182,0.951535
0.371746,-0.332171,-0.403121,0.589156,-0.684618,0.429177
0.353261,-0.344574,-0.365239,-0.018438,-0.993523,0.112129
0.163772,-0.451463,0.391479,0.928563,-0.317579,0.192130
0.106281,-0.494877,0.418216,-0.724350,-0.124138,-0.678164
0.052616,-0.533832,0.471954,-0.691027,-0.061707,-0.720190
0.692661,-0.061899,-0.970805,-0.201292,-0.484291,0.851437
0.667612,-0.081717,-0.973380,0.017038,-0.133656,0.990881
0.643328,-0.100710,-0.975486,-0.168520,-0.035144,0.985072
0.618088,-0.120721,-0.978821,-0.025001,-0.161200,0.986605
0.492336,-0.219760,-0.991575,-0.189211,-0.118565,-0.974752
0.442238,-0.259104,-0.995173,-0.067122,0.210795,0.975223
0.416489,-0.279406,-1.000000,-0.178852,-0.029640,0.983429
0.335989,-0.307266,-0.339964,-0.615704,-0.722338,-0.314858
0.644666,-0.068054,-0.974842,-0.036646,-0.244937,0.968846
0.619426,-0.088065,-0.978236,-0.090297,-0.129115,0.987510
0.468689,-0.206727,-0.995758,-0.062318,0.095027,0.993522
0.444405,-0.225429,-0.986865,0.094417,0.066309,-0.993322
0.419484,-0.245489,-0.995641,-0.291139,0.109414,-0.950403
0.312981,-0.292731,-0.335108,0.535920,0.807003,-0.248065
0.298001,-0.300579,-0.265252,0.828503,-0.559359,-0.026463
0.283024,-0.308283,-0.191037,-0.035550,0.779965,0.624813
0.688263,-0.275093,-0.969665,0.096812,0.173547,0.980056
0.588005,-0.354314,-0.980810,0.144870,0.194115,-0.970223
0.538864,-0.392301,-0.972941,-0.164252,-0.134257,0.977239
0.513368,-0.412167,-0.973614,-0.229901,-0.128203,0.964733
0.486726,-0.433923,-0.987275,0.276244,0.060047,-0.959210
0.002454,-0.730505,0.539557,-0.686444,-0.395580,0.610173
0.738742,-0.206968,-0.963375,0.266808,0.005896,-0.963732
0.665126,-0.264773,-0.963668,0.243552,0.205091,0.947956
0.537972,-0.365457,-0.984964,-0.171764,0.099041,0.980147
0.513942,-0.383919,-0.980196,-0.248421,0.227508,0.941556
0.521399,-0.358577,-0.628516,0.390674,0.919221,0.049062
-0.016731,-0.713595,0.561029,0.707280,0.447369,-0.547372
0.733580,-0.177073,-0.970220,-0.218054,-0.015167,0.975819
0.709041,-0.196744,-0.976949,0.240346,-0.067586,-0.968331
0.549317,-0.311820,-0.801109,0.828095,-0.555358,0.076397
0.531662,-0.321511,-0.728941,0.213386,0.971818,-0.100178
0.511520,-0.334351,-0.675964,-0.233934,0.908731,0.345662
0.484305,-0.373259,-0.987070,0.106884,0.092989,-0.989914
0.492526,-0.346610,-0.627492,-0.464960,-0.834001,0.297078
0.007106,-0.661701,0.519051,-0.337391,0.645975,0.684750
0.771823,-0.285657,-0.967178,0.330539,-0.014962,-0.943674
0.721087,-0.325533,-0.968963,-0.185148,-0.084444,0.979076
0.671181,-0.364829,-0.972707,0.017469,0.152717,0.988116
0.646770,-0.383968,-0.973702,-0.042881,-0.038632,0.998333
0.621976,-0.403252,-0.970191,-0.092811,-0.094204,0.991217
0.597120,-0.422972,-0.976510,-0.232339,-0.186631,0.954561
0.571178,-0.443517,-0.981892,0.076934,0.153892,-0.985088
0.545684,-0.463721,-0.984408,0.169398,0.201615,-0.964705
0.759839,-0.257263,-0.961035,-0.027812,-0.031898,0.999104
0.634725,-0.356010,-0.973906,0.070624,0.110764,0.991334
0.608847,-0.376747,-0.980342,0.276105,-0.006685,-0.961104
0.584562,-0.395645,-0.979611,-0.057970,-0.185602,0.980914
0.560406,-0.414638,-0.978879,0.050991,0.188606,-0.980728
0.274100,-0.556169,0.560824,0.859545,0.237076,0.452743
0.729501,-0.399133,-0.973526,-0.114676,0.027393,0.993025
0.704324,-0.418709,-0.972385,0.099058,0.118114,-0.988047
0.679020,-0.438671,-0.973760,-0.104923,-0.153992,0.982485
0.579528,-0.516922,-0.982565,-0.082726,-0.020795,0.996355
0.554544,-0.536546,-0.980196,-0.137286,0.107141,0.984720
0.715224,-0.401265,-0.970454,-0.077309,0.074422,0.994226
0.690811,-0.420597,-0.972210,-0.112097,-0.118014,0.986665
0.664552,-0.441627,-0.982068,0.003078,-0.050086,0.998740
0.640906,-0.459748,-0.975778,-0.044545,0.015473,0.998888
0.615731,-0.479469,-0.974725,-0.251547,0.117513,0.960685
0.564485,-0.520023,-0.980839,-0.012508,-0.027178,0.999552
0.540138,-0.538969,-0.980108,-0.013532,0.311405,0.950181
0.762325,-0.330330,-0.965189,0.248057,-0.423778,-0.871137
0.687754,-0.389152,-0.970103,-0.234635,-0.063937,-0.969979
0.662067,-0.409503,-0.974404,0.128055,0.197313,-0.971941
0.637784,-0.428303,-0.972853,-0.125166,0.170779,0.977327
0.613754,-0.447005,-0.968085,-0.181940,0.002244,0.983307
0.587239,-0.468276,-0.980020,0.303008,0.024112,-0.952683
0.537079,-0.507910,-0.985081,-0.162439,-0.108246,0.980763
0.511775,-0.527582,-0.983531,-0.003528,0.288091,0.957597
0.758884,-0.394821,-0.969021,0.639177,0.109950,-0.761159
0.733261,-0.414832,-0.969665,-0.067966,-0.066391,0.995476
0.707831,-0.434940,-0.971946,0.096323,0.097922,-0.990522
0.682144,-0.455096,-0.975925,-0.077640,0.128159,0.988710
0.634151,-0.492406,-0.968992,-0.186516,0.088188,0.978486
0.607254,-0.513919,-0.983121,0.191381,0.154461,-0.969286
0.583224,-0.532766,-0.980166,-0.090693,0.211840,0.973087
0.557730,-0.552681,-0.980664,-0.056890,0.602691,0.795944
0.738742,-0.407467,-0.970893,-0.231181,-0.076033,0.969935
0.714396,-0.426509,-0.971010,-0.075066,-0.091445,0.992977
0.688709,-0.446569,-0.973116,-0.227658,0.010291,0.973687
0.613309,-0.506020,-0.979377,0.234638,0.304172,-0.923268
0.587751,-0.526080,-0.981395,0.090217,-0.085305,-0.992262
0.563275,-0.545073,-0.981249,-0.129155,0.099498,0.986620
0.782721,-0.546382,-0.974053,-0.342693,-0.008494,0.939409
0.757481,-0.566152,-0.972327,-0.222238,0.183300,0.957607
0.733390,-0.584805,-0.968465,-0.058867,0.269041,0.961328
0.081679,-0.886814,0.563048,0.007350,-0.471614,0.881775
0.756079,-0.416334,-0.969431,-0.228547,0.036446,0.972850
0.731604,-0.435666,-0.970571,0.078462,-0.064645,0.994819
0.705855,-0.455872,-0.975047,0.131983,0.016117,0.991121
0.631601,-0.513483,-0.964458,0.359901,0.054335,-0.931407
0.604830,-0.535092,-0.978353,-0.296776,0.219036,0.929487
0.764939,-0.426607,-0.970279,-0.313209,0.038088,0.948920
0.739061,-0.447005,-0.973614,-0.350032,-0.060621,0.934774
0.714650,-0.466047,-0.974228,-0.178493,0.305367,0.935356
0.665381,-0.504470,-0.970308,-0.097204,-0.058792,0.993527
0.641670,-0.522592,-0.962936,0.389997,-0.050421,-0.919435
0.615157,-0.543960,-0.976949,0.120669,0.077036,-0.989699
0.761432,-0.466822,-0.968758,-0.241118,0.104553,0.964848
0.710698,-0.506603,-0.968904,-0.096024,-0.302229,0.948386
0.685268,-0.526371,-0.968173,-0.046078,0.007124,0.998912
0.660345,-0.546043,-0.972678,-0.069700,-0.221104,0.972756
0.635489,-0.565618,-0.976539,-0.352000,-0.362103,0.863121
0.749131,-0.521089,-0.971157,-0.127418,-0.066997,0.989584
0.723382,-0.541295,-0.976159,0.049178,-0.099175,0.993854
0.698269,-0.561015,-0.974579,0.066232,-0.132454,0.988974
0.673986,-0.579912,-0.974053,0.126763,0.154898,-0.979764
0.573791,0.883081,-0.016513,-0.028566,-0.356178,0.933981
0.487173,0.815247,-0.026167,-0.081002,0.069710,-0.994273
0.442111,0.782396,-0.002443,0.017195,0.504424,0.863285
0.421715,0.763742,-0.035177,0.027330,-0.578322,0.815351
0.400555,0.746298,-0.047697,-0.589188,0.389472,-0.707934
0.052042,0.481600,0.014641,-0.159175,-0.673635,0.721720
0.608592,0.827506,-0.046936,0.388858,0.192387,-0.900986
0.564230,0.795139,-0.024704,-0.467421,0.303832,0.830183
0.498200,0.745378,-0.008790,0.900687,-0.434137,0.017001
0.128844,0.458390,-0.019234,-0.098589,0.871430,0.480509
0.718729,0.836954,0.004520,-0.041939,-0.248251,0.967787
0.609930,0.752695,0.004227,0.246457,-0.796612,-0.551968
0.589343,0.734961,-0.014992,-0.544422,0.307079,0.780581
0.567481,0.717324,-0.021282,-0.186036,0.559969,0.807357
0.545875,0.701529,-0.012506,0.052819,0.415499,0.908059
0.413939,0.603507,0.029824,0.040088,-0.532580,-0.845430
0.701648,0.759333,0.044450,0.017864,0.678602,0.734289
0.681761,0.740097,0.006655,-0.431285,0.535678,0.725977
0.637720,0.705938,0.004841,-0.403649,0.773221,0.489077
0.616495,0.689754,0.008732,-0.243450,0.656740,0.713740
0.551037,0.641979,0.035850,-0.232378,0.704393,0.670694
0.528283,0.627298,0.065834,-0.583068,0.760919,0.284667
0.507058,0.607868,0.035265,-0.389747,0.714514,0.581005
0.484814,0.591443,0.042285,-0.286508,0.737183,0.611943
0.420822,0.541439,0.038687,0.692261,-0.395527,-0.603600
0.816820,0.797611,0.020843,0.718071,-0.668117,-0.194920
0.663405,0.682582,0.057672,-0.352202,0.922933,0.155399
0.618407,0.650992,0.089032,0.608255,-0.788218,-0.093472
0.596927,0.635776,0.101961,0.970441,-0.159320,-0.181275
0.512158,0.565908,0.061066,-0.567355,0.232512,0.789966
0.447145,0.516292,0.069110,-0.363336,0.189842,0.912111
0.404314,0.478063,0.020053,0.918475,-0.143219,-0.368636
0.846012,0.774547,0.045883,-0.013643,0.833146,0.552885
0.802224,0.740388,0.043309,0.746116,-0.665787,0.006162
0.478568,0.491823,0.063552,-0.048342,-0.028989,0.998410
0.392459,0.421711,0.029502,0.870129,-0.007901,-0.492761
0.909749,0.778811,-0.033860,0.252462,0.421589,0.870934
0.599413,0.555442,0.130366,0.869344,-0.115237,-0.480584
0.305778,0.233520,0.782709,-0.449130,0.118384,0.885589
0.118646,0.100904,0.897527,-0.123797,-0.850900,0.510533
0.100290,0.056617,0.624625,0.917087,0.396630,0.040442
0.043373,0.042323,0.896503,0.346444,0.795072,-0.497832
0.177411,0.187683,0.756030,-0.388499,0.124064,0.913059
0.089709,0.136710,0.913938,0.920680,0.290472,-0.260720
0.062495,0.102260,0.791221,0.843299,-0.469142,0.262207
0.058288,0.170385,0.900189,0.991014,0.109975,0.076131
0.103221,-0.027546,0.714198,-0.750907,-0.428799,-0.502265
0.254087,0.126874,0.944010,-0.710991,0.247025,0.658385
0.138278,0.003755,0.644722,0.942303,0.332888,-0.035365
0.046751,-0.058556,0.724524,-0.082442,0.111865,0.990298
0.155741,0.070378,0.859293,0.736954,0.616726,0.276672
0.120367,0.016934,0.629569,0.927445,0.362537,-0.091716
0.106217,0.014560,0.705217,0.066320,0.968395,0.240442
0.058223,-0.008020,0.834984,0.475244,0.858426,-0.192997
-0.011633,-0.097077,0.907648,-0.232787,-0.967896,-0.094804
0.410243,0.221018,0.799236,-0.675758,0.114426,0.728188
0.371491,0.190347,0.793766,-0.358780,0.093829,0.928694
0.352369,0.176199,0.802221,0.504146,0.014128,-0.863503
0.184678,0.052498,0.873832,-0.399294,-0.905810,0.141681
0.024443,-0.099644,0.598883,0.684282,0.711592,0.159360
0.263456,0.103228,0.769896,0.594891,-0.191332,-0.780703
0.389528,0.203042,0.813044,0.707206,-0.163524,-0.687836
0.363650,0.186423,0.799236,-0.362997,0.077239,0.928584
0.260078,0.119219,0.958899,0.127670,0.942664,0.308357
0.411198,0.206968,0.828051,0.428239,-0.104994,-0.897545
0.269128,0.104924,0.956501,-0.714885,-0.694955,-0.077311
0.251729,0.092715,0.976071,0.830466,0.283503,-0.479533
0.268683,0.112192,0.957729,0.318111,0.935199,0.155589
0.252048,0.101387,0.987187,0.700875,0.031922,-0.712570
0.277862,0.096494,0.942723,0.919753,0.220113,-0.324969
0.263647,0.087918,0.986661,-0.609568,-0.249022,0.752605
0.370024,0.169221,0.801606,0.262250,-0.083379,-0.961391
0.015776,-0.240934,0.736372,-0.149411,-0.763220,0.628627
-0.007935,-0.260800,0.711653,0.659984,-0.658301,0.362023
0.312023,0.050366,0.976627,0.792563,0.420236,-0.441866
0.262054,0.051191,0.899926,-0.712755,-0.575669,0.400731
0.321712,-0.040095,0.820533,0.266379,0.242013,-0.932991
0.190478,-0.150229,0.686671,-0.564150,0.788849,0.243828
0.171037,-0.164960,0.692668,-0.481740,0.858675,0.174942
0.033048,-0.272137,0.696324,0.455319,-0.744749,0.487887
0.028396,-0.262350,0.929910,-0.340252,-0.522057,0.782103
0.145990,-0.142670,0.680206,-0.736874,0.341838,-0.583236
0.095573,-0.177897,0.749331,0.022507,-0.998937,0.040228
0.218458,-0.171404,0.603797,0.981441,-0.162156,-0.102366
0.102138,-0.260218,0.634688,0.893365,-0.385058,-0.231579
0.009018,-0.330766,0.672483,0.636344,0.059038,0.769143
0.010356,-0.400586,0.758312,0.138496,-0.241596,0.960443
0.112591,-0.358820,0.747781,-0.362819,0.681217,-0.635850
0.405462,-0.089033,0.809036,-0.187231,0.102660,0.976937
0.076579,-0.353491,0.673800,0.888711,0.409613,0.205939
0.165175,-0.351601,0.704603,-0.332750,0.217002,-0.917708
0.027886,-0.458780,0.708728,0.950099,0.311389,0.018689
0.350394,-0.171210,0.776975,-0.192587,-0.453280,0.870314
0.296918,-0.210990,0.811347,-0.607895,0.164147,0.776865
0.257018,-0.242630,0.806199,-0.757215,0.337382,0.559284
0.371681,-0.221553,0.743188,-0.079741,-0.811174,0.579343
0.349947,-0.239528,0.726865,0.152455,-0.786013,0.599117
0.104560,-0.434553,0.665609,0.199998,0.120753,0.972327
0.011249,-0.505826,0.700946,0.258710,-0.143722,-0.955203
0.428982,-0.226010,0.720517,-0.192017,-0.895960,0.400480
0.333184,-0.355429,0.685793,0.332642,-0.928576,-0.164610
0.283215,0.643965,0.702497,0.108563,-0.012711,0.994008
0.288186,0.570366,0.691059,0.011769,-0.059847,0.998138
0.029224,0.316230,0.806491,-0.060147,-0.752519,0.655818
0.343063,0.502047,0.715222,0.071400,0.074559,0.994657
0.167851,0.367928,0.729117,0.592287,-0.567823,-0.571641
0.401957,0.545412,0.694511,0.067853,-0.018742,0.997519
0.378756,0.408920,0.806462,-0.320948,0.067169,0.944712
0.498646,0.390023,0.844315,-0.498519,-0.121973,0.858255
-0.880110,-0.011169,0.276982,-0.208872,0.200778,0.957111
-0.384237,0.233325,0.483304,-0.098602,-0.667126,0.738390
-0.839446,-0.097754,0.269903,-0.283440,0.091336,0.954631
-0.717965,0.030646,0.303515,-0.219796,-0.094578,0.970950
-0.648235,0.101921,0.331539,-0.675806,-0.151823,0.721274
-0.686925,-0.002544,0.578581,0.148118,-0.967163,0.206536
-0.721789,-0.096011,0.270313,0.209832,0.831399,-0.514535
-0.512413,-0.087094,0.277948,-0.701658,-0.432944,-0.565893
-0.638994,-0.177993,0.467361,0.056917,-0.244200,0.968053
-0.564421,-0.052693,0.283769,0.231916,-0.216254,0.948393
-0.342108,0.161905,0.442467,0.255149,0.831058,-0.494207
-0.291055,0.211377,0.478448,0.015590,-0.543960,0.838967
-0.440262,-0.148340,0.289912,0.341348,0.452193,0.824016
-0.506358,-0.164184,0.303310,0.081933,-0.027601,0.996256
-0.507442,-0.314727,0.472802,-0.294257,0.776953,-0.556557
-0.227954,-0.007583,0.508081,-0.004846,-0.998463,0.055209
-0.162625,0.060832,0.580482,0.243956,0.772984,-0.585647
-0.422608,-0.192723,0.295617,0.520500,0.293345,0.801891
-0.192710,0.016449,0.516974,-0.177773,0.972072,-0.153207
-0.182766,0.055503,0.393234,0.738303,0.338345,0.583465
-0.448548,-0.262786,0.520426,0.143480,-0.963922,0.224203
-0.171611,0.041063,0.553599,-0.162455,-0.828315,0.536192
-0.181937,0.063885,0.405637,0.688592,0.159749,0.707334
-0.162051,0.026673,0.546373,-0.889146,0.344819,0.300863
-0.098569,-0.064951,0.549094,-0.668540,0.030571,-0.743047
-0.134454,-0.007002,0.577586,-0.848157,0.495765,-0.186674
-0.142357,0.030549,0.378812,0.800070,0.557518,0.221500
-0.289143,-0.397001,0.474031,-0.542524,0.714264,0.442147
-0.224066,-0.305619,0.387588,0.808129,0.485989,0.332781
-0.022403,-0.107542,0.522035,-0.346359,-0.900612,-0.262553
-0.037572,-0.085158,0.336190,0.941515,0.265591,-0.207389
-0.076070,-0.178042,-0.242581,0.214709,-0.779696,0.588196
-0.158610,-0.203577,-0.216282,0.066956,0.103665,0.992356
-0.139423,-0.180900,-0.221460,-0.571860,0.391583,-0.720860
-0.120432,-0.157982,-0.228334,0.290064,-0.851222,0.437359
-0.145926,-0.308526,0.362430,0.133473,0.909992,0.392555
-0.133816,-0.292149,0.350056,-0.022890,0.975744,0.217713
-0.070015,-0.288757,0.334377,0.260579,-0.937951,0.228793
-0.349692,-0.650411,0.551522,0.249585,0.719620,-0.647961
-0.082253,-0.170919,-0.234565,0.319885,-0.701048,0.637343
-0.067593,-0.170240,-0.235911,0.368210,-0.615987,0.696406
-0.112719,-0.174892,-0.213649,0.365507,-0.901396,0.232140
-0.387106,-0.677060,0.566266,0.655027,0.531204,-0.537367
-0.162241,-0.241273,-0.202241,-0.033392,0.020590,0.999230
-0.103540,-0.171161,-0.218681,-0.456580,0.477396,-0.750752
-0.125403,-0.311578,0.237227,-0.224178,-0.973530,0.044526
-0.118582,-0.304214,0.335518,-0.279172,0.955791,-0.092339
-0.146181,-0.405675,0.290497,-0.159156,0.917064,0.365600
-0.061093,-0.293844,0.450072,0.773024,0.457253,0.439719
-0.051914,-0.292682,0.263906,-0.552943,0.796119,-0.245863
-0.059562,-0.170144,-0.236555,0.221931,-0.705139,0.673443
-0.119284,-0.468324,0.445802,0.792435,0.489763,0.363565
-0.190095,-0.835647,0.557109,0.466048,-0.003805,-0.884751
-0.152300,-0.797030,0.572292,-0.335628,0.687586,-0.643879
-0.551420,0.306830,0.475727,0.356153,0.924728,0.134286
-0.168808,0.255857,0.478887,-0.160381,0.540547,-0.825885
-0.250072,0.252077,0.502201,0.190584,-0.612069,0.767496
-0.216163,0.293020,0.489652,0.000342,-0.101128,0.994873
-0.229612,0.400731,0.511826,0.242809,0.483519,0.840983
-0.337456,0.278775,0.513873,0.043055,-0.125480,0.991161
-0.300806,0.328294,0.478711,-0.214648,0.056907,-0.975032
-0.474616,0.259394,0.484152,0.741875,-0.197328,-0.640845
-0.431913,0.301257,0.509485,0.360309,0.212149,-0.908389
-0.618279,0.177895,0.683775,0.504162,0.590421,-0.630257
-0.701776,0.089080,0.664263,-0.738766,0.237283,-0.630811
-0.751426,-0.082685,0.609267,0.789553,-0.270987,0.550611
-0.626503,-0.095865,0.723910,-0.569179,-0.092490,-0.816995
-0.506294,0.061365,0.630681,0.216415,0.896433,-0.386746
-0.480545,0.089225,0.635215,0.041213,-0.780387,0.623937
-0.422480,0.144705,0.676666,0.281449,0.773326,0.568114
-0.414767,0.157399,0.659261,0.835640,0.160222,0.525389
-0.611140,-0.206678,0.734002,0.675128,0.341966,0.653652
-0.077344,0.202946,0.844667,-0.023044,0.998782,0.043634
-0.099397,0.108946,0.884656,-0.608693,-0.750688,0.256825
-0.026929,0.216027,0.765011,-0.675511,0.397590,-0.620972
-0.250263,-0.123192,0.920549,0.127878,-0.740648,0.659612
-0.120877,0.016886,0.945297,-0.429900,0.325028,0.842343
-0.076134,0.077695,0.897732,0.516966,0.665601,-0.538258
-0.136940,0.053468,0.696295,-0.476077,0.358347,-0.803080
-0.217183,-0.109044,0.952493,-0.275937,0.462963,0.842332
-0.021957,0.110497,0.954131,-0.200953,0.255480,0.945700
-0.148029,0.030695,0.677544,-0.450465,0.748934,-0.485983
-0.169763,0.018048,0.624742,0.289070,0.606275,-0.740857
-0.083910,0.115390,0.621466,0.739701,0.325007,-0.589247
-0.187609,0.009035,0.614211,-0.087561,0.649314,0.755463
-0.090092,0.116118,0.625912,0.752123,0.441676,-0.489114
-0.183085,-0.087773,0.929968,0.201024,-0.177019,0.963459
-0.082061,0.027690,0.922567,0.021919,0.867207,0.497465
-0.054845,0.074545,0.854379,0.512807,0.777067,0.364960
-0.064533,0.115003,0.636561,-0.436308,-0.443526,0.782892
-0.227764,-0.114034,0.948164,0.961867,0.186526,0.200052
-0.241722,-0.120334,0.907502,0.030931,-0.680805,0.731812
-0.031965,0.106088,0.949158,-0.200953,0.255480,0.945700
-0.159565,0.026722,0.674034,-0.300469,0.860497,-0.411415
-0.074796,-0.027788,0.953224,0.278730,-0.228420,-0.932810
-0.016093,0.039901,0.945326,0.746238,-0.261354,-0.612227
-0.173523,-0.052161,0.582442,-0.570561,0.654760,-0.495730
-0.083527,0.048235,0.585807,0.888554,-0.395012,0.233317
-0.138404,-0.197520,0.939534,-0.425518,0.904783,-0.017401
-0.136111,-0.144511,0.715690,-0.376419,0.272436,0.885487
-0.365243,-0.607870,0.619272,-0.099135,0.594947,0.797628
-0.326874,-0.568138,0.635946,0.389397,-0.090339,-0.916629
-0.439945,-0.591879,0.593676,0.556714,0.608347,0.565671
-0.384111,-0.536837,0.629423,-0.192831,0.908937,-0.369663
-0.361548,-0.511447,0.629481,0.371035,0.127950,-0.919762
-0.027757,-0.157401,0.727771,0.774466,0.457250,0.437177
-0.168551,-0.493036,0.722389,-0.233635,-0.513716,0.825536
-0.309473,-0.621679,0.646770,0.410400,0.337545,-0.847134
-0.232481,-0.542360,0.681873,-0.168511,-0.929686,0.327549
-0.264923,-0.587859,0.658734,-0.252310,-0.457578,0.852620
-0.378756,-0.661362,0.591131,0.804860,0.583402,-0.108825
-0.252813,-0.541683,0.678626,0.346345,0.707520,-0.616003
-0.219797,-0.612860,0.629013,-0.036686,0.597102,0.801326
-0.203734,-0.794317,0.682166,0.961681,0.118927,-0.247034
-0.090537,-0.666159,0.680235,-0.216132,-0.066516,0.974096
-0.046497,-0.609274,0.652767,0.524856,-0.025693,-0.850803
-0.317888,0.376117,0.725051,0.451354,0.651192,-0.610106
0.023169,-0.183711,0.273647,-0.015484,-0.794448,0.607134
0.320628,0.215785,0.013851,0.832562,-0.004431,0.553914
0.127825,-0.087337,0.437786,0.752007,-0.624656,0.210455
-0.009273,-0.143252,0.305826,0.757836,0.624178,0.189964
0.016985,-0.198150,-0.283944,0.066005,-0.911383,0.406231
0.325281,0.065145,0.022978,-0.509935,0.233014,0.828052
0.021767,-0.287885,0.216926,0.754530,-0.552964,0.353435
0.038337,-0.267340,0.209759,0.738901,-0.659442,0.138425
0.082060,-0.224897,0.234244,-0.493557,0.768364,-0.407454
0.294113,0.073624,0.014407,-0.077798,0.130611,0.988377
0.315402,0.097850,0.013266,0.670625,-0.139436,-0.728574
0.100035,-0.211862,0.409382,0.903816,0.333421,-0.268228
-0.006597,-0.290162,0.255130,0.802857,-0.537041,0.258857
-0.001880,-0.278872,0.232605,0.871201,-0.361873,0.331747
0.276905,0.095137,0.009493,-0.367080,0.066865,-0.927783
0.333058,0.154395,0.023417,-0.113748,-0.108995,-0.987513
0.319736,0.154056,0.019848,-0.104315,0.088276,0.990619
0.074796,-0.219421,0.392473,0.932004,-0.256342,-0.256238
0.314764,0.186278,0.008527,0.944524,-0.304272,-0.123662
0.297875,0.195290,0.011687,0.984523,-0.173823,0.022342
0.317760,0.218304,0.008644,-0.593878,0.021421,-0.804270
0.070015,-0.176443,0.459902,-0.559915,-0.826804,-0.053772
0.119858,-0.107882,0.411488,0.985535,0.064785,-0.156603
0.012780,-0.171017,0.293861,-0.043244,-0.633802,0.772286
0.121132,-0.074885,0.453524,0.558190,-0.782931,0.274667
0.017305,-0.154154,0.299946,-0.099670,-0.767575,0.633163
0.305906,0.233810,0.017274,-0.961084,0.083532,0.263325
0.063578,-0.155511,0.507672,0.861018,0.503365,0.072607
0.123746,-0.091504,0.437757,0.752007,-0.624656,0.210455
0.122598,-0.099354,0.419854,0.919084,0.271688,-0.285430
0.295515,0.186616,0.002472,0.932209,-0.140785,0.333415
0.302718,0.184920,0.014436,0.870699,-0.206346,0.446435
0.317697,0.204011,0.003262,-0.534327,0.338478,-0.774549
0.303675,-0.313033,-0.151077,-0.746038,0.567164,0.348929
0.298449,-0.302033,-0.219149,0.608829,-0.771594,0.184308
0.295134,-0.296897,-0.254984,-0.011895,-0.966569,0.256130
0.293349,-0.290307,-0.288830,0.278381,0.951556,-0.130560
0.221518,-0.286625,-0.134315,-0.830265,0.505818,-0.234111
0.098569,-0.583207,0.473797,0.425982,0.605849,0.671928
0.172185,-0.473751,0.373283,0.964826,-0.242710,-0.101011
0.213423,-0.316278,-0.054776,0.985814,-0.051105,-0.159871
0.222983,-0.300822,-0.072796,-0.514318,0.649640,-0.559861
0.220816,-0.295104,-0.104711,-0.502368,0.839496,0.207056
0.163008,-0.310416,0.076775,0.201261,0.959214,-0.198498
0.153510,-0.302856,0.007503,0.866140,-0.343962,-0.362617
0.159310,-0.290307,-0.014729,-0.882851,0.382828,-0.272060
0.212913,-0.224460,-0.035791,-0.616391,0.480925,-0.623517
0.287039,-0.150132,-0.000190,-0.557800,0.116320,0.821784
0.002644,-0.585871,0.434451,0.062333,0.574108,0.816403
0.128399,-0.433389,0.394521,0.135226,-0.700658,0.700566
0.100418,-0.311094,0.160731,-0.713921,0.569388,-0.407570
0.113038,-0.293360,0.147538,0.716010,-0.457368,0.527394
0.107683,-0.290260,0.113341,-0.197910,-0.960106,-0.197556
0.253513,-0.096835,0.006129,0.136319,0.101913,0.985409
0.265687,-0.079682,-0.006684,-0.582337,0.027166,-0.812494
0.285829,-0.056279,-0.009727,0.452293,-0.130121,0.882326
0.143504,-0.159193,-0.223069,0.770545,0.099964,-0.629498
0.031008,-0.306830,0.171613,-0.525719,0.589979,-0.612817
0.085949,-0.255421,0.209408,-0.483274,0.765973,-0.423948
0.166322,-0.114568,0.025319,-0.413351,0.323207,-0.851280
0.423756,-0.243648,-0.991838,0.148765,-0.235866,0.960331
0.449695,-0.214867,-0.989527,0.026674,0.169170,0.985226
0.473470,-0.187393,-0.991195,-0.131882,-0.054437,0.989770
0.500239,-0.157644,-0.988913,-0.112202,-0.102862,0.988347
0.436630,-0.337064,-0.521918,0.537346,-0.822980,0.184289
0.441473,-0.325242,-0.548772,-0.351273,0.934240,-0.061669
0.442430,-0.316666,-0.581535,0.216989,-0.899667,0.378835
0.129863,-0.926837,0.535082,-0.176506,-0.349482,0.920167
0.173013,-0.883132,0.557109,0.320936,0.391287,-0.862493
0.357533,-0.325436,-0.368983,-0.314760,-0.094493,0.944456
0.362631,-0.313856,-0.393556,-0.584058,-0.809139,0.064575
0.356321,-0.311094,-0.434832,-0.184686,-0.980197,-0.071443
0.192071,-0.733799,0.550966,0.857982,0.108964,-0.501989
0.286593,-0.334110,-0.143354,-0.016747,0.997224,0.072547
0.586922,-0.298787,-0.894894,-0.214190,0.968070,0.130246
0.580548,-0.296170,-0.939417,0.062306,0.984434,0.164341
0.588387,-0.282022,-0.963609,0.272162,-0.921192,-0.278090
0.607444,-0.258183,-0.972912,0.227878,-0.313587,-0.921811
0.630963,-0.231292,-0.973936,0.177578,-0.150462,-0.972537
0.667103,-0.193983,-0.957642,0.108892,-0.000405,-0.994054
0.705790,-0.154590,-0.936901,0.313592,-0.109230,-0.943254
0.717391,-0.137050,-0.957291,0.082829,-0.074683,0.993761
0.743969,-0.107735,-0.952522,-0.741030,0.578688,-0.340581
0.763153,-0.084479,-0.959719,-0.393200,0.020579,0.919223
0.454284,-0.329360,-0.989703,0.323216,0.013946,-0.946223
0.480035,-0.300143,-0.989118,0.405878,-0.171758,-0.897643
0.508206,-0.269085,-0.985110,0.203332,0.159887,-0.965967
0.535295,-0.239093,-0.982156,0.322564,0.239218,0.915821
0.563402,-0.208374,-0.976276,0.268976,-0.163017,-0.949251
0.586475,-0.181966,-0.977914,-0.121304,0.026979,0.992249
0.615602,-0.150327,-0.971888,-0.131501,0.028961,0.990893
0.697059,-0.060495,-0.960830,0.137594,-0.012420,-0.990411
0.735556,-0.021538,-0.940236,-0.329644,-0.215403,0.919204
0.743840,-0.006662,-0.963638,-0.298621,0.068340,0.951922
0.512604,-0.336919,-0.657974,-0.299757,-0.952676,-0.050551
0.510246,-0.492406,-0.988387,-0.287182,-0.085755,0.954030
0.539119,-0.460620,-0.983823,-0.099461,-0.157828,0.982445
0.567099,-0.429950,-0.978587,-0.066260,-0.031050,0.997319
0.597756,-0.396711,-0.970747,-0.200348,0.026202,0.979374
0.627012,-0.364489,-0.964692,0.317806,0.044431,0.947114
0.650466,-0.337307,-0.967383,-0.112533,0.165874,0.979705
0.674051,-0.310319,-0.967968,0.048678,0.202876,-0.977994
0.697314,-0.283427,-0.968963,-0.004561,0.096856,0.995288
0.772778,-0.198053,-0.966622,-0.049620,0.123099,0.991153
0.485069,-0.472976,-0.985988,-0.138368,-0.091331,0.986161
0.512030,-0.442789,-0.983911,0.264865,0.181184,-0.947111
0.537717,-0.414008,-0.982068,-0.141578,-0.207828,0.967865
0.564995,-0.383919,-0.977826,0.123244,0.136265,0.982976
0.592275,-0.353393,-0.974696,-0.318103,-0.060182,0.946144
0.626629,-0.317587,-0.959748,0.215333,-0.403873,0.889111
0.646068,-0.293699,-0.968407,0.427292,-0.045957,0.902945
0.670162,-0.265742,-0.969665,-0.051910,0.014112,0.998552
0.693235,-0.238898,-0.972707,0.012359,0.098582,0.995052
0.718091,-0.210941,-0.971508,0.377319,-0.041822,-0.925139
0.743840,-0.182257,-0.969021,0.172171,0.139136,-0.975191
0.770482,-0.152555,-0.966476,-0.304076,-0.000895,0.952647
0.488128,-0.395500,-0.965628,-0.438911,-0.306768,0.844542
0.581376,-0.311288,-0.866372,0.431172,0.814488,0.388201
0.656840,-0.556897,-0.974374,-0.129339,-0.193761,0.972485
0.684949,-0.525886,-0.968816,-0.002877,-0.049532,0.998768
0.711462,-0.495943,-0.967003,-0.140739,0.079861,0.986820
0.735301,-0.468420,-0.967471,-0.312727,0.175902,0.933413
0.762325,-0.438186,-0.964809,-0.278391,-0.092644,0.955989
0.583607,-0.498559,-0.981922,-0.098062,-0.143670,0.984755
0.613435,-0.465950,-0.975340,0.177027,0.170450,-0.969334
0.639504,-0.436490,-0.974433,0.013167,0.059469,0.998143
0.663150,-0.409163,-0.975018,0.128055,0.197313,-0.971941
0.691130,-0.378443,-0.969401,-0.148591,-0.074048,-0.986123
0.715415,-0.350243,-0.970367,-0.334157,0.051158,0.941128
0.741292,-0.321367,-0.967792,0.018467,-0.026865,0.999468
0.768189,-0.291324,-0.965189,0.086288,-0.042291,-0.995372
0.558049,-0.527631,-0.982039,-0.140586,0.042009,0.989177
-0.004302,0.464205,0.009346,0.337138,-0.207116,0.918390
0.026483,0.496620,0.020404,-0.011444,-0.620087,0.784450
0.058414,0.469776,0.022218,-0.085820,-0.565173,0.820497
0.039548,0.411487,0.005309,0.252642,-0.201700,0.946303
0.087225,0.464350,0.008820,-0.481479,-0.650908,0.586939
0.379330,0.799065,-0.017566,-0.298487,0.414908,-0.859509
0.061666,0.426314,0.015519,-0.359622,0.328531,-0.873349
0.080722,0.448893,0.010341,0.003600,-0.357296,0.933984
0.114950,0.484071,0.026255,0.037019,-0.422284,0.905707
0.332610,0.736996,-0.009551,0.505046,0.090762,0.858307
0.389718,0.804491,-0.023827,0.426754,-0.297501,0.854034
0.408712,0.826635,-0.027512,-0.529724,0.346425,-0.774198
0.138659,0.500738,0.022159,-0.561841,0.644934,-0.518068
0.337008,0.731665,-0.011628,-0.652440,-0.128676,-0.746837
0.393287,0.797852,-0.025201,0.452078,-0.305315,0.838098
0.416617,0.823921,-0.023475,-0.529724,0.346425,-0.774198
0.436120,0.846452,-0.026372,0.127433,-0.306257,0.943381
0.386342,0.801778,-0.016601,0.410529,-0.287463,0.865350
0.425922,0.848099,-0.023944,0.098231,0.134638,0.986014
0.096656,0.468904,0.012740,-0.083824,-0.485758,0.870065
0.126422,0.500302,0.022569,0.227965,-0.152632,0.961632
0.083273,0.431306,0.003174,0.124336,-0.311710,0.942007
0.143376,0.494245,0.022276,-0.561841,0.644934,-0.518068
0.350394,0.731908,0.002355,0.505046,0.090762,0.858307
0.404762,0.797175,-0.014670,-0.570842,0.069861,-0.818082
0.421077,0.817524,-0.023446,0.329338,-0.248697,0.910871
0.443004,0.842332,-0.024061,0.031013,0.000825,0.999519
0.062367,0.348256,0.003613,0.154488,0.048313,0.986813
0.102393,0.394868,-0.003145,0.088643,-0.101422,0.990887
0.135154,0.428543,0.010312,-0.347297,-0.430968,0.832857
0.169954,0.477869,-0.034211,0.768939,-0.637016,-0.054244
0.463591,0.806235,-0.027249,-0.022898,-0.220265,0.975171
0.495205,0.838165,-0.012272,0.149585,0.083366,0.985228
0.500686,0.850037,-0.036961,0.118848,-0.513233,0.849981
0.380923,0.593671,0.016045,-0.149163,0.180827,0.972138
0.405845,0.620515,0.020726,-0.096344,0.248493,0.963830
0.427325,0.644838,0.019468,-0.331661,0.395194,0.856635
0.473087,0.703029,-0.010546,0.866243,-0.440870,0.235068
0.509482,0.738935,0.011131,0.207483,0.884395,-0.418087
0.515408,0.758169,-0.044216,0.769758,-0.540260,-0.339987
0.535231,0.781185,-0.048077,-0.711659,0.143893,0.687631
0.583033,0.833853,-0.043251,0.035567,-0.424888,0.904547
0.169891,0.359739,0.001799,-0.397598,-0.173337,0.901038
0.517066,0.595463,0.064430,0.738865,-0.421506,-0.525748
0.553077,0.631465,0.085434,-0.622289,0.722750,0.300647
0.548998,0.634663,0.048545,-0.419958,0.884780,-0.201988
0.626055,0.731618,-0.000044,-0.193982,0.366884,0.909817
0.642818,0.751823,-0.006772,-0.251083,0.256058,0.933484
0.682463,0.797611,-0.012330,-0.475051,-0.171890,0.863006
0.704834,0.822272,-0.010692,0.181017,0.770800,-0.610819
0.776221,0.914624,-0.068584,0.308150,-0.924669,-0.223676
0.852832,0.895825,-0.037137,0.111796,0.356713,0.927501
0.872909,0.919034,-0.040033,-0.234342,-0.930069,-0.282942
0.285891,0.250041,0.006509,-0.338360,-0.216127,0.915861
0.353964,0.319960,0.038775,0.960515,-0.277972,0.011969
0.910959,0.894711,-0.059778,0.542224,0.728426,-0.418794
0.374231,0.343121,0.036464,0.859127,-0.128522,-0.495362
0.436566,0.407903,0.061300,0.354204,0.124252,-0.926877
0.649321,0.649538,0.048926,-0.539401,0.840850,0.044911
0.751936,0.773578,0.007152,-0.358432,0.614317,0.702952
0.794895,0.828571,-0.025669,-0.445794,0.113244,-0.887944
0.352433,0.249170,0.026489,0.490569,-0.011134,-0.871331
0.599477,0.506795,0.125481,0.795385,0.134620,-0.590966
0.640396,0.547253,0.152423,0.541029,-0.028225,-0.840530
0.677556,0.591007,0.142506,0.600534,0.684848,-0.412725
0.774435,0.722944,0.029385,0.411988,-0.802436,-0.431697
0.822428,0.782106,0.004929,-0.460957,-0.733256,-0.499854
0.839384,0.802698,-0.002852,-0.399079,-0.763814,-0.507271
0.919245,0.892917,-0.055800,0.902524,0.362531,-0.232424
0.590044,0.489642,0.103161,0.898721,-0.105971,-0.425524
0.775518,0.714659,0.024178,0.419926,-0.776057,-0.470529
0.800439,0.741744,0.028156,0.528306,-0.714865,-0.458106
0.814080,0.759818,0.016016,0.122585,0.530029,0.839072
0.843334,0.803813,-0.037897,0.273870,0.619465,0.735703
0.794003,0.744409,0.020258,-0.031881,0.645506,0.763089
0.827464,0.778278,0.037546,0.906520,-0.350485,-0.235335
0.885337,0.860019,-0.038892,-0.112274,0.118885,0.986540
0.364798,0.257406,0.036025,0.921126,-0.389256,0.002493
0.598521,0.503160,0.116266,-0.865990,0.214934,0.451513
0.642182,0.545605,0.146894,0.592615,-0.022645,-0.805167
0.580993,0.498267,0.106583,0.891534,-0.120651,-0.436589
0.629243,0.543909,0.144759,0.826627,-0.007654,-0.562698
0.663405,0.592411,0.101523,-0.275960,-0.539718,0.795331
0.758055,0.710831,0.048721,-0.241305,0.953681,-0.179621
0.770994,0.728081,0.036347,-0.357667,0.919089,0.165379
0.902483,0.898295,-0.061007,0.442471,0.704001,-0.555520
0.342808,0.249073,0.023066,0.542184,0.020596,-0.840007
0.336244,0.265547,0.027103,0.361186,0.277927,-0.890113
0.371172,0.300869,0.045064,0.925447,-0.340294,0.166574
0.519870,0.463138,0.066039,-0.226813,-0.182102,0.956763
0.566590,0.507618,0.101230,0.890260,-0.010653,-0.455328
0.606616,0.546672,0.126066,0.594170,0.750656,0.288925
0.661238,0.604816,0.140985,0.593128,0.574786,-0.563756
0.764492,0.737479,0.071948,0.133797,-0.960852,0.242615
0.752319,0.735349,0.022920,0.364434,-0.566196,-0.739331
0.311705,0.248491,0.007503,0.334925,0.019908,-0.942034
0.348418,0.285364,0.026313,-0.103532,-0.182784,0.977687
0.373722,0.312740,0.030760,0.856158,-0.085244,-0.509633
0.502979,0.451994,0.055420,0.098458,-0.121156,0.987739
0.563275,0.514403,0.078325,0.835639,-0.009629,-0.549195
0.629370,0.573369,0.140927,-0.752353,0.393802,0.528095
0.751172,0.736366,0.035586,-0.206136,0.771460,0.601961
0.812168,0.822031,-0.034738,-0.375022,-0.201742,-0.904798
0.836133,0.848389,-0.031666,-0.424451,0.072593,-0.902536
0.884955,0.909247,-0.056648,-0.110868,-0.771671,0.626285
0.307052,0.255808,0.012857,0.401005,0.204940,-0.892857
0.347716,0.295151,0.037780,0.942531,-0.327902,0.064151
0.370598,0.320929,0.038395,0.904365,-0.052160,-0.423561
0.556837,0.519489,0.081309,0.835639,-0.009629,-0.549195
0.597949,0.559027,0.107461,-0.667444,-0.591256,-0.452697
0.639568,0.598904,0.134579,0.591164,0.507986,-0.626479
0.712674,0.709571,0.022042,0.240185,-0.865122,-0.440313
0.772968,0.778811,0.016192,0.236209,-0.403135,-0.884131
0.777304,0.789810,-0.008644,0.012914,0.922034,0.386894
0.810892,0.831625,-0.023973,0.295407,-0.042653,0.954419
0.873928,0.911185,-0.058755,0.083461,-0.791208,0.605825
0.746710,0.721684,0.029677,-0.304670,0.951353,-0.045873
0.820964,0.818203,-0.021106,0.713069,0.687207,0.138851
0.917269,0.906437,-0.049394,-0.544616,-0.804766,0.236104
0.867109,0.877171,-0.049481,-0.632928,-0.449061,-0.630671
0.882279,0.896988,-0.059574,-0.209962,-0.592796,0.777502
0.318462,0.243210,0.018561,0.886722,-0.304175,-0.348140
0.347461,0.273735,0.026547,-0.213543,-0.225311,0.950597
0.505784,0.443177,0.059925,0.098458,-0.121156,0.987739
0.544982,0.481308,0.082859,-0.696682,0.195224,0.690305
0.579145,0.515420,0.100440,0.866230,-0.105205,-0.488445
0.728163,0.699881,0.033656,-0.324622,0.939600,-0.108500
0.355428,0.255663,0.028332,0.509059,0.047133,-0.859440
0.828293,0.782784,0.042373,0.824582,-0.480450,-0.298717
0.911724,0.874021,-0.056210,0.899977,-0.263630,-0.347188
0.581376,0.455096,0.126300,0.794718,0.020561,-0.606630
0.881003,0.721539,0.060744,0.258997,-0.945634,-0.196717
0.895153,0.757492,-0.012710,0.426481,0.676989,0.599833
0.937092,0.765632,-0.019994,0.400839,0.375399,0.835705
0.694126,0.362501,0.143735,0.359268,0.147173,0.921557
