0.011688,-0.007002,0.459554,0.903202,0.388669,-0.182105
0.039989,0.318843,0.869263,0.004643,-0.954284,0.298867
-0.306836,-0.153195,0.674317,0.266865,-0.330951,0.905127
-0.735581,0.205158,0.567971,0.905474,-0.423570,-0.026543
0.780460,0.170305,0.641310,-0.122090,-0.528239,0.840273
-0.124129,-0.235005,0.621853,0.944137,-0.329433,0.008897
-0.303368,0.082158,0.727727,-0.348106,-0.272186,0.897071
-0.657823,0.366623,0.606468,0.578337,0.513100,0.634236
0.138210,0.932322,0.467142,-0.585634,-0.072841,0.807296
-0.065654,0.294699,0.851612,0.750121,-0.025200,-0.660820
0.653314,0.436900,0.497592,-0.053875,-0.133401,0.989597
0.282489,0.498432,0.537493,0.409864,-0.084651,-0.908210
-0.080845,-0.017585,0.878963,0.208155,0.574368,0.791690
0.218951,0.334622,0.505361,0.428171,0.255478,-0.866834
0.130233,0.347929,0.887816,0.314834,0.862322,-0.396587
-0.097909,-0.009981,0.748324,-0.292410,0.716084,-0.633814
-0.287275,-0.141282,0.447574,-0.225126,0.699393,0.678357
0.483508,-0.515541,0.594085,0.617538,0.782100,0.083471
0.154719,0.080511,0.856393,-0.523405,0.816468,-0.243777
0.466306,-0.012262,0.775216,0.736950,0.341149,-0.583543
0.023341,-0.110421,0.579214,0.745617,-0.251974,-0.616899
0.431623,0.285827,0.832211,0.827502,0.252578,-0.501442
0.112337,0.034758,0.861980,-0.618669,0.785614,0.007678
0.024659,0.356104,0.574976,0.444784,-0.219886,0.868227
0.075018,-0.098571,0.516827,0.920118,0.367257,-0.136031
0.066556,0.048509,0.602535,0.448756,-0.668555,0.593002
-0.727049,-0.388359,0.264594,-0.366471,-0.109821,0.923925
-0.038394,0.178670,-0.846498,0.958888,-0.269206,0.089794
-0.361773,0.386521,0.497050,0.335971,0.041265,0.940968
-0.626608,0.014607,0.585552,0.939081,0.282896,-0.195184
-0.007457,-0.051678,0.974358,0.995868,-0.052545,0.074068
0.083828,0.690124,0.599575,0.541678,-0.199456,0.816580
0.245725,0.143120,0.829570,0.739791,0.194413,-0.644138
-0.461381,-0.328095,0.690522,0.035794,0.319896,0.946776
0.079249,0.087862,0.831058,0.790707,0.133500,0.597461
-0.064891,0.072336,0.569764,0.072634,-0.996058,0.050924
0.066486,0.046735,0.866455,0.087287,0.805305,-0.586401
0.086602,-0.014860,0.880993,-0.404331,0.871892,-0.276260
0.332432,0.021134,0.758233,0.791431,-0.610504,-0.030360
-0.075712,0.542156,0.823205,-0.265198,0.894372,-0.360234
0.003295,-0.416875,0.813921,0.844186,0.415106,0.339171
-0.592134,-0.400272,0.380503,0.264249,0.791922,0.550483
-0.259113,0.508507,0.617600,-0.335092,-0.535791,0.775011
0.348108,0.089382,0.871431,-0.390904,0.645569,0.656075
0.521520,-0.354900,0.465558,0.135926,0.938916,0.316167
0.290466,-0.115807,0.850765,-0.555134,0.674437,0.486786
0.070718,0.276259,0.865024,-0.212830,-0.702602,0.679010
-0.056636,0.706980,0.588859,-0.776684,-0.346872,0.525778
0.178025,-0.310098,0.624091,0.636205,0.770056,0.047516
-0.310790,-0.381515,0.515312,0.807966,0.414802,-0.418485
0.087226,-0.126327,0.928885,0.972608,0.143477,-0.182890
-0.050810,0.345331,0.611721,0.890373,-0.090892,0.446065
-0.012659,-0.365546,0.774354,-0.469953,0.039417,0.881811
-0.671696,0.304902,0.604939,0.476608,0.292903,0.828886
0.197447,-0.095529,0.873265,0.863988,0.340071,0.371316
-0.071966,0.349830,0.782165,-0.035632,0.980545,0.193034
0.060868,0.083933,0.568152,0.838453,-0.404772,-0.364907
0.204037,0.140015,0.426991,-0.369026,0.892068,0.260834
0.426282,-0.420297,0.579242,0.765704,0.583081,0.271502
-0.048660,-0.302050,0.532740,0.922493,0.281965,0.263635
-0.067180,0.200152,0.866428,0.981896,0.088320,0.167571
-0.046024,0.282659,0.773993,0.020758,-0.732564,0.680381
0.314952,-0.934159,0.621380,-0.635065,0.708748,0.307195
-0.246835,-0.529039,0.123865,0.887502,-0.280158,-0.365857
0.050949,-0.043059,0.908344,0.994443,0.091888,0.051384
-0.242673,0.262951,0.814741,0.030287,-0.957411,0.287134
0.085007,-0.027851,0.902937,-0.364569,0.930447,0.036849
0.432803,-0.471310,0.573085,0.850559,0.335385,0.405052
0.128082,0.271506,0.798578,0.925696,0.349551,-0.144570
-0.757292,0.388613,0.591097,-0.486364,-0.530259,-0.694460
0.149239,0.032160,0.737247,0.122198,0.956453,0.265076
0.840114,0.034188,0.599019,0.436379,0.411776,-0.800009
-0.179135,-0.588860,0.699876,0.817726,0.575339,0.017589
0.024729,0.137290,0.694692,0.991756,0.033020,-0.123817
-0.240731,-0.487342,0.704712,-0.090104,0.289255,0.953002
0.048451,-0.073350,0.617586,-0.460202,-0.269928,0.845786
-0.628273,-0.300656,0.375861,-0.316983,-0.383421,-0.867473
0.028891,0.033744,0.514172,0.897821,-0.332033,-0.289259
-0.247182,0.713000,0.647703,0.278948,-0.842956,0.460014
0.724760,0.216375,0.623965,0.811226,-0.186670,-0.554136
-0.085839,-0.181965,0.681141,0.092196,0.463174,0.881459
0.178858,-0.279871,0.581605,0.515798,0.778486,0.357647
0.440849,0.221127,0.831725,0.753402,0.319822,-0.574543
-0.103458,-0.318653,0.705421,-0.152635,0.864613,0.478694
0.203551,-0.267957,0.494549,0.570201,0.818488,-0.070339
0.066348,-0.053959,0.884759,0.268111,-0.297341,-0.916354
-0.009052,-0.207376,0.537618,0.947289,-0.127037,0.294117
0.018763,0.005862,0.979584,-0.956310,0.249148,-0.152956
0.592966,0.158518,0.454703,0.525830,0.388981,-0.756437
0.131897,0.814264,0.629108,-0.561316,0.415944,-0.715483
0.530538,0.135769,0.539578,-0.694259,0.336888,0.636012
0.621198,0.065112,0.673581,-0.698717,0.710659,0.082209
-0.058371,0.015494,0.815256,-0.240135,-0.361205,0.901036
0.460063,-0.001236,0.758844,0.409115,0.571184,-0.711599
0.348247,-0.432844,0.610929,-0.696282,0.693712,-0.184272
0.015156,0.579481,0.401238,0.275622,-0.626989,0.728641
0.465751,-0.679351,0.614056,0.299224,-0.555686,0.775679
-0.000520,0.078356,-0.773798,0.942109,0.324050,-0.086148
0.229702,0.622382,0.576504,0.676192,-0.354991,0.645559
-0.182465,-0.224676,0.826040,0.617865,0.651322,0.440481
-0.209448,0.350718,0.332583,-0.428648,-0.474466,0.768858
-0.116221,0.187542,0.913514,0.966457,0.138738,0.216133
-0.019041,0.116568,-0.511434,0.943322,-0.320870,0.084767
-0.658655,-0.369602,0.267708,-0.366471,-0.109821,0.923925
0.059134,0.633598,0.414664,0.285590,-0.676691,0.678622
-0.060313,-0.426634,0.847874,0.450280,0.695595,0.559818
0.228800,0.145401,0.832975,0.928843,0.367990,-0.042822
-0.010856,-0.124743,0.723141,0.634788,0.721624,0.276230
0.368016,-0.292101,0.650955,-0.257130,-0.486623,0.834915
-0.108313,0.389436,0.617878,0.255795,-0.145473,0.955723
0.076336,0.040588,0.901117,0.673197,0.508722,0.536663
0.248916,-0.029308,0.900311,0.041999,-0.996342,-0.074425
0.372039,0.398752,0.505139,0.101313,-0.893619,0.437242
-0.049561,0.236083,0.862300,-0.624765,0.616936,0.478600
0.125724,-0.173917,0.625397,0.808399,0.347378,-0.475205
-0.161655,-0.154146,0.399849,0.866989,-0.312151,0.388447
0.219297,0.068471,0.881743,-0.419788,0.540202,0.729355
-0.154788,-0.088305,0.884495,0.971590,0.036272,0.233876
0.351923,-0.397611,0.622061,0.664752,-0.296817,0.685569
-0.366767,-0.052818,0.696220,-0.242121,-0.747774,0.618232
0.080012,0.378537,0.770602,0.873483,0.389272,-0.292397
0.315160,-0.001046,0.861953,-0.613443,0.235877,0.753691
-0.047342,0.108964,-0.592084,0.993156,-0.113503,-0.027539
-0.045122,0.073984,0.984240,0.962604,-0.251736,0.100109
0.623140,0.322518,0.495355,0.261342,-0.839781,0.475887
-0.069746,-0.509901,0.832892,-0.727245,0.404011,-0.554878
-0.745986,0.101042,0.540509,-0.485703,0.605449,-0.630494
0.323137,0.086341,0.608344,-0.117590,0.379750,0.917585
-0.576319,-0.151421,0.384005,-0.521413,0.245024,-0.817368
0.614608,-0.350147,0.466656,0.236093,0.946665,0.219285
-0.196684,0.306169,0.807654,-0.254883,0.760780,0.596866
-0.013145,0.763252,0.385714,0.265697,0.960901,-0.077939
0.062047,-0.023922,0.555338,0.163100,0.527254,0.833907
0.503902,0.121131,0.831085,0.917062,0.155753,-0.367068
0.031180,0.040208,0.626036,-0.308308,0.949499,0.058296
0.256269,-0.071576,0.818716,-0.031532,-0.753314,0.656904
-0.357611,0.551662,0.684241,0.826438,-0.562041,-0.033317
0.162557,0.059219,0.484487,0.263432,0.003902,-0.964670
0.078695,0.141979,0.837478,0.679962,0.022969,0.732887
-0.306350,-0.219606,0.671135,0.230980,-0.161486,0.959464
-0.092776,0.097114,0.373012,0.282108,0.364956,0.887255
0.455762,0.224930,0.848652,0.431442,0.827957,-0.358253
-0.131134,0.409778,0.454273,0.881765,0.470534,-0.032980
0.151389,-0.166756,0.889609,-0.730530,-0.565894,-0.382218
0.547602,-0.056747,0.744474,-0.145264,0.381880,0.912724
-0.120868,-0.143246,0.866775,0.771842,-0.117265,-0.624907
0.015018,0.061183,0.981043,0.746178,0.597282,0.294062
-0.021538,-0.242103,0.812045,0.889153,-0.402431,0.217847
0.003295,0.641773,0.772158,-0.300586,0.873591,-0.382737
0.291506,-0.032667,0.622756,0.035680,0.844236,0.534783
0.520619,-0.339818,0.472131,0.066499,0.996196,0.056317
-0.183366,0.603371,0.625703,-0.545901,0.265963,-0.794516
-0.273610,0.690251,0.358822,0.211834,-0.404120,0.889839
-0.086810,0.649821,0.249015,0.483187,0.382653,0.787468
-0.037214,-0.443997,0.564121,-0.710008,-0.455655,-0.536905
-0.000728,-0.116505,0.895905,0.314365,0.899263,0.304139
-0.085770,-0.136593,0.814158,0.899727,-0.430060,0.074430
-0.708043,0.161433,0.622756,-0.753287,0.123646,0.645965
-0.171366,0.352112,0.762624,-0.606848,0.542838,-0.580571
-0.611487,0.236463,0.596003,0.234089,0.260587,0.936641
-0.253980,0.550014,0.623743,0.358859,0.557255,-0.748790
-0.784691,-0.245208,0.685630,-0.503848,-0.164011,-0.848079
0.059619,-0.102056,0.919198,0.608652,-0.475784,-0.634959
-0.256338,0.151548,0.758942,-0.644351,-0.449920,0.618372
-0.231783,0.613003,0.468699,0.708623,-0.344397,0.615829
0.260569,0.317195,0.739026,0.353758,-0.366556,0.860519
-0.620574,-0.154463,0.359239,0.630052,0.494131,0.599057
-0.322443,-0.285130,0.678459,0.183696,0.557363,0.809693
0.479416,0.292608,0.861174,0.269800,0.944607,-0.186886
-0.149239,-0.187225,0.903896,-0.430229,-0.280972,0.857880
0.276732,-0.166630,0.863857,-0.379471,0.828745,0.411318
0.098602,0.695574,0.397264,0.447672,0.846507,0.288124
0.878056,0.144070,0.626662,0.122874,-0.808275,0.575841
0.669753,0.069611,0.622562,0.035200,-0.668166,0.743179
0.605105,0.006495,0.655805,0.566156,-0.085609,-0.819841
0.011688,0.059282,0.735093,-0.089408,0.858076,0.505679
0.136267,0.648680,0.708548,-0.781675,-0.573560,-0.244974
0.063920,0.017522,0.937460,0.623829,0.706549,-0.334105
0.070440,0.495390,0.754341,0.876571,0.245618,-0.413878
0.126210,-0.047495,0.800871,0.752106,0.635007,0.176356
0.739049,0.168024,0.634111,-0.770716,0.147130,0.619959
0.013769,0.028041,0.935625,-0.686668,0.202300,0.698256
-0.020567,0.490764,0.809766,-0.578946,-0.803931,-0.136073
0.151736,0.343937,0.536061,-0.530395,0.526899,-0.664122
-0.303229,-0.307373,0.678501,0.244093,0.452270,0.857829
-0.115666,-0.433415,0.720514,0.757190,0.628467,0.178024
0.280963,0.263395,0.861758,0.857359,-0.512861,-0.043689
-0.086186,-0.005165,0.843857,-0.287829,0.436021,0.852667
0.001145,-0.089256,0.876629,0.545310,-0.784044,0.296499
0.043041,-0.235892,0.525207,-0.488504,0.234877,0.840355
0.614470,0.800260,0.575962,0.512456,0.496671,-0.700505
0.068983,0.533285,0.787613,0.027745,0.896830,0.441505
-0.212291,0.480561,0.448199,-0.604806,-0.595603,0.528646
0.070648,-0.104084,0.933415,0.994004,0.006018,0.109182
0.088267,-0.120624,0.873682,0.678051,0.676227,-0.288034
-0.119828,0.494249,0.830349,-0.115537,0.899968,-0.420367
-0.272431,0.053135,0.581841,0.322818,0.925280,-0.199113
0.139111,-0.110104,0.773284,0.787002,0.608190,-0.103599
0.033815,-0.456164,0.769434,0.873396,0.119231,0.472191
-0.289911,-0.022971,0.846707,0.906820,0.364710,0.211338
0.003919,0.398942,0.722335,0.843103,0.333249,0.422046
0.036243,0.286588,-0.988548,0.194606,-0.414685,-0.888912
0.044012,0.040398,0.654596,0.785704,0.616657,0.049022
-0.101724,-0.560850,0.737080,0.766423,-0.385626,-0.513701
0.030902,0.267387,-0.989215,-0.208002,0.376796,0.902640
0.485243,-0.580495,0.628024,0.140539,0.410814,0.900822
-0.472757,-0.367067,0.677264,0.259105,-0.895603,-0.361608
-0.181424,0.005228,0.630664,0.310277,-0.304372,0.900603
0.018000,0.588796,0.752701,0.795292,-0.218994,0.565290
0.352131,0.242800,0.450187,-0.564145,0.673683,-0.477379
0.273749,0.338487,0.503749,0.917351,-0.301174,-0.260310
0.033815,0.106175,-0.397972,0.937081,0.348290,0.023954
0.033469,-0.373214,0.719736,0.997701,0.064310,0.021354
-0.041931,-0.822059,0.725420,0.346731,-0.936565,0.051227
0.197725,0.088812,0.770296,-0.454966,-0.377506,0.806533
-0.047342,-0.344951,0.776689,-0.005101,-0.991716,0.128345
0.094579,0.647793,0.688771,-0.689337,-0.638493,0.342259
0.116498,0.078356,0.420681,-0.456753,0.889544,-0.009392
-0.105539,0.709198,0.377820,0.611314,0.050122,-0.789800
-0.392085,0.435823,0.508836,0.233991,0.127366,0.963860
-0.105608,0.122525,-1.000000,-0.572076,-0.249041,0.781478
-0.010509,0.172840,0.855448,-0.202742,-0.966977,-0.154438
-0.697638,-0.177909,0.174828,0.205068,-0.946887,-0.247692
0.167274,0.058078,0.833879,-0.289600,0.824923,0.485421
0.630632,0.032350,0.594085,-0.016779,-0.540346,0.841276
-0.167759,0.377586,0.673748,0.206741,-0.277103,0.938335
-0.140429,0.165172,0.870555,0.212434,-0.384362,0.898408
-0.046093,0.046291,-0.623159,0.998758,-0.036424,-0.033998
0.344432,-0.165426,0.835797,-0.248760,0.968554,-0.004659
-0.085700,0.666234,0.585038,0.636691,-0.475966,-0.606697
0.230881,-0.126390,0.811531,0.413935,0.462082,-0.784307
0.164430,-0.233294,0.646980,-0.412786,0.816695,-0.403258
0.179621,-0.126834,0.856240,0.599796,0.686528,-0.411003
-0.096729,-0.459840,0.721181,0.840159,0.540515,0.044463
0.329102,0.556224,0.539189,0.379541,0.500510,-0.778099
-0.021885,-0.000855,0.983364,-0.193759,0.315222,0.929028
-0.440155,-0.180127,0.763347,0.534305,-0.729123,0.427666
-0.695835,-0.457432,0.662560,0.929247,0.038694,0.367427
-0.575556,0.161433,0.617586,0.284353,0.490872,0.823522
-0.182742,-0.048129,0.863537,0.594721,0.774966,-0.213854
-0.720737,-0.054656,0.507251,0.222495,-0.317509,0.921783
0.581591,-0.076899,0.752521,-0.247824,0.288640,0.924808
0.019873,0.306486,0.762708,0.843746,-0.536740,-0.001425
-0.362050,0.113273,0.576046,0.813521,0.531220,0.236619
-0.018555,-0.018282,0.931636,-0.644519,-0.153051,-0.749113
-0.729477,-0.390514,0.679029,-0.751809,0.040078,0.658162
-0.130371,0.319413,0.878727,0.647158,-0.503274,0.572627
-0.183991,0.012135,0.836408,-0.802988,-0.333469,0.493972
0.023827,-0.001172,0.444224,0.957551,-0.238931,0.161269
-0.296362,0.001553,0.854795,-0.519578,-0.663686,-0.538107
0.049145,0.029435,-0.362894,0.899535,0.436793,-0.006933
0.172476,-0.010488,0.950913,0.306228,-0.884780,-0.351267
-0.121770,-0.166376,0.327371,-0.386699,0.149352,0.910032
0.146950,0.019359,0.939419,0.201520,0.979337,-0.016971
0.001769,0.037927,0.573308,-0.424790,0.801370,0.421140
-0.645476,-0.146288,0.654610,0.864963,0.386956,0.319537
-0.409288,0.206045,0.628343,0.478112,0.080958,0.874560
-0.680019,-0.262824,0.382296,-0.489016,-0.146382,-0.859904
0.173031,0.109471,-0.976610,-0.019581,-0.014950,0.999696
-0.189609,0.030132,0.555463,0.213553,-0.895426,0.390650
0.135713,-0.000729,0.862828,0.833418,0.418431,0.361013
-0.089446,-0.426507,0.496063,0.801306,-0.122464,0.585586
-0.074879,-0.823453,0.733439,0.404078,-0.789361,0.462201
0.239552,-0.517379,0.631401,-0.003871,-0.022086,0.999749
0.028544,0.374608,0.572085,-0.608715,0.178765,-0.772987
0.883883,0.176515,0.635292,0.295768,-0.624133,0.723173
-0.798495,-0.170052,0.664103,0.954730,-0.277842,-0.106277
-0.411577,0.009030,0.656695,0.084412,0.501598,0.860973
0.318489,-0.046925,0.672552,-0.171450,0.404154,0.898479
0.201748,-0.203764,0.478246,0.108828,0.722604,0.682642
0.068845,-0.013213,0.914375,-0.737124,0.617289,-0.274960
0.308917,-0.467951,0.603883,0.920655,-0.324867,-0.216461
0.014185,0.046988,0.863064,-0.010012,-0.856481,0.516082
0.577845,0.384937,0.481540,-0.240617,-0.913549,0.327921
-0.011757,-0.135832,0.799940,-0.538690,0.165383,-0.826113
0.225610,0.478534,0.790615,0.994505,0.048727,0.092656
-0.232754,-0.524540,0.117722,0.887502,-0.280158,-0.365857
0.410675,0.530623,0.544901,-0.121565,-0.135999,0.983222
-0.100059,0.105985,0.883244,0.832594,0.077264,-0.548468
-0.643742,0.098698,0.621658,0.352820,0.507553,-0.786071
-0.381542,-0.031716,0.771283,0.840425,0.017674,0.541640
-0.109146,-0.356294,0.349497,-0.543951,-0.651221,-0.529177
-0.294975,0.238617,0.803165,0.748801,0.504663,-0.429666
-0.041446,-0.239885,0.682267,0.689697,0.227622,0.687391
0.567995,0.031970,0.599325,0.540176,0.813318,-0.216157
0.035341,0.052945,0.476815,-0.067190,-0.856385,0.511947
0.026047,-0.027534,0.556144,0.143879,0.482498,0.863999
0.325010,-0.192801,0.873404,0.995423,-0.022675,-0.092833
-0.071689,0.497988,0.815186,0.274437,-0.887018,0.371327
0.132175,-0.327715,0.745766,0.848357,0.384818,0.363601
-0.162696,-0.523779,0.728547,-0.589555,-0.025667,0.807320
0.106094,-0.004214,0.910331,0.783854,-0.458785,0.418437
-0.110325,-0.316308,0.823511,-0.622696,0.781184,0.044726
-0.110048,0.486075,0.789336,-0.308650,0.214345,-0.926710
0.174973,-0.013086,0.671969,0.080340,0.994788,0.062795
0.115389,0.296854,0.510795,0.789056,-0.486708,0.374841
-0.124337,-0.757359,0.743821,0.446394,0.779867,0.438793
0.053515,0.426444,0.577005,0.989478,-0.096072,-0.108184
0.805154,-0.078166,0.570445,0.148601,-0.928556,0.340150
0.085215,0.028485,0.594571,0.046280,-0.495543,0.867349
-0.031596,0.070245,-0.570111,0.986430,-0.159278,-0.039836
0.417196,-0.637908,0.626606,-0.774189,-0.105734,-0.624060
-0.016405,0.090333,0.034515,-0.608685,0.781356,0.137787
-0.706586,-0.290897,0.658390,-0.620404,-0.038288,-0.783347
-0.208338,-0.340008,0.872209,0.901524,0.170177,0.397862
-0.488988,0.140648,0.734120,0.990822,-0.001515,0.135166
0.016335,0.066950,0.919365,0.239773,0.154205,-0.958504
-0.049006,0.345585,0.863273,0.642992,0.646615,0.410427
0.053099,-0.012199,0.428965,0.806404,-0.252972,0.534526
0.113654,0.017458,0.871681,0.871482,0.426601,0.241931
0.059966,0.167580,0.815339,-0.470700,0.657876,-0.587912
0.047064,0.446342,0.795674,0.006999,0.993481,0.113787
-0.016960,0.008206,0.419041,-0.030248,-0.953758,0.299048
0.228870,0.558506,0.531489,-0.451982,-0.284410,0.845472
-0.029237,-0.026647,0.457441,0.979212,0.159511,-0.125303
0.507439,0.644244,0.556102,-0.104475,0.730580,-0.674787
0.338328,0.588289,0.544887,0.007587,-0.164272,0.986386
-0.017723,-0.139571,0.776453,0.821348,0.431787,0.372756
-0.760830,-0.270555,0.664742,0.593238,-0.010275,0.804962
0.500919,0.011248,0.577644,-0.306127,-0.923959,0.229316
-0.034440,0.359779,0.578144,0.812996,-0.182836,0.552819
-0.466861,-0.550901,0.494479,-0.386133,0.102280,0.916755
0.187112,0.641013,0.422766,-0.213966,-0.838522,0.501098
0.033469,0.772694,0.634695,0.452012,0.869477,0.199237
0.064267,0.007002,0.868457,0.678141,0.683435,-0.270264
-0.214164,0.533792,0.344479,-0.497701,-0.449326,0.741890
0.224985,-0.476759,0.629372,0.063380,0.134092,0.988940
-0.244685,-0.334622,0.882646,0.884727,0.280264,0.372438
0.430306,-0.865530,0.627996,0.094379,0.450679,0.887683
0.525544,0.363328,0.491116,-0.384667,0.736011,-0.557063
-0.047133,-0.091537,0.809891,0.775880,-0.392536,0.493888
0.031249,0.021197,0.040755,-0.658203,0.749913,0.066330
0.286998,-0.228668,0.813685,0.872370,0.454089,-0.181035
0.590955,0.732581,0.569736,-0.030087,-0.437674,0.898630
0.016266,-0.086087,0.834115,-0.079658,-0.734677,0.673724
-0.073978,-0.375051,0.566039,0.902521,0.134730,0.409028
0.048521,0.067774,0.950774,0.885645,0.051964,0.461447
0.133007,-0.085644,0.918142,0.855676,-0.236783,-0.460166
0.123643,0.010171,0.886010,0.935311,-0.219692,0.277362
0.255714,0.506416,0.799287,0.605201,0.563039,0.562778
-0.055388,-0.218593,0.570667,0.835029,-0.272986,-0.477708
0.319530,-0.323405,0.801747,0.761803,-0.490097,-0.423629
0.099712,-0.123729,0.883744,0.479306,-0.654226,0.585024
0.201609,0.346599,0.504652,0.934986,0.119260,-0.334032
0.049700,-0.377079,0.753494,0.827157,0.560513,0.040454
-0.038602,-0.126010,0.800885,-0.438238,0.048119,-0.897570
-0.343946,-0.170875,0.620046,-0.588869,0.533908,-0.606775
0.162765,0.297361,0.820189,-0.261201,0.941541,0.212780
-0.128013,-0.246538,0.867289,-0.118843,0.427002,0.896407
-0.605313,0.212826,0.581021,-0.254827,-0.077204,-0.963900
0.162557,0.490194,0.641783,0.436923,-0.071914,-0.896620
0.094857,0.284307,0.664936,0.983855,-0.046945,-0.172702
-0.149724,-0.715472,0.594002,-0.044017,0.980051,0.193809
0.032636,-0.666614,0.603980,0.215276,-0.480560,0.850128
-0.094094,-0.332848,0.484695,0.635136,0.440729,0.634319
0.577429,0.796521,0.575267,0.468838,0.451366,-0.759250
0.218881,-0.461804,0.628454,-0.037979,0.224510,0.973731
0.068914,-0.140395,0.885940,-0.599623,-0.794778,0.093701
-0.003295,0.065049,0.506709,-0.028493,0.963089,0.267673
0.496480,-0.552993,0.613959,-0.593013,-0.396799,-0.700633
-0.184199,-0.419347,0.602104,0.839794,0.073637,0.537888
0.175528,-0.350844,0.622312,0.404273,0.510628,0.758829
0.128291,-0.186781,0.570445,0.156138,0.986592,-0.047500
-0.512156,-0.203511,0.676555,0.271203,0.035344,0.961873
0.216939,0.071702,0.840675,-0.696087,-0.029877,0.717335
-0.288732,0.688730,0.636335,-0.303327,0.802570,-0.513687
0.176499,0.559139,0.553698,-0.395647,-0.063668,0.916193
-0.054417,-0.326067,0.823428,0.617592,0.300634,0.726773
-0.026255,-0.147492,0.673970,0.800801,0.243863,0.547036
0.092359,0.484997,0.396193,-0.040985,-0.058057,0.997472
-0.088059,0.650835,0.584635,-0.035792,0.701184,0.712082
-0.302535,-0.112449,0.756120,-0.686093,0.439041,-0.580102
0.803767,0.124869,0.614265,-0.395384,0.755511,-0.522375
0.593244,-0.049333,0.599797,0.684123,0.605670,0.406374
-0.562654,-0.016191,0.613375,-0.621717,-0.381747,-0.683913
-0.052405,-0.088115,0.923131,0.831753,0.287198,-0.475083
0.478930,0.065049,0.766585,-0.591922,0.120188,0.796984
0.012867,-0.337664,0.785792,0.791342,0.215357,0.572188
-0.067457,-0.263712,0.577296,0.820036,-0.258702,0.510504
0.091805,-0.426317,0.720319,0.546965,-0.761037,-0.348786
0.086672,0.921675,0.460318,-0.557721,0.092874,0.824816
-0.707765,-0.430690,0.679307,0.920546,-0.140899,-0.364337
-0.555301,0.037927,0.653901,-0.158499,0.370699,0.915129
-0.563070,-0.230316,0.360184,0.048873,0.580781,0.812591
0.294489,-0.105035,0.698444,0.764648,0.628793,0.141185
-0.002948,-0.024746,0.834866,0.935075,-0.167403,-0.312428
0.273679,-0.499699,0.627259,-0.052494,-0.959126,-0.278066
-0.115527,-0.204525,0.867178,0.996275,0.085814,-0.008478
0.001769,-0.027597,0.985018,0.862602,-0.474221,-0.176159
0.075088,-0.109534,0.591834,0.988919,0.115954,-0.092700
-0.050116,-0.174804,0.782123,0.848478,0.301822,0.434728
0.052821,0.218402,0.698819,-0.421722,-0.229274,0.877259
-0.100614,-0.114857,0.940462,0.201395,0.407132,-0.890889
-0.173933,0.121637,0.485751,-0.205907,-0.950226,-0.233823
-0.687233,0.072336,0.618976,-0.139591,0.386203,0.911790
-0.625707,-0.611166,0.680822,0.663686,0.215058,-0.716430
-0.204869,0.118216,0.587623,-0.012929,-0.874667,0.484552
-0.046856,-0.330313,0.775591,0.088173,-0.701596,0.707099
-0.016058,0.252115,0.864732,-0.497922,0.850976,0.167074
-0.141331,-0.345711,0.824428,0.937244,0.339838,0.078002
0.155135,-0.230950,0.844608,0.821826,0.569737,0.001001
0.302743,-0.583347,0.637363,0.136446,0.327245,0.935037
0.445011,0.013466,0.822455,-0.651602,0.127855,0.747709
0.119273,0.121067,0.918211,0.873773,-0.305081,0.378742
0.044290,-0.268401,0.339893,-0.495203,0.090069,0.864096
0.021468,0.020437,0.520218,0.978797,0.110955,-0.172177
0.094787,0.233674,0.860646,-0.200790,-0.671591,0.713196
-0.133146,-0.327905,0.591389,0.898326,-0.203310,0.389455
0.048660,0.310985,0.571737,0.542099,-0.138721,0.828785
0.018833,-0.030069,0.469935,0.996581,-0.004853,-0.082484
0.427947,-0.042299,0.760470,0.674484,0.578180,-0.459107
0.055180,-0.116061,0.929913,0.301222,0.949208,-0.090931
0.038324,-0.026900,0.905230,0.776698,-0.372326,-0.508048
-0.132730,0.378854,0.344716,-0.388087,-0.424144,0.818224
-0.598169,-0.063718,0.688326,0.530077,0.177413,-0.829182
-0.557174,0.121637,0.505625,0.960334,-0.210081,-0.183370
-0.126071,0.471500,0.792310,0.119915,-0.341734,0.932115
-0.699858,-0.325687,0.673511,0.145430,0.685360,0.713535
-0.061978,-0.158392,0.936640,0.086324,-0.807090,0.584083
-0.098672,-0.141979,0.390634,0.891405,-0.447729,0.070250
0.203482,0.381959,0.539744,-0.667563,0.616337,-0.417718
-0.076960,-0.194766,0.622367,0.746017,-0.386756,-0.542105
0.045607,0.275625,0.745919,0.313258,0.906740,0.282297
-0.472202,-0.084883,0.465266,-0.670345,0.107441,-0.734230
0.000104,0.077152,0.871889,0.582149,0.521883,0.623491
0.283807,-0.193562,0.840828,0.426407,-0.729928,0.534212
-0.057885,0.262888,0.862536,0.072641,-0.963396,0.258052
0.189193,-0.000855,0.916196,0.488714,-0.855703,0.170093
0.007318,-0.289820,0.780719,0.840531,0.221560,0.494388
-0.254812,0.004341,0.851154,0.843069,0.401610,0.357693
-0.031180,0.038877,0.031625,-0.608685,0.781356,0.137787
0.030208,0.059219,0.928996,0.952422,-0.141002,0.270205
0.057053,-0.251671,0.742514,0.837786,-0.073391,0.541044
-0.674886,0.296410,0.570667,0.783597,-0.590330,0.193611
-0.194534,-0.545959,0.626731,0.475730,-0.460018,-0.749709
-0.502237,0.205222,0.583134,-0.082849,0.589973,0.803161
0.122394,0.853744,0.628135,0.955531,0.244403,0.165008
-0.024659,0.017015,0.526764,0.921752,0.371202,-0.112173
-0.064822,-0.371820,0.840550,0.755537,0.480350,0.445452
-0.132938,-0.298628,0.791796,-0.499579,0.848756,-0.173303
0.021052,-0.060042,0.938961,0.004486,-0.899591,-0.436710
-0.161169,0.041222,0.477538,-0.114228,-0.949426,0.292476
0.134464,0.613130,0.704698,0.821882,0.538271,0.186479
-0.090348,0.134058,0.644715,0.967742,0.166826,-0.188796
-0.355322,0.518203,0.699153,0.159610,-0.935507,0.315199
-0.131134,0.201229,0.878866,0.388559,-0.060933,-0.919407
-0.023758,-0.727258,0.589276,-0.006817,-0.948366,0.317105
-0.096660,-0.703431,0.567082,-0.325089,-0.942535,-0.077098
0.046648,0.000982,0.898963,-0.257019,0.344455,0.902935
0.500850,-0.706156,0.606718,-0.137137,0.730162,-0.669370
-0.306212,0.336333,0.657390,0.251999,-0.878093,0.406755
0.541844,-0.061627,0.754550,0.389385,0.058545,0.919213
0.564457,-0.059852,0.576602,-0.394740,-0.588780,0.705350
-0.543648,0.148506,0.537243,0.753535,0.564930,0.336213
-0.287899,0.142930,0.740471,-0.213917,0.093865,0.972332
0.365449,0.262761,0.813449,-0.554341,-0.389573,0.735485
-0.559949,-0.162511,0.640365,-0.299011,-0.039753,0.953421
0.185309,0.060740,0.596170,-0.156329,0.984540,0.079002
-0.154233,0.395837,0.450256,0.880444,0.473781,-0.018693
-0.010301,0.261367,0.853391,0.606965,-0.469662,0.641101
-0.361912,0.092931,0.598046,-0.344686,-0.336489,-0.876337
0.244754,0.283610,0.813963,-0.761052,-0.647917,0.031675
-0.088752,0.731694,0.241566,0.793047,0.325842,0.514687
-0.039157,-0.149710,0.469296,-0.231587,0.732134,0.640584
0.137724,0.012515,0.800343,0.541201,-0.109887,-0.833683
-0.533035,0.146858,0.542274,-0.664128,-0.716351,-0.213951
0.278119,0.045974,0.849305,-0.575007,0.172175,0.799827
-0.021815,0.009157,0.374930,0.974051,0.189547,-0.123681
0.154510,0.493362,0.552503,0.952919,0.292740,-0.079051
-0.286165,0.454770,0.678598,-0.357828,0.353899,-0.864126
-0.186418,0.314344,0.762277,0.536812,-0.455235,0.710348
-0.001769,0.808561,0.622103,0.548972,0.698958,-0.458354
0.762841,0.149647,0.629886,0.287235,0.529243,-0.798372
-0.211806,-0.001933,0.748449,0.308776,0.371048,0.875774
-0.292963,0.316498,0.786181,0.910204,-0.345969,-0.227673
0.002601,-0.191661,0.584023,-0.048889,-0.730188,0.681495
0.070787,0.501030,0.748879,0.978174,-0.062403,-0.198195
-0.123921,0.171636,0.795771,-0.708633,-0.398662,0.582158
0.256685,0.545895,0.558868,-0.783281,0.594109,-0.183046
0.724482,0.133171,0.627079,-0.042490,-0.349867,0.935835
-0.511601,0.358575,0.575948,-0.011895,0.375335,0.926813
0.090001,-0.087355,0.941365,0.985256,-0.164258,0.047843
0.145007,0.224423,0.528042,-0.669722,0.277420,-0.688847
0.092637,0.750642,0.621311,-0.263256,0.722787,-0.638965
-0.123088,-0.053135,0.418069,-0.704321,0.601809,-0.376507
0.509104,0.250404,0.456329,0.402001,0.427238,-0.809853
0.101099,0.362124,0.894793,0.393747,0.868186,-0.302021
0.173447,-0.132157,0.786974,0.890421,0.379703,-0.250949
-0.034995,-0.099902,0.854364,0.867432,-0.494152,-0.058093
-0.192176,0.360160,0.885218,-0.528299,-0.821097,0.216104
0.067804,-0.493425,0.721876,0.742968,0.611580,0.271972
-0.027087,0.033871,-0.308734,-0.635362,-0.769244,0.067658
0.396039,0.052248,0.770616,-0.248726,0.909424,-0.333292
-0.038740,-0.002313,0.204180,0.723138,-0.690663,-0.007575
0.865640,0.218783,0.651636,0.735367,0.079400,-0.673002
0.208338,-0.097240,0.802150,0.706163,0.471205,-0.528489
-0.178788,0.765090,0.364020,-0.305056,-0.181871,0.934807
-0.372316,0.146352,0.735899,0.624294,0.019828,-0.780938
0.224985,-0.195146,0.847777,-0.655500,0.384551,0.649954
0.013145,0.007319,0.743015,0.061312,0.989222,0.132967
-0.120452,-0.459459,0.577616,0.770368,0.580907,0.262831
-0.722193,0.266817,0.526097,-0.321629,-0.031668,-0.946336
-0.488641,0.160229,0.754244,-0.657119,-0.751006,0.064689
0.734332,0.467381,0.520009,-0.666113,-0.702962,0.249275
0.011272,-0.439245,0.778371,0.928576,-0.354061,0.111301
-0.047342,-0.067900,0.900005,-0.111363,-0.205841,0.972228
-0.408525,-0.198441,0.666660,0.475043,-0.669910,0.570575
-0.029654,-0.412439,0.343562,0.085664,0.519258,0.850313
-0.836091,0.270809,0.619713,-0.624705,0.401736,-0.669591
-0.036590,0.033427,0.859757,0.743308,-0.044309,0.667480
0.028197,0.005481,0.854934,-0.165346,-0.704029,0.690655
-0.536156,0.013213,0.615321,0.410747,0.218142,0.885269
-0.011827,-0.108393,0.888581,0.120352,0.869224,0.479547
-0.238442,-0.310161,0.815131,-0.606751,-0.765014,0.215884
-0.085007,0.588796,0.389064,0.889320,0.419147,-0.182827
0.079596,-0.305725,0.703294,-0.551769,-0.476195,0.684682
0.163667,0.358195,0.774591,-0.356189,0.915535,-0.186884
0.239691,0.477583,0.529279,0.738529,-0.660713,0.134287
-0.252939,0.079877,0.743571,-0.116264,-0.415202,0.902269
-0.403808,0.147492,0.595169,-0.474023,-0.668096,-0.573542
-0.018555,0.175818,0.847179,0.136967,-0.362861,0.921722
-0.201956,0.352429,0.777134,-0.447693,0.795755,-0.407855
-0.061631,-0.053642,0.938516,0.747509,-0.608462,0.266466
-0.466237,0.141409,0.735663,0.819697,-0.222390,0.527863
0.135504,0.733849,0.632263,-0.033020,-0.999360,-0.013765
-0.375022,0.060423,0.726254,0.065944,-0.161913,0.984599
-0.130510,0.080511,0.875836,0.379503,0.165919,-0.910191
0.180661,-0.379487,0.622729,0.318308,0.441505,0.838900
0.043873,-0.223535,0.696776,0.764442,0.489910,0.419066
0.240662,0.043503,0.842259,-0.358681,0.456130,0.814428
0.520480,0.003137,0.665326,0.331012,0.067654,0.941198
-0.118371,-0.568391,0.825081,0.991525,-0.087193,-0.096310
-0.130788,-0.527011,0.748768,-0.545410,0.255407,0.798308
-0.026324,0.049650,0.603021,-0.375366,0.914812,0.149062
-0.227899,0.584931,0.631317,-0.410319,0.339675,-0.846321
0.016197,-0.045087,0.829376,-0.837678,0.137524,0.528566
-0.582700,-0.350971,0.382212,0.239337,0.730256,0.639877
-0.257726,-0.160736,0.730882,-0.122724,0.067350,0.990153
-0.011896,-0.154590,0.431202,0.827807,-0.372591,-0.419417
-0.174488,0.086594,0.774938,0.247148,-0.676645,0.693592
-0.045885,-0.291024,0.528793,0.793823,0.546010,0.267803
-0.187459,0.336206,0.839521,0.763605,0.612252,0.205070
-0.191205,0.040335,0.839772,0.902178,0.009870,-0.431252
0.146048,0.087165,0.462417,-0.784625,0.593272,-0.179976
0.862519,0.329045,0.644757,0.627582,-0.116500,-0.769785
0.150903,-0.240835,0.677236,0.531288,0.716252,0.452456
0.180730,-0.430183,0.623604,0.431345,0.323013,0.842380
0.211390,0.003961,0.576907,-0.294941,0.903637,-0.310563
0.151042,0.075695,0.857033,-0.299375,0.941606,-0.154122
-0.044567,-0.104591,0.554490,-0.867932,0.447555,-0.215381
-0.243506,0.823960,0.367883,-0.139563,0.743137,-0.654424
-0.038810,-0.057254,0.815006,-0.492104,-0.167753,-0.854221
-0.602261,-0.118152,0.364353,-0.526094,-0.848894,0.051030
-0.405542,0.202877,0.573461,-0.461429,-0.828236,0.317975
0.777130,0.106365,0.614571,-0.585837,0.417389,-0.694680
-0.046787,0.049713,-0.250752,0.526873,-0.849098,-0.037917
0.257171,0.333861,0.871014,0.934599,0.187334,-0.302376
0.030278,0.412249,0.804207,0.329901,-0.152165,0.931671
-0.089862,-0.292228,0.490504,0.024433,0.630160,0.776081
0.762217,0.039764,0.603536,-0.166252,-0.707771,0.686600
-0.158256,-0.095910,0.876490,0.809002,0.574463,0.124532
-0.162071,-0.311619,0.870569,-0.801854,0.576259,-0.157976
0.041376,0.704826,0.438443,0.444166,0.841405,-0.307822
-0.190095,-0.278033,0.329484,-0.039154,0.368862,0.928659
-0.018694,0.047495,0.516549,0.824065,-0.447841,-0.346922
0.096660,0.214727,0.673748,0.930665,-0.268694,0.248328
0.101585,0.219797,0.496189,-0.482291,0.718888,-0.500595
-0.157771,-0.009664,0.824470,-0.725976,0.063331,-0.684798
0.017307,-0.437534,0.781456,0.747915,0.601887,-0.279919
-0.037214,-0.354330,0.814964,-0.728116,0.195121,0.657096
0.009399,0.183549,0.699653,0.981727,-0.027091,-0.188357
0.285818,-0.178987,0.449214,0.391570,-0.048053,-0.918893
-0.247529,-0.021514,0.737970,0.816486,0.567553,-0.105994
-0.021746,0.107316,-0.508585,0.997739,-0.063430,-0.022223
0.165193,0.151421,0.868276,0.742227,0.161575,-0.650379
0.344224,-0.686068,0.650066,0.083124,0.806018,0.586025
-0.161239,-0.083172,0.899505,-0.629742,0.723472,0.282864
0.141331,0.577833,0.556005,0.629779,0.079227,-0.772723
-0.174071,-0.254840,0.895419,-0.054745,0.805493,0.590072
-0.086672,0.393175,0.812379,-0.633383,-0.761315,-0.138659
0.150903,0.073097,0.811879,0.973945,-0.205446,-0.096038
-0.732321,0.113019,0.575976,0.783053,0.567765,-0.253909
-0.534908,0.272076,0.485682,0.753875,0.609911,0.244295
0.170256,0.111815,0.861216,0.321624,-0.865498,0.384019
0.413034,-0.059029,0.575823,0.397689,-0.211194,-0.892883
-0.361149,-0.152181,0.670662,-0.512295,-0.233363,0.826496
-0.006208,0.698045,0.422196,0.133159,0.646746,-0.750991
0.456595,-0.518393,0.538855,0.800616,0.134599,-0.583864
-0.434676,0.207249,0.728880,-0.277764,0.435790,0.856116
-0.097007,0.730300,0.378779,-0.571229,0.157678,0.805503
-0.050463,0.036849,0.941351,0.490231,0.841377,0.227504
0.358652,-0.287982,0.646855,0.334429,0.544280,-0.769361
-0.681199,-0.235639,0.378362,-0.694820,0.060331,-0.716649
0.173794,0.431260,0.797049,0.659684,-0.408915,0.630559
-0.115458,-0.615982,0.689133,0.723715,0.023061,-0.689714
0.601984,0.292671,0.478191,-0.210489,-0.650443,0.729807
0.062741,-0.006622,0.639017,0.014690,0.952757,0.303379
0.151042,-0.071069,0.795173,0.022605,-0.252592,0.967309
-0.040336,0.076962,0.733272,0.843118,-0.195725,0.500843
-0.531370,-0.435062,0.043243,0.726669,-0.464821,-0.505860
-0.623348,0.378093,0.508641,-0.750901,0.442253,-0.490469
0.009538,0.790438,0.450951,-0.334092,-0.338379,0.879706
0.070509,-0.613510,0.600534,-0.601241,-0.475862,0.641922
0.094579,0.872628,0.626481,-0.642038,0.053662,-0.764793
-0.201956,-0.717373,0.750116,-0.574110,-0.720225,0.389453
0.139597,-0.526187,0.741041,0.990298,0.001963,-0.138947
-0.004474,-0.348056,0.793116,0.866711,-0.093078,0.490050
-0.198557,0.588099,0.631818,-0.668909,0.146014,-0.728863
-0.455762,-0.042869,0.658668,0.951971,0.293554,-0.087042
0.268824,-0.510345,0.621631,-0.130788,0.977131,-0.167660
-0.213956,-0.427775,0.214646,0.949201,-0.296532,0.105286
-0.112891,-0.314090,0.833128,-0.652887,0.755984,-0.047187
0.037839,0.025823,0.979515,0.979551,0.200931,-0.010269
0.027156,0.127721,0.556575,0.974126,-0.139525,0.177794
0.031180,0.265042,0.840814,-0.014991,-0.856015,0.516734
-0.516804,0.275625,0.469421,0.789605,-0.596672,0.143202
0.345611,-0.196920,0.704545,-0.158680,-0.260895,0.952237
0.051781,0.024809,0.742834,-0.354113,-0.610086,-0.708802
-0.359345,-0.229365,0.051624,-0.717084,0.628894,0.300470
0.011549,0.124362,0.362435,-0.750689,0.339771,-0.566588
-0.700968,-0.358512,0.675582,0.135520,-0.443779,-0.885830
-0.227205,0.659453,0.478455,0.236930,0.752439,-0.614572
-0.172129,0.329109,0.894807,0.266983,0.925290,-0.269366
0.669962,-0.125123,0.775800,0.928971,-0.067133,-0.364015
0.117886,0.906784,0.465280,-0.585634,-0.072841,0.807296
0.139250,0.076582,0.756190,0.412043,-0.631924,0.656424
0.622238,-0.015430,0.758344,0.674551,0.114595,-0.729280
-0.748344,0.227464,0.606690,-0.366101,-0.443238,0.818236
0.040821,0.117328,-0.944158,0.958768,0.283491,0.019929
0.294489,0.347042,0.745419,0.862463,0.359266,-0.356490
0.014046,-0.007446,0.686506,0.872499,-0.476488,0.108190
-0.373010,-0.172270,0.340713,-0.723305,0.018134,-0.690290
0.155898,0.076962,-0.978847,-0.029337,-0.133999,0.990547
0.581591,-0.070625,0.575921,-0.357945,-0.631415,0.687888
-0.089238,-0.206045,0.841620,0.909827,-0.413833,-0.030919
0.454583,0.178543,0.793992,-0.965680,-0.143565,0.216454
0.262096,0.087608,0.850125,0.491857,0.707502,-0.507462
0.045261,-0.607617,0.570500,0.968129,0.241439,0.066580
0.281587,0.282406,0.854976,-0.247682,-0.942697,0.223554
0.099782,-0.470106,0.732105,-0.443864,0.460370,0.768794
-0.197517,0.942207,0.402420,0.249128,-0.585242,0.771639
-0.119412,0.044010,0.741194,0.790739,0.485469,-0.372897
-0.636319,0.296727,0.592848,0.500035,0.540068,0.676973
0.348316,0.170368,0.804179,0.904994,0.254163,-0.341157
-0.187875,-0.382783,0.596239,0.938670,-0.141331,0.314523
0.183713,-0.036216,0.685283,0.012221,-0.969329,0.245463
-0.327854,-0.120497,0.763625,0.866185,-0.133743,0.481494
-0.188222,0.248883,0.624410,-0.173863,0.811640,-0.557684
0.424687,-0.718387,0.632401,0.942181,0.334801,-0.014239
-0.117747,-0.438484,0.727713,0.717907,0.627050,0.302352
0.449242,0.660277,0.563051,-0.052720,-0.437873,0.897489
-0.109770,-0.153005,0.854448,-0.693255,0.152780,-0.704312
0.030208,0.792085,0.454523,-0.311355,-0.332047,0.890395
-0.109493,-0.342796,0.839382,0.936218,0.317251,-0.151151
0.137100,0.185007,0.837923,-0.539196,0.351192,-0.765461
0.148545,-0.453249,0.749130,0.965200,0.195003,0.174248
0.383554,0.026520,0.777134,-0.339993,0.366809,-0.865942
0.185447,0.524476,0.792908,-0.072082,-0.420139,0.904592
0.088891,-0.428662,0.762430,-0.629595,-0.357185,-0.689949
-0.024035,0.080701,0.367883,0.596678,-0.396218,-0.697844
-0.114001,-0.560914,0.762902,0.262802,0.764641,0.588439
-0.000382,0.344191,0.747073,0.746017,-0.661786,-0.074153
0.218604,0.824594,0.550196,0.900751,0.413150,-0.133998
0.324177,-0.678464,0.650149,-0.013132,0.442609,0.896619
-0.472549,-0.170749,0.802984,-0.810920,0.207560,-0.547108
0.005168,0.452679,0.707061,0.558687,-0.819386,0.128358
-0.589221,0.067140,0.502262,0.531239,0.011663,0.847142
0.005237,-0.198314,0.784597,0.977479,-0.177773,-0.113721
-0.203551,-0.822693,0.704712,0.433899,0.754718,0.492069
0.066001,0.394252,0.744363,0.995593,-0.091776,0.019295
0.078070,-0.473781,0.764348,-0.457204,-0.866910,-0.198573
-0.662054,-0.412123,0.258076,-0.366471,-0.109821,0.923925
-0.275067,-0.089573,0.701196,0.194066,0.926666,-0.321915
0.655117,0.015747,0.600325,0.633382,0.472714,0.612673
0.078903,0.807991,0.629928,-0.412426,0.312696,-0.855644
0.125377,-0.372770,0.735218,0.994307,0.091955,0.053828
0.768252,0.435062,0.515465,0.800812,0.445375,-0.400426
0.260361,-0.206045,0.824942,0.974815,-0.028432,0.221197
-0.304131,0.589874,0.624007,-0.503019,-0.401532,0.765339
0.823397,0.014543,0.608428,0.170256,0.823350,-0.541395
0.496202,0.141472,0.435427,0.455758,0.434024,-0.777115
0.159158,-0.244321,0.632485,0.863939,0.203911,-0.460467
0.248084,0.042299,0.597615,-0.265594,0.930156,0.253515
0.080082,0.023732,0.916126,-0.470771,0.510364,-0.719655
0.032844,-0.432591,0.799509,-0.690038,-0.722850,-0.036542
-0.023133,0.029372,-0.995038,0.492898,0.577556,-0.650754
-0.043804,-0.177466,0.507571,0.995389,-0.019961,-0.093822
0.187598,-0.266436,0.553795,0.674729,-0.730398,0.106117
0.340409,0.083552,0.888706,-0.603617,-0.756310,0.252273
-0.154302,-0.465987,0.512908,0.623797,-0.750358,0.218726
-0.726771,-0.119800,0.179095,0.205068,-0.946887,-0.247692
-0.028405,-0.545578,0.505167,-0.456207,-0.632189,-0.626268
0.429751,-0.804759,0.623284,0.004388,0.232988,0.972470
-0.758402,-0.234245,0.669801,0.863556,-0.172018,0.474006
0.126903,0.224930,0.857783,-0.767329,0.639994,-0.040169
-0.090695,-0.201039,0.915070,-0.486595,0.763297,0.424974
0.336247,-0.165489,0.451799,-0.458512,0.084858,0.884628
-0.108938,-0.679351,0.691259,0.769007,0.141083,-0.623477
0.541359,-0.775039,0.579659,-0.034841,-0.975713,0.216265
-0.249749,-0.266943,0.480526,-0.189843,0.924154,0.331510
-0.340617,0.660721,0.637808,0.628280,0.412579,-0.659577
-0.273125,-0.080004,0.670871,0.222755,-0.414209,-0.882503
-0.016405,-0.170432,0.470769,0.112490,0.333716,0.935938
-0.033607,0.147429,0.884272,0.930078,0.304232,-0.205909
0.320431,0.309147,0.878574,0.967587,0.174471,-0.182577
-0.081608,-0.438041,0.565914,0.920625,0.047551,0.387541
-0.105816,0.428789,0.610999,0.528194,-0.488017,0.694874
0.024243,0.033871,0.759762,0.328808,-0.762273,0.557517
-0.144036,-0.252115,0.174703,0.951817,-0.294854,0.084294
0.030902,0.011058,0.707130,-0.284059,0.888550,-0.360262
-0.165470,-0.231457,0.866622,0.667091,-0.093645,0.739067
0.170881,0.002376,0.941490,0.013798,-0.999829,0.012318
0.406721,-0.023542,0.568082,-0.236586,0.270153,0.933298
0.070926,-0.066760,0.887789,0.142414,-0.213983,0.966400
-0.102695,-0.186274,0.826291,-0.635678,-0.332544,-0.696655
0.473520,-0.711479,0.615279,-0.667728,-0.072631,-0.740853
-0.029862,0.049967,-0.350636,0.852854,0.514414,0.089544
0.044220,-0.028485,0.975303,0.857599,-0.483278,0.175971
0.194118,0.437280,0.773548,-0.683779,0.088544,-0.724297
-0.110602,-0.162828,0.559021,-0.375387,0.164421,0.912168
-0.628551,-0.067583,0.626662,0.589012,0.300264,0.750271
0.416710,0.053199,0.615168,-0.278042,0.958353,-0.065214
0.543232,0.031906,0.771213,0.023029,0.908025,0.418283
0.349842,-0.307373,0.450353,0.470450,-0.263753,-0.842087
-0.098602,0.336016,0.882243,0.510509,-0.769534,0.383664
0.374467,0.065999,0.878852,0.336276,-0.934496,-0.116771
-0.120591,-0.600203,0.835144,0.991525,-0.087193,-0.096310
-0.134603,-0.031463,0.760748,-0.416258,0.458375,0.785253
0.129608,-0.002693,0.926883,-0.470199,0.876697,0.101567
0.108660,0.088939,0.909025,0.963690,-0.234952,-0.126887
0.142580,0.902158,0.463556,0.585553,0.008555,-0.810589
0.580065,0.042362,0.783374,-0.450030,-0.341050,0.825323
-0.116082,0.161053,0.918697,0.913245,0.245107,0.325432
-0.117331,0.443934,0.615001,0.274290,-0.312803,0.909351
-0.281726,-0.414467,0.864190,-0.672204,0.473518,-0.569142
0.088544,-0.420994,0.720000,-0.593855,0.694363,0.406444
-0.070371,0.663192,0.415553,-0.079274,0.702666,-0.707090
-0.315507,0.235639,0.703545,0.668820,0.742879,0.028482
-0.234488,0.527075,0.682879,-0.532121,-0.174288,-0.828535
0.838310,0.224866,0.641102,-0.509496,-0.163659,0.844766
-0.182256,0.681696,0.367717,0.636978,0.251082,-0.728846
-0.067527,0.029182,0.717915,-0.057600,-0.852123,0.520162
-0.178303,0.033110,0.837242,0.926825,-0.047337,-0.372498
-0.013769,0.061120,0.919837,0.097958,0.240898,0.965594
-0.026324,-0.107189,0.466822,0.979939,-0.131215,-0.150010
0.053099,0.052755,0.934319,0.875539,0.483072,-0.008603
0.006763,-0.119673,0.745322,0.612347,-0.789630,0.038921
-0.341518,-0.193308,0.732661,0.932870,-0.218471,0.286397
0.464156,-0.061627,0.586747,0.037513,-0.893236,0.448019
0.056567,-0.474795,0.803456,0.760285,0.176830,0.625058
-0.781362,0.312569,0.614056,0.691588,-0.021725,0.721965
-0.013700,-0.627768,0.616627,-0.379832,-0.080100,-0.921581
0.617868,0.019930,0.601840,-0.508261,-0.735616,-0.447817
0.407623,0.044897,0.513672,-0.601554,0.034018,0.798107
0.637707,0.483540,0.531281,0.232965,0.670896,-0.704007
0.265356,-0.097684,0.629844,-0.599459,0.736683,0.312966
0.145007,-0.182852,0.553670,-0.104750,-0.993478,0.045034
-0.153262,0.322835,0.451632,0.828444,0.450459,0.332818
0.159505,-0.180634,0.629094,0.803518,0.265752,-0.532667
0.325495,-0.162257,0.446518,0.355059,-0.084279,-0.931037
0.232546,0.635246,0.384241,0.809482,0.333552,-0.483199
0.812160,0.131777,0.627857,0.092129,0.906023,-0.413079
-0.126626,-0.604892,0.828070,0.970237,0.181966,-0.159776
0.028752,0.047559,0.804777,-0.684908,-0.699971,0.202339
0.698679,0.548303,0.515493,-0.039872,0.267981,0.962599
-0.017792,-0.364976,0.461930,-0.747503,0.179217,0.639625
-1.000000,0.188175,0.579798,-0.170046,0.938394,-0.300833
-0.538862,-0.183613,0.676624,-0.372312,0.251180,-0.893472
0.820622,0.000222,0.564093,0.081501,-0.846270,0.526484
0.313564,0.133234,0.799954,0.577361,0.045685,-0.815210
0.027781,-0.437534,0.767794,0.794830,0.122468,0.594346
0.487809,-0.540382,0.616447,-0.620805,-0.301696,-0.723588
0.291021,0.098571,0.830432,-0.288058,-0.464643,-0.837334
0.619603,0.809385,0.584899,-0.586746,-0.583177,0.561813
0.337981,0.076138,0.507765,-0.029441,-0.129443,0.991150
0.001630,-0.536770,0.585177,0.740422,0.586550,0.328229
-0.190996,0.288172,0.672288,-0.802918,-0.387611,0.452859
0.086741,0.138937,0.842899,-0.545983,0.374795,-0.749287
0.154302,0.171573,0.806278,-0.156812,0.707557,0.689037
-0.029099,-0.144894,0.921894,-0.741211,0.572892,-0.349859
-0.157424,-0.125756,0.831933,0.984449,0.087138,-0.152532
0.266812,0.490701,0.530433,0.768439,-0.635716,0.073263
0.116637,0.034505,0.942532,0.203593,0.967211,0.151830
0.223667,-0.177846,0.871278,-0.057431,0.995917,0.069652
-0.042625,-0.122841,0.897267,0.450249,0.574185,0.683804
0.493081,-0.070118,0.744210,0.661041,0.620129,-0.422451
0.130441,-0.475238,0.775702,0.948297,0.253753,0.190636
-0.008983,-0.046418,0.977319,0.953181,0.061823,0.296015
0.252939,-0.707867,0.638266,0.167875,0.917290,0.361106
0.019179,0.228858,-0.966270,-0.085833,0.975926,0.200501
0.285333,-0.972941,0.631165,-0.629827,0.720241,0.290812
-0.257309,-0.163968,0.868304,0.459517,0.495431,0.737151
-0.247043,0.490574,0.687451,-0.008632,-0.005810,0.999946
0.866819,0.134692,0.631026,0.277518,-0.755942,0.592904
-0.204869,0.128101,0.382643,0.400925,0.277545,0.873057
0.426421,0.114287,0.820843,0.706742,0.179758,-0.684254
-0.002601,0.081588,-0.759859,0.875793,0.474739,0.087233
-0.717615,0.228035,0.525596,0.102115,0.490786,0.865275
-0.127111,0.571560,0.611860,0.699953,0.291570,0.651961
0.416987,0.064352,0.507626,0.638836,-0.005599,-0.769323
-0.165609,-0.273470,0.873196,0.754335,0.370201,0.542154
-0.022162,-0.697792,0.555657,-0.198275,0.917156,0.345705
0.427462,-0.000982,0.578895,0.218847,0.573257,-0.789609
0.001699,-0.304965,0.345758,0.058030,0.394216,0.917184
-0.118579,0.237413,0.653346,0.874240,0.457941,0.161229
0.596157,0.090396,0.779524,0.060293,-0.700216,0.711381
-0.038879,-0.002503,0.951733,0.805760,0.341369,0.483961
-0.018139,0.331073,0.865093,0.899168,0.416700,-0.133632
-0.124684,0.664206,0.267694,0.237873,0.484023,0.842103
0.124337,0.065175,0.825137,-0.705384,-0.589911,-0.392987
-0.214095,0.026774,0.727908,0.409234,0.110786,0.905679
0.088752,0.146161,0.921032,-0.754287,0.095805,-0.649517
-0.146742,-0.119356,0.872737,0.954028,0.295667,0.049104
-0.397288,0.556858,0.718110,-0.671171,-0.738730,0.061697
-0.032359,0.081651,-0.453105,0.818990,-0.572962,-0.031155
-0.060035,-0.434745,0.478608,0.749507,0.261907,0.607984
-0.001353,0.075695,0.844205,0.782899,0.101585,0.613800
-0.049423,0.021134,0.975512,0.232100,0.896972,0.376259
-0.276523,-0.008903,0.830432,-0.057036,-0.898965,0.434292
0.073215,-0.233611,0.741083,0.829557,0.173484,0.530791
0.456109,-0.606096,0.615974,-0.607069,0.172788,-0.775636
0.094648,0.514908,0.673636,0.027502,-0.043257,0.998685
0.030833,0.044834,0.822580,0.262301,-0.909332,0.322976
0.094440,0.107189,0.483361,-0.483115,0.245195,-0.840523
-0.065654,-0.249263,0.796327,0.718897,0.150715,0.678581
0.328478,-0.342480,0.567804,-0.426982,-0.768684,-0.476247
0.052891,-0.103324,0.884537,0.227212,0.539581,0.810695
-0.416224,-0.053262,0.649343,0.966231,0.200692,-0.161620
0.073908,0.186971,0.618073,0.977594,-0.084341,-0.192866
-0.005445,0.119103,-0.465988,-0.842641,0.536949,0.040511
0.364409,-0.359589,0.456177,-0.333722,0.730785,0.595468
-0.730101,-0.438801,0.257117,-0.366471,-0.109821,0.923925
0.517220,-0.286905,0.451465,0.726155,0.392668,-0.564368
-0.631603,-0.225246,0.662643,-0.457508,-0.307175,-0.834464
0.489890,0.014100,0.776898,-0.822733,0.101621,0.559270
-0.131620,0.145147,0.892444,0.947770,-0.177909,0.264729
0.352201,0.022211,0.670537,0.240919,-0.485652,-0.840298
-0.202997,0.532271,0.345772,0.472351,0.454977,-0.754904
-0.098880,-0.309401,0.494451,0.004634,0.717351,0.696696
0.266188,-0.032730,0.868846,-0.314948,0.524233,0.791194
-0.174418,-0.018916,0.741250,-0.334506,0.730160,0.595795
-0.136545,-0.193055,0.870041,-0.674024,-0.273394,-0.686256
-0.644851,-0.121257,0.675985,0.626155,0.011876,-0.779608
-0.030971,0.118849,0.948745,-0.702130,-0.085784,0.706863
0.349912,0.309337,0.474786,-0.452867,0.716059,-0.531198
0.572989,0.081398,0.786265,0.236478,0.841345,-0.486020
-0.264385,-0.281265,0.480053,-0.151501,0.942251,0.298682
-0.228731,-0.587972,0.627760,-0.160523,0.084524,0.983406
-0.004890,0.075188,0.389745,0.227667,0.928665,0.292830
-0.274165,-0.277906,0.464599,-0.128359,0.797225,0.589878
-0.259043,0.936314,0.387674,0.249128,-0.585242,0.771639
-0.044498,-0.224866,0.926536,0.993718,0.068509,-0.088494
-0.069053,-0.389436,0.830793,-0.489661,-0.871581,0.024039
0.321125,-0.447546,0.610804,-0.647315,0.749185,0.140375
