0.771294,-0.109709,-0.924823,0.030155,-0.021909,0.999305
-0.024018,-0.868060,0.854031,-0.469007,0.856707,0.214673
-0.109343,0.134151,0.450943,0.876750,0.433366,0.208575
-0.044119,-0.151116,0.649788,0.930426,0.306578,-0.200791
-0.015395,-0.131900,0.725060,0.932217,-0.308421,-0.189335
-0.327240,-0.066935,0.752937,0.473937,0.823610,0.311531
0.044180,-0.326552,-0.956919,-0.207167,-0.147205,0.967167
0.067501,-0.631920,0.355219,-0.336141,0.887939,0.313963
0.528073,-0.593407,-0.941837,0.003375,-0.389196,0.921149
0.021164,-0.895880,0.806894,0.815234,0.502405,0.288068
0.114263,-0.858331,0.747978,0.617763,0.764722,0.183222
-0.101994,-0.019497,0.889783,0.126972,-0.834207,0.536635
0.373153,-0.782110,0.324384,0.498663,-0.318337,0.806224
-0.027600,-0.064924,0.657719,0.735644,0.663897,0.134420
-0.561593,-0.555538,0.640103,-0.505987,0.422256,-0.752115
-0.021831,-0.229830,0.719061,0.902554,-0.012645,0.430391
-0.263049,-0.332261,0.811483,-0.391475,0.059926,-0.918235
-0.151246,0.435658,0.632035,-0.672455,-0.075367,-0.736291
0.676373,0.140583,-0.932125,-0.287390,-0.081782,0.954316
-0.209182,0.133024,0.799388,0.213740,0.707495,-0.673621
0.098534,0.176201,0.828387,0.189129,0.879609,-0.436484
-0.418030,-0.515739,0.681856,0.305299,-0.101350,0.946848
-0.088391,-0.243659,-0.965740,0.318258,0.180987,-0.930567
-0.380074,-0.609407,0.663925,-0.449851,0.758535,0.471444
0.450339,-0.211497,-0.935097,-0.174544,0.417092,0.891947
0.104728,0.355176,0.582077,-0.277384,-0.908833,-0.311577
-0.061853,0.396342,0.621857,-0.613583,-0.187235,-0.767111
0.362524,-0.214553,0.605707,0.496648,0.718573,0.486820
-0.180032,-0.754452,0.716225,0.456139,0.729102,0.510243
-0.029483,-0.193808,-0.797566,0.999755,0.021068,0.006778
0.203474,0.313126,0.811538,0.815300,0.118350,0.566816
-0.079463,0.605547,0.279974,-0.151499,0.485741,0.860874
0.120275,0.254996,0.694362,-0.615778,0.294255,-0.730912
-0.113047,-0.741990,0.597447,0.798263,0.052182,0.600045
0.128534,0.480201,0.563899,0.418175,-0.152647,-0.895449
0.249931,0.014834,0.825538,-0.489348,-0.784762,0.380376
-0.095862,0.865166,0.253372,0.976853,0.172415,-0.126616
0.168615,-0.308221,0.723362,0.350360,0.844581,-0.404884
-0.130841,0.086794,0.489805,-0.661870,0.136044,-0.737170
-0.005496,-0.625166,0.812155,0.881024,0.138677,0.452289
0.086084,-0.521688,0.573173,0.177175,0.482817,0.857611
-0.153553,0.324784,0.680815,0.672993,0.467396,0.573256
-0.052804,-0.533347,0.833154,-0.553962,0.583290,0.594053
-0.539367,0.068944,0.611076,0.401853,0.373382,0.836122
0.124343,-0.299618,0.939851,0.522918,-0.722428,0.452388
-0.079647,-0.036061,-0.961549,-0.448540,0.108796,0.887116
-0.637809,-0.530935,0.676925,-0.645480,0.440928,-0.623650
0.477181,-0.006955,0.467477,-0.407295,-0.331807,0.850891
-0.340601,-0.351316,0.645076,0.970815,0.055185,0.233393
-0.085902,-0.049166,0.893797,0.480814,0.835289,-0.266663
-0.265236,-0.098613,0.760293,0.450203,0.541288,-0.710158
0.081773,0.065729,-0.953453,-0.060564,-0.013144,0.998078
-0.542586,0.138010,0.551379,0.880624,-0.343633,-0.326217
-0.391552,-0.220825,0.526832,0.425469,-0.532908,0.731427
-0.346733,-0.383075,0.788635,0.893729,-0.370709,0.252634
-0.045941,-0.484302,0.538914,-0.788268,0.429544,-0.440597
0.574591,0.039599,-0.924358,-0.199693,0.250521,0.947292
0.126226,-0.027296,0.499435,-0.440981,0.591094,-0.675384
0.053412,-0.780824,0.767306,0.231721,-0.909526,0.345061
0.140558,0.057769,0.809045,0.803093,0.422612,-0.420049
0.030881,-0.281688,0.946727,-0.060561,-0.792058,0.607434
0.131388,0.985367,-0.940577,-0.259217,0.083935,0.962165
-0.122946,-0.501347,0.809935,0.115223,-0.531610,0.839115
0.342545,-0.365708,0.631008,-0.040839,0.903146,0.427387
0.346856,-0.504000,0.829277,0.780107,0.070666,-0.621643
-0.289344,-0.572663,0.740074,-0.510037,0.380351,-0.771489
-0.699571,0.132302,-0.988178,0.365811,-0.175047,-0.914079
-0.143898,0.127800,0.833360,-0.373549,0.927324,0.023043
-0.131206,-0.366271,0.770635,-0.191420,0.480521,0.855838
0.025538,-0.359035,0.595707,-0.725877,-0.530147,0.438232
0.063918,-0.452703,0.803689,-0.641970,0.495667,-0.584968
0.300642,-0.045226,0.851483,-0.046981,-0.975268,0.215973
-0.369690,-0.572503,0.692102,0.285039,-0.029089,0.958074
0.132542,-0.195980,0.898646,0.453812,-0.637869,0.622235
0.377889,0.095959,0.488942,0.311897,-0.897211,0.312621
-0.286793,0.407277,0.712759,-0.056075,0.944303,-0.324265
-0.527404,0.757266,-0.848880,0.018683,-0.978555,0.205138
0.771961,-0.516622,-0.923152,0.373571,-0.325012,-0.868799
-0.037864,0.593487,0.597995,0.894730,0.219720,-0.388820
-0.175721,-0.439517,0.838551,-0.728670,0.669432,-0.144574
-0.193757,0.481166,-0.955521,0.172087,0.136066,0.975639
-0.184161,0.644302,0.654363,-0.171023,-0.790856,0.587621
-0.199890,0.195819,0.637980,-0.614874,0.100289,-0.782223
0.435763,-0.257085,0.602625,-0.065572,-0.964932,0.254179
-0.123068,0.367316,-0.951631,0.560731,-0.344927,-0.752732
0.049950,0.219135,0.763539,0.986572,-0.083666,0.140271
-0.216833,0.610291,0.659418,-0.127472,-0.826206,0.548758
0.280965,-0.872402,0.619008,-0.401787,-0.756036,-0.516698
-0.047642,-0.365708,0.891591,-0.599376,-0.797391,0.070114
-0.449366,-0.142995,0.513380,0.401891,-0.785053,-0.471355
-0.030273,-0.340865,0.894824,0.800548,0.569551,-0.186369
-0.096710,-0.913005,0.627035,0.583383,0.779139,0.229363
0.039990,0.211256,0.778443,0.884755,-0.430672,0.178133
-0.150518,-0.677668,0.856948,0.390777,0.779839,0.489024
0.281147,0.228302,0.522380,-0.688683,0.148026,0.709792
0.489874,-0.349307,0.752402,0.021804,-0.836543,0.547467
-0.161995,0.480925,0.639460,0.426549,-0.488996,0.760880
0.034951,0.824241,0.655870,-0.612866,0.771442,-0.171091
0.336653,-0.621066,0.714705,-0.487052,0.300082,0.820202
0.154588,-0.322131,0.896906,-0.015805,0.989221,0.145572
0.567789,-0.396583,0.756389,0.906071,0.049995,-0.420162
0.284913,-0.702834,0.830264,0.870705,-0.489712,-0.045336
0.069687,-0.770372,0.794908,0.532174,0.146095,0.833935
0.223029,-0.882372,0.634364,-0.065949,0.431158,-0.899863
0.015093,0.467980,0.782100,0.980793,0.190044,0.043910
-0.307564,-0.010171,-0.970781,-0.195798,-0.087606,-0.976723
0.530927,-0.553528,0.500503,0.540400,-0.374799,-0.753321
0.013695,0.374714,0.763443,0.801721,0.353275,-0.482120
-0.481371,0.110351,-0.972220,-0.245728,-0.064064,0.967219
0.533538,-0.228945,0.612830,0.707296,-0.583559,0.398988
-0.107702,0.457126,0.428272,0.000730,-0.636279,0.771459
0.708013,0.004221,0.642227,0.850887,-0.051130,-0.522855
-0.544773,-0.342874,0.640555,0.594714,0.800495,0.074312
0.002034,-0.610291,0.693006,0.418321,-0.389772,-0.820418
0.656272,-0.589307,-0.929015,0.328377,-0.132994,-0.935137
0.074788,0.280965,0.783278,0.454379,-0.886694,-0.085517
-0.224122,-0.785085,0.710664,0.798859,0.536208,0.272590
-0.109465,-0.098131,0.872332,-0.661701,0.067499,-0.746723
0.139648,0.360241,0.521366,-0.652275,-0.160194,0.740862
-0.119727,-0.375116,0.799853,0.498266,0.726322,0.473484
0.610482,0.233367,-0.933782,-0.239721,-0.188598,0.952347
0.012298,-0.118472,-0.602899,0.999929,0.010677,-0.005320
0.215074,0.717065,0.610186,-0.409086,-0.754061,-0.513849
-0.505297,-0.518392,0.391040,-0.637959,0.175203,-0.749875
0.226125,-0.407920,0.780785,-0.367611,0.701756,0.610247
0.361249,0.451899,0.557420,-0.209209,-0.580820,0.786689
-0.124525,-0.327357,0.797771,-0.318554,-0.885253,0.338896
0.580421,-0.330493,0.612474,0.403371,0.606520,0.685146
0.505662,-0.214714,0.772991,0.790538,-0.266276,-0.551496
-0.043513,0.734994,-0.957439,0.007230,-0.416071,0.909303
0.070173,-0.359115,0.664254,0.153718,0.984772,-0.081205
0.009323,0.639478,0.629227,0.563663,0.578358,-0.589733
-0.116752,0.176764,0.452737,-0.682771,-0.631534,0.367406
0.223151,-0.470713,0.864619,0.107775,0.906119,0.409063
0.128291,0.443537,0.704992,0.991120,-0.006550,0.132808
-0.229283,-0.355578,0.826004,0.418183,0.747081,0.516714
-0.038107,-0.432201,0.817483,-0.676683,-0.022404,-0.735934
0.260742,-0.404945,0.818963,-0.102090,-0.425437,0.899211
-0.108190,-0.571136,0.866701,0.967773,-0.116546,0.223231
-0.718154,0.095236,0.632665,-0.406092,0.912025,-0.057443
-0.131508,-0.087758,0.886482,-0.493964,0.605943,-0.623564
-0.157015,-0.727678,0.882276,0.857741,-0.178227,0.482199
0.501533,0.285869,-0.936618,0.198409,0.188086,-0.961903
-0.044847,-0.238593,0.884454,0.081693,0.747627,0.659076
0.054383,-0.258372,0.848756,0.929600,0.135612,-0.342715
0.303677,0.034934,0.543571,0.231313,0.292457,0.927881
0.218718,-0.699216,0.593858,0.599318,0.796666,0.078370
0.527646,-0.233367,-0.930508,0.075530,-0.076673,0.994191
0.692406,-0.158030,-0.920810,0.023817,-0.174038,0.984451
0.112562,0.459779,0.835592,0.372135,0.912120,-0.171909
0.457384,-0.208281,-0.937371,-0.128434,0.425409,0.895841
-0.115840,0.242292,0.459080,-0.224655,-0.600626,0.767319
-0.099079,0.450693,0.631172,0.557652,0.252121,0.790860
0.134364,0.881890,0.475655,0.497201,0.068336,-0.864940
-0.157744,0.129006,0.870468,0.911352,0.353634,-0.210665
-0.031548,-0.204985,-0.525202,0.978182,0.195957,-0.069006
-0.061184,0.399557,0.830908,-0.138392,-0.989211,-0.048046
0.077460,-0.824643,0.759128,0.895949,0.378339,0.232671
0.445480,-0.497729,0.481011,-0.708836,0.358415,0.607528
0.335864,-0.580302,0.838551,0.714338,-0.188610,-0.673904
-0.027298,-0.153930,0.660843,0.837376,0.403483,-0.368787
-0.846110,-0.003578,0.333589,-0.258003,0.306502,0.916237
0.310783,0.289729,0.552187,-0.006120,-0.774211,0.632898
0.031974,-0.651377,0.772238,-0.743828,-0.516057,-0.424742
0.675524,-0.149829,0.632583,0.157089,-0.582358,0.797610
-0.102420,0.114372,0.891646,0.708578,0.589280,0.388158
0.172867,0.477789,-0.944385,0.268852,-0.125961,-0.954910
-0.546898,-0.100784,0.630405,-0.292277,-0.485339,-0.824027
-0.524611,-0.598151,-0.984795,-0.141156,-0.379422,0.914393
0.226552,-0.126753,0.437642,-0.237110,0.902649,-0.359171
-0.038168,0.659176,-0.955837,-0.093087,-0.088663,0.991702
-0.143716,-0.645829,0.887112,0.989673,0.005536,0.143234
-0.696231,0.091377,0.621816,-0.602077,0.478461,-0.639201
0.024444,0.176121,0.387862,0.989261,-0.031390,0.142749
0.040902,-0.387578,0.876715,0.828165,0.538500,0.155440
-0.092704,-0.718030,0.597049,0.918058,0.036161,0.394793
0.178332,-0.586813,0.644569,0.745051,0.348484,-0.568733
0.010780,-0.232964,0.910974,0.257429,0.922533,-0.287512
-0.031305,0.234493,-0.953905,-0.282965,-0.156395,0.946293
0.050253,-0.148543,0.941111,0.262209,0.705824,-0.658072
-0.432423,-0.122975,0.651377,0.107660,0.606071,0.788091
-0.008654,-0.285629,0.466203,0.676182,0.298466,0.673569
-0.306713,-0.337808,0.769060,0.093516,0.527466,0.844414
0.004160,-0.256442,0.977946,0.268135,0.110932,-0.956973
-0.502019,-0.683297,0.694171,0.351215,0.221473,0.909724
-0.006953,-0.167920,-0.309685,0.734674,0.673125,0.084596
0.113351,-0.289005,0.665185,0.039563,-0.984486,-0.170943
0.138128,-0.895317,0.750868,0.824891,0.547342,0.141320
0.201652,0.129568,-0.955439,-0.169018,-0.031375,0.985113
-0.489023,-0.190834,0.602940,0.518548,-0.799180,0.304006
-0.360216,-0.422392,0.611583,0.049722,0.660883,0.748840
-0.261470,0.297528,-0.963836,-0.083836,-0.404993,0.910468
-0.126894,-0.202492,0.860962,0.839874,-0.530613,0.114287
-0.125314,0.330975,-0.961919,0.505242,0.234474,-0.830513
-0.698053,-0.016684,0.614049,0.125208,-0.784230,0.607706
0.049040,-0.169929,0.949152,0.924811,0.359446,0.124595
-0.295113,-0.261829,0.758114,0.852922,0.144364,0.501680
0.102421,-0.278955,0.891810,0.509922,-0.031401,-0.859647
-0.369325,-0.572421,0.767525,-0.168262,0.985463,0.023461
0.775119,-0.172262,0.610693,-0.178264,0.262278,0.948384
-0.619895,-0.531256,0.653171,0.366218,-0.750144,0.550607
-0.770382,-0.087437,0.339055,-0.371567,0.314508,0.873512
-0.517323,0.126030,0.513681,-0.637321,-0.769934,-0.031989
0.095558,-0.897488,0.794703,-0.344814,0.828963,0.440368
-0.198858,-0.383075,0.837688,-0.721678,-0.627284,0.292738
-0.239729,-0.183115,0.583584,-0.653913,-0.677492,-0.336753
-0.486959,0.106171,-0.968836,-0.217545,-0.171578,0.960851
0.013513,-0.200000,0.022363,0.692967,-0.712206,0.112067
-0.349102,-0.668020,0.675171,0.430311,0.654173,-0.622005
-0.002642,0.063557,0.849537,0.015594,-0.879263,0.476082
-0.328697,-0.163658,0.460532,0.338045,0.935366,0.103996
0.051651,-0.310232,0.808881,-0.312752,0.875121,-0.369254
-0.215072,0.623719,-0.957234,-0.032022,-0.242970,0.969505
-0.339932,0.148945,0.513969,0.030860,-0.425377,0.904490
-0.164607,-0.437347,0.825839,-0.338325,-0.939572,0.052340
0.472627,-0.555457,-0.924659,-0.326744,0.636803,0.698370
-0.034585,-0.604181,0.821100,0.937211,0.190177,0.292350
0.228555,-0.417005,0.899838,0.234942,0.404361,-0.883909
0.453132,-0.313850,0.768525,-0.591254,0.162704,-0.789903
0.110073,-0.259417,0.867195,0.090399,0.926975,-0.364068
0.055415,0.474894,0.610131,-0.266705,-0.191584,0.944544
-0.075212,-0.213106,0.919166,0.993115,0.070618,0.093464
-0.085841,-0.588824,0.903605,0.221583,-0.349435,0.910383
-0.279872,0.163980,-0.972055,0.292257,0.169872,-0.941132
0.141347,-0.022714,0.500695,-0.440981,0.591094,-0.675384
0.648681,-0.366432,-0.923303,-0.051538,-0.370123,0.927552
-0.277077,-0.263357,0.864181,-0.008660,0.980695,0.195352
-0.286430,0.081809,0.803620,0.915035,0.181032,0.360470
-0.001306,-0.045387,0.388204,0.832746,-0.267775,0.484593
-0.254911,0.401085,0.711568,-0.111359,-0.918176,0.380199
0.666474,-0.405347,0.590981,-0.112277,-0.864428,0.490060
-0.048613,-0.004060,-0.962056,-0.394324,0.190146,0.899085
0.052926,0.268503,0.779237,-0.019186,-0.973537,0.227722
-0.058755,-0.346010,0.901687,0.877397,0.383065,-0.288853
0.403880,-0.115015,0.830428,0.867209,0.422600,-0.263359
0.075457,0.050050,0.875441,-0.214082,0.873124,-0.437977
0.087724,-0.968643,0.381574,0.362191,-0.295740,-0.883943
-0.057965,0.265929,0.789854,-0.306980,0.661841,-0.683908
-0.632466,0.096523,0.614843,0.796966,-0.168787,0.579963
-0.712264,-0.066693,0.550612,0.747842,0.434823,0.501659
0.280600,0.624281,0.596049,-0.311086,-0.584992,0.749006
-0.537424,-0.573387,-0.987206,0.081547,-0.050220,0.995403
0.146935,-0.343437,0.825168,0.820477,0.481392,-0.308349
-0.108796,-0.532865,0.865414,0.941723,0.317876,0.110057
-0.376127,-0.559638,0.699938,0.397947,0.030037,0.916916
-0.118452,0.067659,0.881783,0.820416,-0.465494,0.332013
-0.011326,-0.059055,-0.893961,0.896925,-0.439502,-0.048618
0.499226,0.315859,-0.933234,-0.192450,-0.105818,0.975585
-0.811374,-0.075698,0.576242,-0.046495,-0.781891,0.621679
0.083715,-0.678231,0.352643,0.040279,0.614390,0.787974
0.172683,-0.717467,-0.958426,-0.156462,0.031631,0.987177
0.716516,-0.258452,0.619679,0.146093,0.038842,0.988508
0.053654,-0.544603,0.694705,0.873538,-0.380474,0.303596
-0.412322,0.076342,0.478148,-0.072131,-0.995828,0.055889
-0.616129,-0.556583,0.381259,-0.333302,-0.083646,-0.939102
-0.073937,-0.599839,0.531749,0.986571,0.105625,0.124581
-0.159749,0.454071,0.626323,-0.468924,-0.051361,-0.881744
0.123554,-0.161970,0.900646,-0.374161,0.860700,-0.345251
0.254668,0.104403,0.867921,0.409208,-0.756184,0.510622
-0.135941,-0.265608,0.925221,-0.656378,0.581527,0.480618
-0.274102,-0.000201,0.816332,0.998747,-0.011224,-0.048765
0.141833,-0.808322,0.362547,0.992127,0.019443,-0.123718
0.076793,-0.036784,0.547557,0.832183,-0.544082,0.106986
-0.745301,-0.081407,0.618446,0.496256,0.784459,0.371959
0.295843,-0.247035,0.668404,0.048196,0.892654,0.448159
-0.007014,0.437346,0.606707,-0.047644,0.319928,0.946243
0.044060,-0.600884,0.751087,0.847614,0.301526,0.436615
-0.008411,-0.510192,0.511914,0.951034,-0.307742,0.028791
-0.045335,-0.825126,0.806429,-0.435110,-0.361272,0.824719
-0.561108,-0.362895,0.649295,0.404904,0.835732,0.370951
0.523760,-0.270995,0.788333,0.656830,0.344445,-0.670769
-0.420095,-0.435899,0.688417,-0.672707,0.111625,-0.731441
-0.273313,0.152161,0.650377,0.312142,-0.930604,0.191164
-0.057116,-0.585930,0.835003,0.051828,-0.342616,0.938045
0.253575,-0.104080,0.439039,0.199359,-0.712928,0.672302
0.506939,-0.221387,0.557858,0.571803,0.716655,0.399308
0.857528,-0.353729,-0.922550,-0.079656,0.163307,0.983354
-0.034039,-0.594935,-0.965782,0.284550,-0.018323,-0.958486
0.308900,-0.073045,0.809360,-0.490583,-0.482954,0.725316
0.353839,-0.223237,0.894824,0.828912,-0.006558,-0.559341
-0.380682,-0.654914,0.680924,-0.412040,0.423030,-0.807012
-0.311936,-0.748986,0.695075,0.200134,0.753214,0.626590
0.302645,-0.060422,0.447148,-0.481541,0.800021,-0.357890
-0.147298,-0.819899,0.716937,-0.133597,0.019005,0.990854
-0.011812,0.028422,0.279933,0.896659,0.093144,0.432812
0.036530,0.379618,0.279782,-0.351155,-0.178649,0.919116
-0.228980,-0.668100,0.488668,-0.473789,0.796803,0.375005
-0.106792,0.101346,0.679596,-0.333758,-0.382542,0.861549
0.111833,0.371980,0.728033,0.792095,-0.021250,0.610028
0.029363,0.100543,0.714417,-0.309688,-0.471799,0.825530
0.170498,0.223397,-0.949933,-0.178403,0.046728,0.982847
-0.427747,-0.194292,0.738074,0.917632,0.240190,0.316639
0.127016,0.079477,0.652377,0.909802,-0.406056,0.085899
-0.152278,0.563900,0.506257,-0.196929,-0.316263,0.928007
0.418091,-0.024884,0.815702,0.506716,-0.818583,0.270482
0.002217,-0.286191,0.441477,-0.702175,-0.233876,0.672497
-0.147541,0.506332,0.497805,0.479462,0.114849,-0.870015
-0.039080,0.507538,0.431601,0.142744,-0.525690,0.838615
-0.170741,0.537125,0.642665,0.027533,-0.538073,0.842448
0.085113,0.195337,0.800990,0.792519,0.220385,-0.568634
-0.507302,-0.764421,0.395300,0.263519,-0.630691,-0.729922
-0.510946,-0.540985,0.657596,-0.595568,-0.426631,-0.680650
0.166975,0.290774,0.593214,-0.596410,-0.290391,-0.748311
-0.258130,-0.389266,0.665801,-0.226313,0.688005,0.689515
-0.082864,0.230391,0.403204,0.016274,-0.329418,0.944044
-0.685847,0.132542,-0.987644,-0.266034,0.114040,0.957194
-0.005253,0.268743,0.717362,0.956349,-0.076629,-0.282002
0.314549,-0.777528,0.169140,-0.109197,0.393548,0.912796
0.073392,-0.296080,-0.957138,-0.310499,-0.230651,0.922166
0.021649,-0.299136,0.436176,0.761466,0.198176,-0.617167
0.595057,0.072161,-0.923111,-0.379702,0.257767,0.888472
0.242340,-0.350754,-0.950083,0.116039,-0.250717,0.961080
0.332524,-0.241729,0.523955,-0.684995,0.221675,0.694004
0.095680,0.201528,0.686623,0.797101,-0.168598,0.579832
0.325237,0.622351,0.595871,-0.319508,-0.604060,0.730086
0.036650,-0.183437,0.816497,0.521961,0.182347,-0.833250
0.532263,-0.149668,0.792114,-0.073717,-0.735824,0.673149
0.593417,-0.462031,0.499147,-0.679175,-0.031388,0.733305
0.561169,-0.418694,0.501380,-0.629718,-0.322465,0.706733
-0.536392,-0.606111,0.699677,0.523314,-0.338852,0.781871
0.082258,0.160281,0.800963,-0.695708,-0.413804,0.587160
-0.283819,-0.358472,0.784703,-0.106812,0.501487,0.858546
0.380136,-0.461869,0.723335,0.177366,0.929795,-0.322524
0.481371,-0.261990,0.731978,-0.043638,0.400440,0.915283
0.492242,-0.378170,0.679185,0.256643,0.571188,0.779665
0.220297,-0.697608,0.593912,0.599318,0.796666,0.078370
-0.022804,-0.083980,-0.926632,-0.406822,0.903826,-0.132642
0.078919,0.511076,0.690431,0.749379,0.410297,-0.519700
0.494489,-0.200402,0.623569,0.138285,0.541126,-0.829494
0.107462,-0.626935,0.765594,0.940889,-0.143170,-0.306970
-0.073755,-0.699617,0.180606,0.946098,-0.323626,-0.012831
-0.058938,0.071116,0.655569,0.817673,0.400708,0.413332
-0.048189,-0.211497,0.907112,-0.196520,-0.629677,0.751589
-0.010050,-0.775035,0.804223,-0.748941,-0.596414,-0.288751
-0.280842,0.028503,0.813661,0.808958,0.577423,0.110316
0.081044,0.535679,-0.953097,0.009931,-0.312421,0.949892
-0.080192,0.417246,0.363232,0.390505,0.399445,-0.829427
-0.075153,-0.359035,0.690445,-0.418669,0.901906,0.106217
0.702427,-0.394813,0.584652,0.212703,0.546291,-0.810138
-0.141286,-0.043538,0.847989,0.741715,0.483827,0.464510
0.704310,-0.199196,-0.925563,-0.021501,-0.148189,0.988725
-0.104485,-0.592764,0.869469,0.787258,0.058648,0.613828
-0.366349,-0.002372,0.741909,-0.076055,0.839391,0.538181
-0.409223,0.259096,-0.979165,-0.129352,-0.132224,0.982743
0.090092,-0.895799,-0.957302,0.228645,0.066539,-0.971233
-0.429690,-0.080201,0.504407,0.974982,0.221755,-0.015339
-0.084080,-0.015075,0.653911,0.809253,0.191179,0.555482
-0.033431,0.080603,0.766224,-0.238559,0.889701,-0.389259
-0.630340,-0.283296,0.659760,0.583231,-0.784263,0.211597
-0.301551,0.006473,-0.972124,0.161791,0.093490,0.982387
0.195640,0.780663,0.557667,0.875720,0.477463,0.071719
0.112684,0.320201,0.795237,-0.357980,-0.707879,0.608899
-0.226611,-0.230955,0.828579,-0.348232,0.926488,0.142671
0.025234,-0.839759,0.740553,0.788841,-0.265841,0.554129
0.242705,0.560201,0.575570,0.922460,-0.358231,-0.144007
-0.095011,-0.832282,-0.972288,0.234110,-0.155435,-0.959704
0.131996,0.083578,0.885537,-0.209884,-0.777705,0.592557
-0.357301,-0.508101,0.798004,0.696038,-0.715131,-0.064177
0.185012,0.343197,0.567009,-0.547370,0.568796,-0.613887
-0.011690,-0.215357,0.929796,-0.421611,-0.906683,-0.013026
-0.045212,-0.540583,0.566708,0.987623,-0.104107,0.117316
0.054201,-0.346813,0.944933,-0.688729,0.685957,-0.234768
0.046247,0.218895,0.725882,-0.614019,0.607538,-0.503864
0.015637,0.131015,0.734841,0.776196,0.521957,0.353666
0.543437,-0.214714,0.785045,-0.437822,-0.160366,0.884644
-0.268880,-0.589628,0.068540,0.595838,-0.559423,-0.576215
-0.103755,0.031477,0.682390,0.973461,0.162722,0.160922
0.483619,-0.378975,0.743444,-0.124117,-0.190280,0.973852
-0.122522,-0.607397,0.170538,0.936929,-0.298492,-0.181844
0.041752,-0.310553,0.687650,0.917023,0.382639,0.112497
-0.434123,0.496362,-0.973302,-0.258119,-0.192752,0.946690
-0.210457,-0.069748,0.633446,-0.420856,-0.325915,0.846557
0.619471,0.215598,-0.930782,-0.183432,-0.167643,0.968632
-0.399629,-0.275095,0.597132,0.888974,0.146246,-0.433979
0.131145,0.057045,0.637281,0.280701,-0.465502,0.839354
-0.011022,-0.345528,0.948193,0.674274,0.731663,-0.100121
0.220540,-0.741106,0.634802,0.144591,0.137658,0.979869
-0.053169,-0.235457,0.944563,0.739825,-0.646455,-0.186428
-0.214648,0.554090,0.369479,0.195253,-0.531175,0.824457
-0.346248,0.058331,0.654007,0.428529,0.597400,-0.677847
-0.117662,-0.024080,0.901427,0.086600,0.261659,0.961267
0.199951,0.381708,0.545023,0.907768,-0.219860,-0.357238
-0.163209,0.355819,0.634295,-0.730604,-0.002651,0.682797
-0.695623,0.221949,0.626282,0.941755,0.170222,0.290037
-0.241065,0.570332,0.644788,-0.356087,-0.500612,0.789044
0.089121,-0.055437,0.670692,-0.874177,0.418283,-0.246684
0.209244,0.303639,0.796853,0.131830,-0.949190,0.285761
0.074606,-0.198553,0.467847,0.645968,-0.761083,-0.058979
-0.677770,-0.012181,0.616816,0.330765,0.848904,-0.412258
-0.193392,0.120241,0.494106,0.740722,0.207257,0.639042
0.240579,0.154331,-0.945344,-0.171835,0.076490,0.982152
-0.171347,-0.892502,0.609460,0.553005,0.737035,0.388542
0.513680,-0.389990,0.757909,0.213558,0.976868,0.011014
-0.582606,0.417166,-0.973275,-0.687441,-0.181055,-0.703309
-0.246408,-0.755015,0.716499,-0.448806,-0.877331,0.169894
-0.127440,-0.382432,-0.969754,0.182920,0.184280,-0.965702
-0.464730,-0.404463,0.698458,0.189527,0.433047,0.881221
-0.054505,-0.731537,0.812072,0.835244,0.299049,0.461451
-0.116509,-0.482453,0.878454,0.830393,0.074020,0.552239
-0.052438,-0.402130,0.385615,0.912346,-0.343502,-0.222780
0.214648,0.295758,0.531708,0.571711,-0.237367,0.785368
-0.156650,-0.444824,0.883687,0.717052,0.697017,0.001946
0.419670,0.049649,0.851715,0.445024,0.881431,-0.158219
-0.577506,-0.317307,0.579324,0.395899,-0.338679,0.853557
0.084323,-0.469025,0.933453,0.842539,0.493357,0.216163
0.116144,-0.149910,0.922618,0.273866,-0.960540,-0.048588
0.557040,-0.062110,0.670075,0.487525,0.024847,-0.872755
0.013087,-0.201046,0.059444,0.701165,-0.712552,-0.025258
0.111954,0.237869,0.684678,-0.641469,0.190275,-0.743178
0.004586,-0.307739,0.924673,0.709059,-0.381818,0.592832
0.626819,0.228623,-0.925440,-0.145899,-0.142179,0.979029
0.539246,0.116141,-0.941166,-0.090947,0.060216,0.994034
-0.380682,-0.646553,0.691143,0.642996,-0.535615,0.547424
0.298151,-0.795216,0.476614,0.248669,-0.943914,-0.217233
-0.023410,0.286834,0.616323,-0.556027,0.055600,-0.829303
0.323474,-0.793608,0.479120,-0.367614,0.917171,-0.153808
-0.105456,0.214714,-0.962562,-0.281749,-0.066661,0.957170
-0.128534,-0.078914,0.871290,0.927904,0.103404,0.358193
-0.094889,-0.233367,0.887701,0.042541,0.921449,0.386163
-0.597485,-0.374633,0.634651,-0.291345,-0.896645,-0.333385
0.322807,0.533346,0.561995,0.167165,-0.570296,0.804251
0.713661,-0.120160,0.635912,-0.072456,-0.452472,0.888830
-0.373334,0.389749,-0.970329,-0.280264,-0.285002,0.916638
-0.292320,-0.513085,-0.984672,-0.183543,-0.163797,0.969269
-0.379648,-0.267135,0.596912,0.883791,-0.337944,-0.323586
-0.153068,-0.117909,0.643501,-0.290067,0.261047,0.920715
-0.010050,-0.189387,0.876715,0.269606,0.845825,0.460318
0.141166,-0.236905,0.561160,-0.093496,0.094808,0.991095
-0.609146,0.185930,-0.966480,-0.092863,-0.518452,0.850049
-0.281389,0.372864,0.717431,0.014960,-0.955975,0.293067
0.022623,-0.364583,0.857962,0.074180,0.195016,0.977991
0.362524,-0.256361,0.786648,-0.170421,0.845107,-0.506706
-0.290013,-0.428663,0.739019,0.302756,0.839059,0.452017
0.724592,-0.243899,-0.929563,-0.091157,-0.031274,0.995345
0.318556,-0.365950,0.826168,0.806467,-0.583459,0.095845
-0.520178,-0.494030,0.703746,0.705745,0.636764,0.310572
0.312301,0.145970,-0.946453,0.171658,-0.202671,-0.964084
-0.485076,-0.602412,0.376492,0.235545,0.159663,0.958659
-0.459387,-0.768201,0.698184,-0.048852,-0.194910,-0.979604
0.544226,0.189789,0.516448,0.324458,0.918425,-0.226325
0.458781,-0.160845,0.769087,-0.721094,0.274739,0.636037
0.239123,0.132141,0.769703,0.489215,-0.773766,0.402435
-0.185377,0.470875,0.366040,0.067097,-0.536476,0.841244
-0.085537,-0.345688,0.278166,-0.585513,0.809299,-0.047005
-0.071934,0.781066,-0.941494,-0.745733,-0.132727,-0.652890
0.413293,-0.000362,0.845537,-0.070910,-0.838371,0.540468
-0.238089,-0.254593,0.854934,0.758828,0.044722,0.649754
-0.033553,-0.782513,0.823648,0.646682,0.738731,0.189945
-0.170437,-0.468704,0.073403,-0.705170,0.695374,0.138529
0.456412,-0.168723,0.731362,0.945896,-0.323473,0.025405
-0.094889,-0.644060,0.828661,0.171861,-0.605192,0.777307
-0.019646,-0.189869,-0.506558,0.980725,-0.194816,-0.015007
0.009140,0.488885,0.778333,0.981556,0.189778,0.023086
-0.039747,0.104965,0.709759,0.986644,0.151376,-0.060163
-0.576351,0.539537,-0.973507,0.086483,-0.025649,0.995923
-0.055294,0.317548,0.808196,0.512614,-0.774636,0.370360
-0.490965,-0.227980,0.585940,-0.211354,0.835266,-0.507602
0.442505,-0.654593,-0.941248,-0.036392,-0.090876,0.995197
-0.416208,-0.581589,0.493599,-0.680590,0.006198,-0.732639
0.058634,-0.846271,0.784443,0.543088,0.772349,0.329441
-0.007014,-0.180704,0.909331,0.623021,0.255534,-0.739288
-0.049099,0.736442,0.245878,0.976853,0.172415,-0.126616
-0.581331,0.173225,-0.973206,0.044817,-0.419926,0.906451
0.432546,-0.160684,0.837373,0.969561,-0.118041,-0.214519
0.442564,-0.001166,0.858318,0.924162,-0.060211,-0.377225
-0.008289,-0.741024,0.805675,-0.759008,0.410445,-0.505412
0.601493,-0.398995,0.612391,0.323820,0.867766,0.376993
0.430116,-0.701226,0.653500,0.718752,0.320124,-0.617184
-0.086993,0.592200,0.267864,-0.685249,-0.145990,-0.713527
0.257402,-0.247598,0.607542,0.278635,-0.115788,-0.953392
-0.017035,0.464361,-0.957795,-0.131590,-0.168339,0.976906
-0.268271,-0.010091,0.711458,0.852304,0.514171,0.095947
-0.141044,0.441609,0.632733,-0.601061,-0.117163,-0.790569
-0.011022,-0.201849,0.921522,-0.335068,-0.939578,0.070157
-0.288615,0.164784,0.821743,0.764455,0.644582,-0.011029
0.416088,-0.053588,0.845181,0.985109,0.171933,0.000251
0.473417,-0.250252,0.589967,0.143736,0.739206,0.657962
-0.017702,-0.116463,0.889167,0.729554,0.495912,0.470980
-0.010839,-0.468622,0.865222,-0.309740,0.821040,0.479536
0.121246,0.288925,0.758799,0.126794,0.636233,0.761006
-0.577202,-0.418210,0.694582,0.936546,0.275105,-0.217254
-0.210396,0.415316,0.638802,-0.278108,-0.669525,0.688761
-0.327969,-0.313126,0.816456,0.011901,-0.642985,0.765787
0.067623,-0.012261,0.630542,0.892997,-0.366144,0.261713
-0.086812,0.077709,0.859743,0.343657,0.926850,-0.151160
-0.064707,0.143075,0.813209,0.947789,-0.015641,0.318514
-0.349345,0.455517,-0.970042,0.494412,0.392974,-0.775324
0.155559,0.277829,0.558626,-0.741110,0.532284,-0.409182
0.033857,-0.232563,0.184483,0.716738,-0.695402,0.051988
-0.446573,-0.103919,0.547722,-0.605354,-0.691013,-0.395030
0.252422,0.491457,0.561379,-0.563968,0.292133,-0.772398
-0.653477,0.123618,0.628720,0.929189,0.230401,0.289003
-0.046610,-0.728965,0.502531,0.859292,0.073769,0.506138
0.237360,-0.834372,0.333123,0.047598,0.040430,0.998048
0.885282,-0.196302,-0.922330,-0.008887,0.090364,0.995869
0.080194,-0.829789,0.726814,0.894181,0.338600,-0.292900
-0.114930,-0.689246,0.589186,0.994319,-0.071102,0.079211
-0.317705,-0.526754,0.863605,-0.317790,0.551779,0.771070
0.012237,-0.909306,0.826127,0.876259,0.150836,0.457623
0.393861,-0.200161,0.524160,0.233864,-0.251069,0.939293
-0.374852,-0.463477,0.768758,0.859259,-0.334310,0.387182
0.125437,-0.363216,0.917700,-0.335180,0.833005,0.440178
0.023412,0.063960,0.380876,0.987404,-0.149612,0.051478
0.054505,-0.829949,0.732403,-0.053758,0.380719,0.923127
-0.736190,0.120080,0.656308,-0.685013,-0.687220,-0.241839
0.057359,0.223960,0.730595,-0.559076,0.655485,-0.507713
0.105517,0.335075,0.739307,0.687368,0.121003,0.716159
-0.383657,-0.145889,0.527667,-0.723546,-0.681132,-0.111984
0.449670,0.050532,-0.937275,-0.062618,-0.059624,-0.996255
0.250782,-0.272121,0.676829,-0.088440,0.694605,0.713934
0.359608,-0.508101,-0.949179,-0.110427,0.085257,0.990221
0.827590,-0.487196,-0.909974,0.452183,-0.404612,-0.794871
0.402787,0.305408,-0.937864,0.179034,0.162901,-0.970263
-0.061792,-0.537849,0.830743,-0.499494,0.585066,0.638908
-0.595542,-0.047075,0.580159,0.831714,-0.553423,-0.044434
-0.528617,-0.222593,0.612474,0.839510,-0.370093,-0.397813
0.411410,-0.056804,-0.940152,-0.201056,-0.106497,0.973774
0.728662,-0.393607,0.597529,-0.141804,-0.835258,0.531259
0.245194,-0.339819,0.859482,0.363427,0.265367,-0.893029
-0.054564,0.550472,0.431532,0.129400,-0.536382,0.833997
-0.062824,-0.646472,0.496010,0.796427,0.539317,0.273573
-0.479003,-0.710473,-0.990850,0.003549,0.236952,0.971515
0.040902,0.088402,0.758676,0.943741,0.142732,-0.298297
0.623053,-0.396101,0.613761,0.107447,-0.157362,0.981678
-0.048795,0.023598,0.467723,0.804172,0.402969,0.436948
-0.130660,0.295116,0.820278,0.586057,0.711726,-0.387278
0.367746,-0.838070,0.321165,-0.478907,0.146073,-0.865627
-0.239851,0.062593,0.821086,0.155673,-0.895885,0.416120
0.345216,0.520884,-0.936933,0.085538,0.081802,-0.992971
0.405217,0.551839,0.579063,0.884903,-0.384920,-0.262266
0.015882,-0.052462,0.384739,0.936724,-0.238968,0.255816
-0.089546,0.520884,0.282837,0.935851,0.271073,0.225170
0.051165,-0.415959,0.906632,-0.518488,-0.380065,-0.765977
0.203293,-0.478272,0.785128,0.988991,0.057445,-0.136368
-0.103392,-0.204342,0.737444,-0.363573,-0.919819,0.147469
0.513861,-0.287156,0.786717,-0.660454,-0.446459,0.603717
0.192482,0.303557,0.529078,-0.338567,-0.272908,0.900496
0.347037,0.076422,0.489298,-0.457450,0.774734,-0.436494
0.252300,0.078271,0.862921,-0.058034,-0.896875,0.438460
0.076732,0.683136,0.638035,0.788145,0.417122,0.452589
-0.303920,-0.401005,0.217619,0.076968,-0.954797,-0.287120
-0.554186,-0.359277,0.609337,0.963224,-0.267535,-0.025006
-0.041812,0.736121,-0.890646,-0.350206,-0.931437,-0.098900
0.369933,-0.755497,0.459052,-0.342384,0.934612,0.096299
0.056204,-0.309508,0.928303,0.885118,0.464291,0.031621
0.199223,-0.280643,0.844743,0.823686,-0.433611,-0.365408
-0.178514,0.039035,0.854784,0.924944,0.208997,0.317489
0.166855,0.271558,0.573557,0.991295,-0.024839,-0.129291
-0.325904,0.819095,-0.842209,-0.024780,0.957393,0.287725
0.089242,-0.837669,0.727252,-0.126383,-0.934996,0.331375
0.295782,-0.182633,0.886989,-0.501321,-0.840325,0.206231
-0.557768,-0.312402,-0.983452,-0.031287,0.149869,0.988211
-0.014605,0.145729,0.774539,0.750310,-0.357603,0.556016
-0.037317,-0.848523,0.859291,-0.628452,-0.627754,0.459317
0.537849,0.082694,-0.938426,-0.067530,0.089489,0.993696
-0.348373,-0.433568,0.759320,-0.663849,0.576967,-0.475830
0.174385,0.298091,0.798401,0.555601,0.546149,-0.626920
-0.243980,-0.465809,0.744088,0.330463,-0.710950,0.620761
0.257280,-0.686030,0.572159,0.594726,0.697355,0.399996
-0.165215,-0.310553,-0.972946,-0.309375,-0.140517,0.940501
-0.125194,-0.334674,0.917207,0.978465,-0.022387,0.205197
0.539793,0.237869,0.521859,0.818007,-0.074908,-0.570309
-0.007985,-0.342392,0.990096,0.974922,-0.035347,0.219723
0.390096,0.090493,-0.929810,0.072862,-0.009013,0.997301
0.125255,-0.893307,-0.954686,-0.122259,-0.003995,0.992490
0.854797,-0.282654,0.637103,-0.774433,-0.078157,0.627810
-0.055780,-0.812503,0.489271,0.806177,0.142884,0.574163
0.472929,-0.045468,-0.935659,0.136823,-0.066502,-0.988361
0.700605,-0.251859,0.620583,0.063365,-0.478392,0.875857
0.055294,-0.593729,0.722636,0.994015,0.067317,0.086039
0.506695,0.143719,-0.940056,-0.035094,-0.043307,0.998445
-0.101448,0.008403,0.799237,0.790259,0.106854,-0.603384
-0.416513,-0.192120,-0.972822,-0.419293,0.018429,0.907664
-0.109646,-0.790633,0.540818,-0.370121,0.890224,0.265538
-0.625724,-0.491458,-0.836812,0.385024,0.922559,-0.025319
0.270034,0.292382,0.526777,-0.194788,0.460969,-0.865775
-0.025719,-0.911799,0.699184,-0.756419,-0.043571,-0.652634
-0.746819,0.012100,0.616282,0.203450,-0.602719,0.771581
-0.177724,-0.457850,0.860250,0.362041,0.929472,0.070769
-0.140193,0.377850,0.638665,0.965514,-0.042348,-0.256884
0.317099,-0.834854,0.629295,-0.334905,0.579626,-0.742881
-0.307927,-0.084784,0.455340,-0.490754,-0.871296,-0.001970
-0.579144,0.072562,0.580064,0.808305,-0.587169,0.043311
0.842042,-0.248322,0.639062,-0.722253,-0.123721,0.680474
0.159264,-0.554332,-0.959453,-0.232922,-0.117798,0.965335
0.005133,0.538975,-0.946385,0.085969,-0.125087,0.988414
0.238090,-0.427779,0.668911,0.775934,0.159866,-0.610220
-0.018857,0.291658,0.276563,-0.375796,-0.090846,0.922239
0.249203,-0.653387,0.342329,0.317122,0.549025,-0.773308
0.147239,0.566070,-0.949480,0.370547,0.033066,-0.928225
-0.419001,-0.666332,0.689993,-0.695801,-0.173421,-0.696983
0.074667,-0.793206,0.761197,-0.249971,-0.906635,0.339892
0.085416,-0.442171,0.930289,0.899137,0.404271,0.167683
-0.001487,0.374391,0.742101,0.813656,-0.232317,-0.532909
0.028635,-0.296965,0.713499,0.929608,-0.341195,0.139339
0.317950,-0.360321,0.766430,-0.628673,-0.751935,-0.198406
0.091186,-0.455920,0.631569,-0.678775,-0.144994,0.719890
-0.381715,-0.181106,0.554393,-0.567806,-0.816779,-0.102315
-0.113229,0.060905,-0.971055,0.361544,-0.006195,-0.932335
0.067986,0.318110,0.729348,-0.589237,0.329261,-0.737826
0.039080,-0.493548,0.751800,0.953149,0.131246,0.272546
-0.080375,-0.966150,0.137648,-0.494566,-0.760877,0.420084
-0.672060,0.046271,0.619076,0.819697,-0.512794,0.255223
0.391674,-0.837748,0.472216,-0.536522,0.839043,-0.090284
-0.073512,-0.142432,0.400875,0.036222,-0.570665,0.820384
-0.469710,-0.204021,0.660541,-0.375369,0.026899,-0.926485
0.233170,-0.263035,0.850989,-0.562778,-0.137339,0.815119
0.773540,-0.323497,0.620117,0.022287,-0.337274,0.941143
-0.368293,-0.034934,0.636418,-0.508406,-0.221486,0.832146
0.106307,0.160362,-0.955439,0.293676,0.000646,-0.955905
-0.113533,0.146372,0.446080,-0.663117,-0.544306,0.513816
0.072784,-0.472884,0.929234,0.626619,0.591209,-0.507760
0.050253,0.253869,0.719896,0.363990,0.022566,-0.931130
-0.029059,-0.093306,0.465285,0.769224,0.303714,0.562185
0.278231,-0.102150,0.478120,-0.527226,0.450363,0.720559
-0.114384,-0.577648,0.607446,0.953129,-0.291146,-0.082337
0.051651,0.046192,0.752799,0.926418,0.375473,0.027757
0.277564,-0.087518,0.853756,0.894271,-0.009439,-0.447427
-0.803358,-0.103598,0.344411,0.325539,-0.121462,-0.937695
-0.252846,-0.437749,0.684267,-0.066978,0.407410,0.910786
0.405702,0.309910,-0.939111,0.132767,0.134475,-0.981982
0.018675,0.096281,0.715403,-0.363050,-0.407222,0.838072
-0.258130,0.081890,0.817223,0.816405,0.576122,0.039584
-0.165153,-0.187378,0.830045,0.854387,0.211422,0.474683
-0.110556,0.316101,0.350931,0.358421,0.368525,-0.857743
-0.029483,-0.125870,-0.629186,0.806672,-0.588600,0.053205
0.255519,0.790151,-0.942371,-0.184808,-0.080252,0.979493
-0.039382,-0.343517,0.887715,-0.633088,0.269784,-0.725545
-0.033007,0.682653,0.269892,0.920679,-0.311795,-0.234807
0.026752,-0.205789,0.929823,-0.155543,-0.974817,0.159810
0.140195,-0.315698,0.803196,0.396099,-0.189654,-0.898408
0.390824,-0.337247,0.749553,-0.303745,-0.916868,0.259020
-0.324507,0.285628,-0.976781,-0.194203,-0.212488,0.957671
-0.224365,0.603538,0.661267,-0.127472,-0.826206,0.548758
-0.277319,0.110191,0.833620,-0.264384,0.864065,-0.428361
-0.134181,-0.024160,0.619747,-0.437984,-0.264462,-0.859203
0.602526,-0.201046,0.619885,0.327785,0.879735,-0.344417
0.509914,0.263356,-0.935138,-0.217669,-0.106336,0.970213
-0.127016,0.425850,0.491175,-0.037702,-0.716621,0.696443
0.106429,0.332422,0.406629,-0.284618,-0.250487,0.925337
-0.640239,-0.179497,0.587871,0.773974,0.604980,-0.186983
-0.899432,-0.050292,0.338205,-0.454090,0.288540,0.842940
-0.047216,-0.536965,0.554338,0.964551,-0.245055,0.097930
-0.038411,-0.223076,0.895057,0.105528,-0.993779,0.035584
-0.172259,-0.394331,0.690308,0.261520,-0.739631,-0.620123
0.223514,0.177568,0.775032,-0.328434,-0.524690,0.785386
0.493518,0.254593,0.487928,-0.709395,0.681154,-0.181072
-0.434669,-0.369809,-0.987192,-0.172662,-0.140274,0.974942
0.289285,-0.150794,0.796306,0.484809,0.495869,-0.720468
-0.381227,0.186895,0.631035,0.900209,0.196967,-0.388365
0.562748,-0.461547,0.755772,0.946788,0.119419,-0.298883
0.212706,-0.843859,0.629802,0.432584,0.453623,0.779164
-0.268271,0.176121,0.509900,0.160665,-0.423413,0.891576
0.251996,0.260542,0.781169,0.825293,0.427928,-0.368468
0.149122,0.077146,0.539160,0.780445,-0.492519,0.385137
0.704553,-0.134392,0.635720,0.011977,-0.582211,0.812949
-0.633680,-0.425930,0.671199,-0.509395,0.155412,0.846383
-0.108918,-0.219457,-0.966590,-0.332247,-0.113090,0.936388
0.415966,-0.088964,0.836551,-0.724315,-0.219164,0.653709
-0.240094,0.455116,-0.792908,0.054711,0.722874,0.688810
0.119545,0.675417,-0.940946,0.154107,0.253971,0.954856
-0.557707,-0.478191,0.649185,-0.651181,-0.107709,-0.751240
-0.302523,0.638593,-0.967590,-0.258644,-0.216896,0.941307
0.142259,0.490894,0.707801,0.895064,0.376748,-0.238582
0.610786,-0.460181,-0.935892,0.178078,-0.074637,-0.981182
0.039443,-0.269468,0.494380,-0.254593,-0.720655,0.644856
-0.350257,0.726231,-0.966809,-0.150732,-0.191272,0.969894
-0.648984,-0.469186,0.674294,0.872104,-0.361508,-0.329769
0.369629,-0.469507,0.861578,-0.631495,0.219740,-0.743591
-0.053228,0.355659,0.829003,-0.035769,-0.997077,0.067520
-0.149971,0.265126,0.800579,0.418735,0.189269,-0.888166
0.088574,-0.435578,0.846044,0.021997,-0.332979,0.942677
0.253879,-0.285789,0.863030,0.880903,-0.053097,-0.470309
-0.149789,-0.441447,0.869085,0.329139,0.871140,-0.364394
-0.069445,-0.125708,0.867606,-0.545231,-0.599402,-0.586038
-0.115173,0.389507,0.631966,0.272128,0.068924,0.959789
0.107582,-0.014834,0.854524,0.625479,0.725179,0.287909
-0.015819,-0.507859,0.676253,0.022958,0.697849,0.715877
-0.586919,-0.284503,0.565434,0.884423,0.457767,-0.090802
0.097075,-0.438472,0.953782,0.844882,0.475114,-0.245847
0.273009,-0.284261,0.855907,-0.824035,-0.062632,0.563066
-0.057237,-0.608282,0.841332,0.913690,-0.163827,0.371928
0.389610,-0.822955,0.590830,0.229311,0.924259,0.305224
0.535178,-0.476663,0.753430,-0.807360,0.316044,0.498283
0.008350,-0.631517,0.787593,0.920808,0.222134,0.320575
-0.490419,0.454472,-0.975453,-0.172143,-0.095972,0.980386
-0.109039,-0.633930,0.864715,0.132719,-0.624623,0.769566
-0.613822,-0.197186,0.533818,0.484975,-0.477509,0.732656
-0.035010,-0.117508,0.816154,0.217588,0.505525,0.834925
-0.425803,-0.133267,0.492490,0.881351,0.405901,0.241795
-0.098836,-0.271156,0.989877,0.741764,0.667637,0.063619
0.291471,0.396181,-0.937919,-0.115852,-0.071682,0.990677
0.274710,0.191156,0.526777,0.309562,0.022181,-0.950621
0.143655,0.709106,-0.951645,-0.050263,0.028073,0.998341
-0.060819,-0.510352,0.544955,0.989209,-0.123757,0.078423
-0.131023,-0.504563,0.902824,0.733168,0.491737,0.469744
-0.455621,-0.160845,0.657103,-0.596055,-0.012276,-0.802849
0.464732,0.095477,0.472449,-0.234721,-0.511114,0.826843
0.828561,-0.447558,-0.919673,-0.323733,0.495127,0.806255
-0.005616,0.031316,-0.955398,0.331627,-0.013077,-0.943320
-0.067986,-0.515416,0.489257,0.812955,-0.437627,-0.384171
0.272403,0.669387,-0.933330,-0.037380,0.164002,0.985751
0.196491,-0.732904,-0.956289,-0.133551,0.046029,0.989972
-0.390885,0.231920,-0.979206,-0.144137,-0.122239,0.981979
0.204811,0.623799,-0.946467,0.260550,0.020138,-0.965250
0.009625,-0.361929,0.910933,0.800335,-0.596509,-0.060346
-0.197217,-0.522332,0.678883,0.760470,-0.092141,0.642803
-0.651596,-0.524744,0.660774,-0.704785,-0.688092,-0.172645
-0.587101,0.251939,-0.977316,-0.235171,0.144143,-0.961206
-0.208452,-0.162372,0.839099,0.684084,-0.395789,0.612683
0.743298,-0.011859,0.654240,0.544413,0.542072,-0.640134
-0.100111,-0.228382,0.745498,-0.320014,-0.945146,0.065496
0.424771,-0.011297,0.859866,0.734385,0.053766,-0.676601
0.149061,0.621307,0.623172,0.156328,0.761792,-0.628677
0.150822,-0.144925,0.829141,0.601080,-0.613292,0.512422
0.583883,-0.346412,-0.930180,-0.056212,-0.352074,0.934283
0.276167,-0.180140,0.868331,-0.064986,0.805781,0.588637
-0.244647,-0.471357,0.456491,0.201555,0.633507,0.747024
0.343151,-0.392643,0.469518,-0.388708,0.264240,0.882657
0.301248,0.420463,0.562201,0.189754,-0.459332,0.867760
-0.227947,-0.867498,0.357164,0.079859,0.734646,0.673734
0.329670,-0.724944,0.638733,-0.284658,-0.695681,0.659544
-0.156469,-0.899900,0.715704,-0.109910,0.294855,0.949200
0.182523,0.123698,0.523243,0.991302,-0.086578,0.099119
0.267482,0.035336,0.870153,0.986675,-0.125857,0.103118
0.335197,0.463800,0.556091,0.015492,0.028955,0.999461
0.258191,0.835899,-0.940207,-0.123667,-0.132048,0.983499
-0.380742,-0.157146,0.661267,-0.060973,0.260074,0.963662
-0.237299,-0.559959,0.071307,0.459034,-0.468516,-0.754839
-0.517383,0.743678,-0.848209,0.018683,-0.978555,0.205138
0.612122,0.011136,-0.929317,-0.241271,0.233554,0.941935
0.077156,0.058251,0.785073,0.687608,0.466275,-0.556581
-0.265599,-0.117909,0.405094,-0.077097,-0.996229,-0.039788
0.280237,-0.135196,-0.946946,-0.075552,0.190741,0.978729
-0.147906,-0.555457,0.914454,0.939443,-0.334617,0.074016
-0.099020,-0.249125,0.892879,-0.144187,0.934948,0.324164
-0.563841,-0.130452,0.612679,-0.641873,-0.511117,0.571629
0.090274,-0.640603,0.612803,0.958703,0.190350,-0.211320
0.132238,-0.722854,0.711061,0.939593,0.342258,-0.004979
0.112319,-0.482532,0.903125,0.812136,0.564182,0.148772
0.199588,0.718753,-0.945727,0.158313,-0.074571,-0.984569
-0.163635,-0.399478,0.898029,0.034436,0.889513,0.455611
-0.103877,-0.742070,0.566187,-0.456513,0.829593,-0.321515
-0.304163,0.531899,-0.947193,0.251940,-0.163757,0.953787
0.282664,-0.610533,0.656541,-0.237266,-0.542600,0.805785
0.224608,-0.562291,0.886139,-0.179472,-0.888504,-0.422316
-0.176023,-0.358794,0.750471,-0.473799,0.879823,0.037766
0.058087,-0.877467,-0.962713,0.243850,0.018585,-0.969635
-0.128958,0.391598,0.476038,0.677132,0.537249,-0.502848
-0.481795,0.653146,-0.853565,0.018683,-0.978555,0.205138
-0.065436,-0.148462,-0.963946,-0.524341,-0.136840,0.840441
0.385481,-0.143156,0.810360,-0.515837,0.715438,0.471233
-0.108614,0.427457,0.400519,0.881097,0.313361,-0.354221
0.160720,-0.078834,0.814237,0.651469,-0.742152,-0.157475
0.145964,-0.335156,0.801757,0.381389,-0.291028,-0.877408
-0.281328,0.112121,0.842976,-0.018719,0.999494,-0.025698
0.771900,-0.246874,0.623693,0.112277,0.598855,-0.792948
0.335256,-0.323579,-0.944097,0.250400,0.231036,-0.940171
0.496918,-0.208763,0.785867,0.510045,0.720646,-0.469600
-0.590624,-0.372543,0.519065,-0.373124,0.444130,-0.814571
0.289407,-0.105286,0.435916,0.271479,-0.752526,0.600003
-0.418820,-0.505447,0.365575,-0.151320,0.933662,0.324619
0.011508,0.158915,0.578337,0.308549,-0.294741,0.904392
0.170619,0.409769,0.703376,0.875482,-0.096125,0.473595
-0.233413,-0.035095,0.632898,0.357178,0.139974,0.923488
0.613216,-0.053749,0.685623,-0.524025,0.167353,0.835099
0.162360,-0.577247,0.870660,-0.558517,0.826815,-0.066605
-0.237664,0.627417,-0.959453,-0.163773,-0.190775,0.967876
0.097865,0.606432,0.612625,-0.082136,-0.578704,0.811391
-0.173048,-0.203618,0.652021,-0.238690,-0.541599,-0.806038
-0.338414,0.382030,0.708787,0.028220,-0.979888,0.197543
-0.119241,0.002131,0.850030,0.301921,0.079419,-0.950019
0.814289,-0.214392,-0.929700,0.061551,0.024158,-0.997812
0.095619,0.780824,0.468778,0.448683,0.110491,-0.886835
0.343820,-0.294794,0.759087,0.304221,0.757703,-0.577352
0.817631,-0.267377,0.595268,0.843267,0.428214,-0.324859
-0.126528,0.437910,-0.962699,-0.248057,0.111253,0.962336
0.399751,-0.137688,-0.940988,0.199362,0.015845,-0.979798
-0.308172,-0.672362,0.680376,0.513681,0.351575,-0.782641
-0.019646,-0.234975,-0.270083,0.500183,0.865833,0.012233
0.017339,-0.391517,0.546489,0.775592,-0.622865,-0.102448
0.056692,-0.226452,-0.355726,0.865938,0.496842,-0.057439
0.098291,-0.403899,0.854346,-0.155466,-0.795701,0.585398
-0.069869,-0.050613,0.668678,0.680328,0.656853,0.325113
0.478335,-0.136563,0.768183,0.735342,-0.083673,-0.672511
0.028208,0.150713,0.736170,0.983096,-0.154724,-0.097888
0.293840,0.115417,-0.943974,-0.191461,-0.004267,0.981491
0.545987,-0.239397,0.605775,-0.656471,-0.428591,0.620770
-0.481432,-0.157628,0.546694,-0.090195,0.930261,0.355639
0.071995,-0.000844,0.531653,0.781527,-0.620764,0.062184
-0.109161,-0.521930,0.863578,0.933229,0.182108,0.309709
0.161267,0.099577,0.541270,0.812670,-0.403191,0.420719
-0.003674,0.333065,0.832264,-0.213191,-0.975239,0.058802
0.148939,0.787417,-0.940125,-0.054885,-0.157209,0.986039
0.165276,-0.536000,0.883441,0.008716,-0.966530,-0.256407
-0.061184,0.096683,0.639336,0.976644,0.214351,0.014850
0.024748,-0.101347,0.849414,-0.523143,0.360071,-0.772445
0.203413,0.121046,0.515695,0.958340,0.064493,-0.278254
-0.084990,0.031316,0.870167,-0.384823,-0.859818,0.335596
-0.002520,-0.250331,-0.118224,-0.587589,0.803519,0.095377
0.749977,0.017568,0.652514,0.463307,0.700273,-0.543107
0.331492,-0.292383,-0.933796,0.045304,-0.388182,0.920469
-0.149120,-0.245749,0.858825,-0.549939,0.780612,-0.297006
-0.115477,-0.704925,-0.973288,0.025909,-0.129226,0.991277
0.781678,0.002855,0.661500,0.814873,0.475043,-0.332138
-0.146327,-0.181588,0.390067,-0.186596,-0.919383,0.346289
-0.820970,-0.011055,0.336904,-0.295970,0.381244,0.875817
-0.534387,-0.375116,-0.988288,-0.024546,-0.071551,0.997135
0.090517,-0.047638,0.515133,0.818532,-0.452682,0.353672
0.058391,0.385889,0.805881,-0.621148,0.778603,0.089173
-0.525947,-0.665849,0.285686,-0.012987,0.349865,0.936710
0.172563,-0.244784,0.602789,0.086864,-0.988277,-0.125555
-0.363676,-0.171056,0.662281,0.006283,0.394335,0.918945
-0.174991,-0.107216,0.933974,0.604761,0.388611,-0.695159
-0.003552,-0.464282,0.506640,0.821301,-0.565939,0.071955
0.064342,-0.202653,0.724910,-0.547733,0.530604,-0.646875
0.151611,0.841769,-0.945207,0.031341,-0.029246,0.999081
0.124586,0.365548,-0.947179,-0.079567,-0.291552,0.953240
0.039504,-0.072804,0.858085,0.733885,-0.006754,0.679240
0.010657,-0.035900,0.574379,-0.555983,0.420166,-0.717177
-0.599064,-0.529247,0.189907,0.302070,-0.928119,-0.217597
-0.497463,-0.179579,0.581515,0.686329,-0.374061,0.623723
-0.218838,-0.346573,0.335507,-0.306034,0.002448,-0.952017
0.235053,-0.822714,0.629213,0.526510,0.359075,0.770618
0.711597,-0.113890,0.640131,-0.618189,-0.782861,-0.070497
0.034586,-0.312402,0.908098,-0.565384,0.602534,-0.563289
-0.341572,-0.323579,0.488969,-0.696287,0.079077,-0.713394
-0.048736,-0.484623,0.916029,0.527173,0.767812,0.364079
0.694167,-0.207397,-0.929317,-0.107060,-0.102793,0.988925
-0.019524,-0.262312,0.241139,-0.802438,0.595019,-0.045234
0.008230,0.073769,0.781361,0.280659,0.924178,0.259085
0.177604,0.413628,0.832250,0.800662,0.597738,0.040615
0.029667,0.484623,0.768073,0.980293,0.193280,-0.040838
-0.047581,-0.184803,0.935645,-0.603372,0.291383,0.742319
0.066833,-0.413226,0.899495,-0.023190,-0.769132,-0.638669
0.272827,-0.625809,0.352575,-0.417861,-0.076229,0.905307
0.100780,0.616965,0.626062,-0.316323,0.807982,-0.497096
-0.199527,-0.284181,0.851537,0.424779,0.176319,0.887961
0.313333,-0.675659,0.354739,-0.185876,0.821269,-0.539413
0.043695,-0.877146,0.787867,0.280750,0.946254,-0.160569
-0.235842,0.029870,0.784169,-0.628474,-0.290511,0.721543
0.491696,-0.534553,0.483422,0.767652,-0.195058,-0.610461
-0.113837,-0.060021,0.881290,0.693602,0.455456,-0.558100
-0.229102,-0.232081,0.848428,0.895884,0.098653,0.433198
0.285580,0.394010,0.547544,-0.015210,-0.777504,0.628694
0.045031,0.235538,0.741704,0.876222,-0.393251,0.278549
0.252300,0.198552,0.508448,0.128345,-0.713610,0.688686
