0.323004,-0.025711,0.831707,-0.600465,-0.693033,-0.398932
-0.031152,-0.711651,0.639607,0.014215,-0.792847,0.609254
-0.335980,-0.522917,0.486939,0.165759,-0.912970,-0.372841
-0.255669,0.209936,0.671174,0.288532,-0.570986,0.768586
0.371934,0.261358,-0.038762,0.501785,-0.266816,-0.822813
0.187010,-0.468601,0.033488,0.782875,0.002547,0.622174
-0.027444,0.472775,0.820159,0.312239,-0.581457,0.751275
0.156025,-0.350744,0.460751,0.590417,0.736165,-0.330861
0.434834,0.194118,0.820040,-0.138981,-0.459347,0.877317
0.439732,0.103251,0.303270,0.083421,-0.897310,0.433445
0.529845,0.337754,0.341861,0.767586,-0.518634,0.376603
-0.277186,-0.613178,0.498040,0.126757,0.112284,0.985558
-0.350482,-0.464495,0.340717,0.793969,-0.234616,-0.560864
-0.153374,-0.528102,0.486439,-0.122026,-0.021910,0.992285
0.503030,0.058020,0.274504,0.508710,-0.188013,-0.840158
-0.289501,-0.624420,0.498540,-0.022864,-0.179893,0.983420
-0.280564,-0.566871,0.500119,-0.373059,-0.197056,-0.906640
0.444434,-0.085818,0.711988,-0.699542,0.397545,0.593801
-0.096699,0.119877,0.578234,0.136878,-0.854160,0.501672
-0.154235,0.036885,0.451399,0.339870,0.106343,-0.934441
0.002284,0.697449,0.639751,0.916107,-0.399384,0.035218
-0.263416,-0.719660,0.384911,0.004595,0.451289,0.892366
0.722581,0.460120,0.508194,0.536368,-0.821431,0.193807
0.110075,0.065425,-0.717367,0.163194,0.980603,0.108564
-0.150992,-0.187924,0.697493,0.357217,0.751284,0.554949
0.098685,-0.379349,0.505156,-0.487232,-0.261011,-0.833354
-0.179924,-0.885172,0.381110,0.289732,-0.047775,0.955915
0.188798,-0.334186,0.455832,0.474032,0.879130,0.049236
0.829974,-0.086559,0.636621,-0.206087,-0.311483,0.927635
-0.192504,-0.050077,0.454398,0.497861,-0.027008,-0.866836
0.292682,-0.010028,0.869745,-0.418092,0.856574,-0.302459
0.149404,0.445111,0.338402,-0.490516,0.332259,-0.805604
-0.167013,-0.398398,0.408034,0.401029,-0.592291,-0.698833
-0.063129,-0.206031,0.700610,-0.603005,-0.253162,-0.756501
0.333202,-0.030154,0.871679,0.740528,0.600329,-0.302032
0.461318,-0.199637,0.692955,-0.034828,0.997177,0.066525
0.614594,0.219695,0.632662,-0.681267,0.563510,0.467259
0.184163,-0.533553,0.226246,-0.254385,-0.621748,-0.740755
0.318502,-0.091204,0.786342,-0.432854,0.249621,-0.866214
-0.039030,0.015212,0.673870,-0.156391,0.500081,0.851740
-0.008639,-0.339167,0.631254,-0.593436,0.474668,0.650019
-0.593075,-0.337215,0.436103,0.932772,-0.050382,-0.356928
0.295064,0.188194,0.774570,0.496593,-0.170304,0.851112
0.497072,-0.345494,0.610551,0.318363,0.671162,0.669468
0.488331,-0.195194,0.715052,-0.074928,0.471649,0.878597
0.261496,-0.201656,0.797746,-0.264373,0.962605,-0.059141
0.357036,0.224271,0.890330,0.596894,-0.771474,0.220331
0.180787,-0.260684,0.651221,0.335150,0.646126,-0.685708
-0.010892,-0.162415,0.659415,-0.180558,-0.872406,0.454210
0.594002,-0.048261,0.291445,-0.294507,-0.085045,0.951858
0.698415,0.422360,0.323407,-0.590451,0.395672,-0.703428
0.215547,0.052299,0.604001,0.728275,-0.539197,0.422944
0.368756,0.054049,0.891606,0.464837,0.870823,0.159983
0.326316,-0.018442,0.662466,0.846434,-0.033771,-0.531421
0.225015,-0.192770,-0.993963,-0.071107,0.129069,0.989083
0.447016,0.172511,0.305203,-0.495797,0.526431,-0.690692
-0.251961,-0.612237,0.239307,0.092971,-0.746457,0.658906
0.405900,-0.119203,0.718367,-0.058687,0.985051,0.161959
0.740459,0.035606,0.451610,0.176041,0.728841,0.661664
0.115702,0.202936,0.877992,0.612738,-0.119322,0.781227
0.638628,-0.123309,0.429684,-0.342451,0.512582,-0.787393
0.039562,-0.524871,0.634713,-0.739771,0.215156,0.637532
-0.118085,0.128021,0.503775,0.100346,-0.059717,-0.993159
0.684445,0.242580,0.647604,-0.189891,0.824787,0.532605
0.157017,0.096185,-0.517849,0.742378,-0.665996,0.072965
-0.243552,-0.891567,0.386884,0.278157,0.413579,0.866938
0.184230,0.102308,-0.362866,0.547210,-0.835347,-0.052512
0.037111,-0.433667,0.352015,0.746986,0.131586,-0.651687
0.072798,0.253080,0.889422,0.844255,-0.323848,0.427032
-0.073592,-0.155819,0.527963,0.229661,-0.779599,0.582651
-0.040618,0.880528,0.607473,-0.350858,0.079213,-0.933072
0.167942,-0.102039,0.675133,-0.359107,0.709438,0.606416
-0.786540,-0.311638,0.338323,0.950955,0.010127,-0.309162
0.389083,0.140473,0.615076,0.931686,0.303667,-0.199366
-0.040089,-0.246887,0.692298,0.114029,0.212458,0.970494
0.109346,0.020529,-0.977666,-0.431804,-0.510771,0.743410
0.303209,0.163896,0.840335,-0.232281,-0.632419,0.738980
-0.077631,-0.176146,0.684498,-0.036956,0.358622,0.932751
0.654320,0.191829,0.580589,-0.153399,0.940957,-0.301776
0.216009,0.005990,0.671779,0.778131,-0.597806,-0.192720
0.189459,-0.428080,0.660546,0.680536,0.724572,0.108934
0.291621,-0.438244,0.496067,0.347644,0.769050,-0.536382
0.026319,0.113415,0.789985,0.197317,0.588458,0.784081
-0.332473,-0.517400,0.256248,-0.030009,0.906311,-0.421544
0.543086,0.073029,0.435721,0.381838,0.352619,0.854318
-0.535008,-0.601332,0.420529,0.314218,0.939741,0.134738
0.620088,0.129905,0.824473,0.749842,-0.143125,-0.645950
0.254279,-0.051625,0.868220,0.890137,-0.251910,0.379732
0.280631,0.022751,0.755380,-0.287331,0.415965,0.862794
0.040620,-0.237329,0.355317,0.331774,0.081702,-0.939814
0.192041,0.098473,-0.313582,-0.611037,0.791462,0.014915
0.281756,0.669382,0.426290,0.353517,0.492840,-0.795069
0.405106,-0.479909,-0.022347,0.664963,-0.197032,0.720419
-0.138941,0.256580,0.450992,0.425744,-0.109114,0.898241
0.704838,-0.117116,0.493766,-0.239811,0.241423,-0.940322
0.207468,0.585380,0.632859,0.388675,-0.254603,-0.885499
-0.359948,-0.311100,0.139107,-0.546536,0.505900,0.667355
0.238522,0.087098,-0.547588,0.455802,-0.888755,-0.048565
0.189924,0.422090,0.622258,-0.280239,-0.582488,0.763003
-0.000630,-0.458840,0.047285,-0.311339,0.274667,0.909739
-0.855265,-0.394023,0.323447,0.211535,0.814835,0.539720
0.523753,0.416707,0.776004,0.230458,-0.745881,0.624940
0.036450,0.167127,0.399721,-0.058697,0.139309,0.988508
0.687888,0.540083,0.320198,-0.668382,-0.180793,-0.721511
0.171252,-0.382917,0.682209,-0.333681,0.067520,0.940265
0.303209,-0.508919,0.635516,0.934293,-0.332629,0.128276
0.177079,0.310831,0.838678,0.904697,0.275458,0.325031
-0.102128,0.373292,0.691706,-0.098953,-0.696536,0.710666
0.261629,0.737566,0.427961,-0.064638,-0.451182,0.890088
0.790381,0.628795,0.473365,-0.534487,0.410851,-0.738597
-0.299897,-0.141280,0.435142,0.436505,0.395641,-0.808042
0.220513,-0.063471,0.750934,-0.151872,-0.203838,0.967153
0.213694,0.675575,0.409770,0.262723,0.597426,-0.757666
-0.552619,-0.249175,0.249540,-0.731971,-0.054852,0.679124
0.345517,0.272935,0.007234,0.850022,-0.502540,-0.157848
0.211574,0.324090,0.809083,-0.362780,-0.778536,0.512125
-0.008639,0.534024,0.536421,0.157158,0.371474,0.915046
-0.646504,-0.741604,0.252183,0.221471,0.623597,0.749718
0.112126,-0.302618,0.816897,-0.017778,0.754536,0.656018
0.560234,0.609477,0.487084,0.972760,-0.120364,-0.198116
0.009104,-0.532206,0.335850,-0.012151,-0.173546,0.984751
0.528720,0.564919,0.715579,-0.017764,-0.655153,0.755287
0.138347,-0.039712,0.692863,0.268373,0.923290,-0.274793
-0.668818,-0.443225,0.347359,0.862652,0.502954,0.053553
-0.054589,0.217608,0.647117,0.014683,0.989931,0.140788
0.308373,-0.144914,0.540525,-0.431086,0.778350,-0.456438
0.116365,0.178502,0.064884,0.676408,0.333124,-0.656887
0.212302,0.055462,0.855527,-0.370839,-0.581240,0.724319
0.312742,0.462813,0.796601,0.953481,-0.262331,0.148513
0.421458,-0.273204,0.621219,-0.161470,0.756448,0.633809
0.512563,0.158309,0.672160,0.318735,-0.780625,0.537618
0.127288,0.202667,0.664005,-0.504818,-0.815717,0.282426
0.455822,0.304907,0.876032,0.850303,-0.477165,0.222032
0.311816,-0.130847,0.594439,-0.202647,-0.392445,0.897174
0.202172,0.118732,-0.176830,0.477713,0.863868,-0.159758
0.234283,0.135223,-0.272163,0.867415,-0.494382,0.056365
0.131990,0.027192,-0.818883,0.202175,0.978919,0.029029
0.162580,0.190079,0.706069,-0.093183,0.807631,0.582280
0.159864,0.072020,-0.575367,0.773283,0.631417,-0.057849
-0.297580,-0.616545,0.242871,-0.265599,0.107828,-0.958034
0.541166,0.171502,0.800008,-0.726397,-0.654703,-0.209073
-0.324130,-0.715219,0.458279,0.579141,0.804576,0.131351
0.006521,0.309214,0.669082,0.617090,0.753921,-0.225396
-0.160725,0.828364,0.623520,0.267692,0.498951,-0.824251
0.343331,0.060039,0.892579,0.324112,0.588541,0.740656
0.352005,0.241840,-0.287223,-0.732450,0.680680,-0.013837
0.324992,0.637410,0.427040,-0.447011,-0.666801,0.596286
-0.055914,-0.851787,0.221853,0.049954,0.579210,-0.813647
0.736353,0.303695,0.629637,-0.042503,0.381881,0.923234
0.791108,0.212763,0.566028,0.036636,0.601173,0.798279
0.778263,0.748335,0.468591,-0.480661,-0.567608,-0.668421
0.605721,0.024298,-0.098543,0.307742,0.951462,-0.003744
0.387957,-0.182405,0.731796,-0.001710,-0.970525,0.240993
0.128480,-0.415022,0.793076,0.767371,0.421826,0.482913
0.287319,-0.100020,0.784119,0.359821,-0.757372,0.544900
-0.421458,0.181195,0.519545,-0.206354,0.897326,0.390159
-0.286258,-0.552802,0.261035,0.278645,0.957491,-0.074613
0.480717,0.250455,0.835337,0.002518,-0.618696,0.785626
-0.073261,-0.328802,0.674673,-0.305881,0.670727,0.675694
0.272817,-0.506764,0.676014,0.381503,0.519619,0.764494
-0.073063,0.219223,0.666347,-0.224549,-0.457537,-0.860371
0.603006,-0.285319,0.684840,0.333838,0.581950,0.741543
0.245406,0.216396,0.827524,-0.479816,0.803883,-0.351495
0.592877,-0.022615,0.445770,0.407732,-0.687248,-0.601203
0.605788,-0.072222,0.476377,0.235270,-0.401817,-0.884981
0.390936,-0.469745,0.613945,-0.296072,0.944679,0.141150
0.245077,0.072760,0.822565,0.666219,0.727397,0.164457
-0.835997,-0.414821,0.249632,-0.126598,0.042993,0.991022
0.440395,-0.010634,0.908784,-0.551300,-0.827334,-0.107641
0.686033,0.002557,0.847069,-0.613233,0.324033,0.720380
-0.355844,0.135560,0.506577,0.739535,0.288446,-0.608183
-0.436289,-0.677592,0.505064,0.394502,0.596489,0.698977
0.068759,0.319513,0.518112,-0.082708,-0.933800,0.348106
-0.032013,0.778623,0.616365,-0.148580,-0.730868,0.666150
-0.184493,-0.423773,0.039065,-0.435944,0.042676,0.898962
0.225611,-0.331628,0.356961,0.601301,0.693592,0.396695
-0.157678,-0.373764,0.355514,0.118296,0.538729,0.834133
0.260039,-0.084943,0.815410,-0.237911,0.013379,-0.971195
0.449665,0.214983,0.361959,0.198152,0.056305,0.978553
0.251961,0.352292,0.820027,0.345338,-0.680706,-0.646051
-0.288509,-0.743623,0.487649,0.972276,-0.196326,-0.127028
0.879500,-0.082453,0.642382,-0.215680,-0.051004,0.975131
0.254479,0.220638,0.909744,0.923779,-0.366117,0.112211
0.153309,0.043413,-0.695704,0.099482,-0.991647,0.082092
-0.470586,-0.549505,0.239438,0.186255,0.245229,-0.951405
0.311287,0.013865,0.820119,0.869292,0.481987,-0.109640
-0.071937,0.221848,0.316015,0.676455,-0.123879,-0.725991
0.256398,-0.424783,0.470629,0.753498,0.615006,-0.232397
0.179793,0.586255,0.570224,0.621130,0.183765,0.761858
0.229319,0.021338,0.802928,-0.415158,0.856534,0.306582
-0.358427,-0.557851,0.345715,0.848812,-0.266961,-0.456345
0.741849,0.301004,0.251841,-0.544801,-0.160573,-0.823048
0.228723,-0.304369,0.497619,-0.416862,-0.805025,-0.422091
0.206212,0.275022,0.830654,0.924777,0.306290,0.225774
0.388353,0.234906,0.699992,0.635538,0.222450,0.739329
-0.225411,0.259877,0.655811,0.403626,0.623950,0.669158
-0.093588,0.499024,0.696533,-0.260665,0.305289,-0.915889
0.175224,-0.375917,0.396933,0.654298,-0.038290,-0.755266
0.224419,0.120482,0.859762,0.202322,-0.211925,0.956114
-0.263349,-0.826951,0.378229,0.617333,-0.209288,0.758352
0.260967,-0.364744,0.674252,0.282730,0.372410,0.883954
0.116098,-0.106145,0.619233,0.532085,-0.352033,0.770038
0.201576,-0.021605,0.858250,0.779109,0.551043,0.298899
0.429801,-0.243724,0.605764,-0.368728,0.715856,0.592950
0.054657,-0.014876,0.539170,0.378363,-0.848429,-0.370149
0.130932,0.132396,-0.196770,0.174422,0.973233,0.149648
0.192506,0.099079,-0.219130,0.880169,-0.361826,0.307220
0.007318,0.341656,0.797443,-0.566802,-0.728036,0.385614
0.170126,0.374370,0.713987,0.810200,0.111344,-0.575481
-0.210182,0.178098,0.670990,0.151763,-0.038733,0.987658
0.076970,0.703170,0.636213,0.020384,0.990713,0.134432
0.884795,0.387091,0.638423,-0.246420,0.182743,0.951779
0.175357,0.683718,0.562674,-0.745513,-0.056165,-0.664120
-0.314265,-0.814701,0.389830,-0.565034,0.207928,-0.798438
0.367630,0.019990,0.615418,0.729349,0.683732,-0.023677
0.386832,-0.206031,0.670990,0.797829,0.258193,-0.544799
0.318967,-0.412196,0.495554,-0.090903,-0.930533,0.354746
-0.249246,-0.803393,0.383464,-0.270649,0.187710,-0.944200
0.277255,0.098876,0.979415,0.273236,-0.013817,-0.961848
0.912207,0.209396,0.570053,-0.091618,0.115484,-0.989075
0.279904,0.144848,0.935432,0.673880,0.604621,0.424640
-0.793226,-0.433265,0.246817,-0.022112,0.151798,0.988164
0.058496,0.443091,0.805296,-0.196959,-0.954105,0.225589
-0.130598,-0.279531,0.519059,-0.141588,0.091088,0.985726
0.393253,-0.034393,0.847306,0.904258,0.160537,-0.395659
0.089219,0.579996,0.738307,-0.383004,0.843287,-0.377061
0.464165,0.411457,0.688588,-0.582047,-0.185400,-0.791737
-0.693844,-0.386955,0.396604,0.997550,0.053899,-0.044593
0.139802,-0.375647,0.648485,-0.410518,-0.055263,0.910176
-0.354586,0.031298,0.491135,-0.369696,-0.274580,0.887655
0.302479,0.688565,0.633964,-0.419454,0.751534,0.509171
0.049359,-0.384599,0.640777,0.091176,0.451303,0.887701
0.373789,-0.338966,0.670477,0.408366,0.059921,-0.910850
0.265204,0.072357,0.877400,0.805834,-0.069804,-0.588013
-0.172973,-0.376321,0.724220,0.222767,0.766347,0.602567
0.385706,-0.129165,0.849595,-0.695868,0.260523,0.669250
-0.240309,-0.781383,0.381702,-0.330513,0.231465,-0.914978
0.112922,-0.046375,-0.230297,0.021374,0.052949,0.998368
0.356905,0.048261,0.918030,0.635837,0.651046,0.414548
0.430927,0.213434,0.736360,0.577327,-0.798960,0.168396
0.395108,0.003231,0.903917,0.378993,0.899871,-0.215862
-0.000363,-0.550986,0.543747,0.359483,0.447186,0.819022
-0.036183,0.003837,0.757050,-0.771228,-0.188368,-0.608050
0.616778,0.026520,0.432972,-0.361754,0.513642,0.778014
0.220048,-0.029480,0.877453,0.886393,-0.188408,0.422859
0.890623,-0.015414,0.439115,0.823359,0.067233,0.563524
0.056975,-0.349600,0.628282,0.392102,0.856999,0.334379
0.577648,0.072559,0.831786,-0.608050,0.174076,0.774579
0.341743,0.342735,0.614971,0.941877,-0.048421,-0.332451
0.310889,0.099213,-0.080760,0.037376,0.997268,0.063722
-0.344390,0.254023,0.660586,0.268030,-0.073715,-0.960586
0.247526,-0.272935,-0.984545,0.097699,0.095116,0.990660
0.209655,0.011308,-0.816725,0.087582,0.995663,-0.031382
0.516206,0.106482,0.277687,-0.692249,-0.304328,0.654352
0.029099,0.088375,0.557952,0.613581,-0.390154,0.686512
0.097693,-0.271185,0.768717,-0.577150,0.107489,0.809533
0.379018,-0.019922,0.567225,0.383159,0.913832,0.134538
0.149799,-0.074510,0.673344,0.127359,-0.404423,0.905661
0.501507,0.119809,0.278779,-0.466183,-0.211226,0.859103
-0.084186,0.729353,0.524767,0.960052,0.178650,-0.215370
0.209853,-0.430099,0.403220,0.497339,-0.205376,-0.842897
0.358031,0.025847,0.563529,-0.075802,-0.897662,0.434117
-0.067698,0.003432,0.484453,0.732326,-0.454353,0.507210
0.183501,0.022616,-0.578682,-0.503738,0.860317,-0.078118
-0.468335,-0.109577,0.277411,-0.662846,0.047195,0.747267
0.366042,0.497342,0.701978,-0.824687,0.005051,0.565567
-0.313669,0.152789,0.646933,0.775011,0.614000,0.149541
0.236269,0.176282,0.792629,0.733357,0.085331,-0.674468
-0.025854,-0.319715,0.520506,-0.015094,0.835204,0.549733
-0.432317,-0.610621,0.466052,0.692342,0.067033,-0.718449
-0.627305,-0.523188,0.365970,-0.239081,-0.832588,0.499638
0.400206,-0.188935,0.686247,-0.633736,-0.746145,0.204075
0.203365,-0.236992,0.805848,-0.058867,0.651867,0.756045
0.540108,-0.182674,0.693600,0.324709,0.729396,0.602118
0.182044,-0.061319,0.174659,0.860540,-0.281215,-0.424722
0.376569,0.128964,0.775714,-0.290227,-0.956830,-0.015659
-0.638560,-0.757018,0.254656,-0.001154,0.236795,0.971559
-0.299566,0.053982,0.509391,0.260272,0.225616,-0.938806
-0.211441,-0.571651,-0.001302,0.647789,0.615155,-0.449392
0.716622,0.611161,0.475772,-0.660736,0.117266,-0.741401
0.573544,0.629738,0.475246,-0.582288,0.581774,0.567873
-0.179924,0.193713,0.634174,-0.723350,0.502588,0.473466
-0.208594,-0.414283,0.029713,-0.549318,-0.019326,0.835390
0.375840,0.503198,0.807124,0.965787,-0.211837,0.149604
-0.286919,-0.659890,0.492726,-0.640112,0.290167,0.711379
0.079817,0.186848,0.340099,0.020319,-0.135047,0.990631
-0.282484,-0.842431,0.494936,0.906579,0.133469,0.400375
-0.062137,-0.196675,0.688865,0.175916,0.782461,0.597335
-0.203496,0.238946,0.501776,-0.728919,-0.673494,-0.122813
0.791439,0.003905,0.442653,-0.519314,-0.830685,-0.200688
0.164366,-0.037222,0.062148,0.104426,-0.461348,0.881052
0.400471,-0.278321,0.806900,0.346400,0.504616,0.790803
0.330222,0.466381,0.122665,0.930276,-0.335422,0.148586
0.564407,0.215790,0.681736,0.101829,0.978165,0.181173
-0.023074,0.508718,0.537789,0.228110,0.361960,0.903854
0.066112,-0.135087,0.577958,-0.568574,-0.683678,-0.457502
-0.033799,0.013126,-0.004091,-0.592626,0.757774,0.273081
-0.337902,-0.681766,0.438010,-0.085268,-0.456506,-0.885625
0.193498,0.115165,0.774452,0.646915,-0.146957,-0.748268
0.263020,0.159857,-0.033317,0.653318,0.724103,-0.221021
0.316185,0.307263,0.401576,-0.391983,-0.349861,0.850851
0.136029,0.303964,0.865813,-0.703893,-0.397486,-0.588676
0.249844,0.115972,-0.558663,0.217911,-0.973679,-0.066815
0.727547,0.767181,0.470721,0.149175,0.731244,0.665604
0.616778,0.392273,0.044497,0.884223,-0.340635,0.319558
0.320026,-0.283300,-0.991661,-0.063209,0.025847,0.997666
0.127686,-0.106751,-0.224352,0.159692,-0.226360,0.960864
0.253551,0.123377,0.881215,0.044761,0.933234,0.356469
0.613070,0.541834,0.478758,0.141166,-0.360010,0.922207
-0.340616,-0.584709,0.498882,-0.077015,0.169377,0.982538
0.368689,-0.014001,0.876059,0.701703,0.282440,0.654095
0.009502,-0.480515,0.627782,-0.627903,-0.445543,0.638145
0.468800,0.222589,0.681710,-0.023868,0.997240,0.070303
-0.000630,0.378071,0.656061,-0.388513,-0.850327,0.354967
0.170391,-0.308138,0.408494,0.037171,0.245602,0.968658
0.320753,0.172040,0.854738,-0.065416,0.604576,0.793857
0.727149,0.341591,0.242963,0.882857,0.142173,0.447606
0.597445,0.073635,0.827169,0.787881,-0.204268,-0.580963
0.236668,0.076934,0.654035,0.204117,-0.720458,0.662780
0.436821,0.257926,0.846806,0.949126,-0.245131,0.197662
-0.636972,-0.517063,0.444678,-0.492194,0.244971,0.835305
0.419009,0.277310,0.749263,0.860276,0.304454,-0.408942
0.938623,-0.035538,0.429802,0.930350,0.001191,0.366670
0.316450,0.324359,0.772636,0.008869,-0.415981,0.909330
-0.086899,0.221310,0.462093,0.419135,0.503264,0.755679
0.264078,0.007000,0.757642,-0.479377,-0.229275,-0.847131
0.255471,0.504611,0.574236,0.353280,0.468289,0.809876
0.350086,0.289696,-0.034987,0.493039,-0.411354,-0.766616
-0.031615,-0.225954,0.250750,-0.417535,0.660805,0.623699
0.680539,-0.037087,0.766323,0.812006,0.064071,-0.580121
0.225015,-0.141414,0.013521,0.859024,0.041074,0.510285
0.593473,-0.238136,0.539880,0.291766,0.757514,-0.583991
-0.019697,-0.532206,0.629702,0.976714,0.213982,0.015550
0.157215,-0.335868,0.044418,0.226159,-0.072959,0.971354
-0.345714,-0.562631,0.358381,0.904325,-0.218986,-0.366389
0.142517,-0.563237,0.405272,-0.249863,0.187238,-0.950005
0.450526,0.679883,0.461475,-0.277987,0.078895,0.957339
-0.250438,-0.763075,0.345465,0.587929,0.344144,-0.732055
0.398551,0.258667,0.820487,-0.406186,-0.321965,0.855191
-0.365909,0.240090,0.606316,0.781135,0.572390,-0.249396
-0.377163,0.023491,0.497646,-0.591120,0.225117,0.774532
-0.163637,-0.612708,0.370245,-0.457704,-0.086085,-0.884927
-0.396496,-0.307600,0.117154,-0.780796,0.265879,0.565390
-0.285264,-0.749748,0.455530,0.594110,0.751812,0.286028
-0.169132,-0.259137,0.706674,0.282524,0.469292,0.836627
0.261165,-0.502389,0.685563,0.267098,0.331003,0.905039
0.077698,0.040519,0.849700,0.693813,0.458518,0.555324
0.730792,-0.170760,0.550968,0.687359,0.021473,0.726000
-0.491442,0.145857,0.513732,0.789247,0.452568,-0.415056
0.172377,-0.143098,-0.235611,0.210947,-0.497276,0.841557
0.104646,-0.394360,0.832864,0.133728,0.692372,0.709040
0.100209,-0.160059,0.656745,-0.702429,0.024930,-0.711317
0.273745,0.520159,0.574828,0.260033,0.284362,0.922779
0.545139,0.030290,0.765600,0.304397,0.934343,-0.185326
0.054855,-0.051827,0.554151,0.544867,0.774638,0.321022
0.212170,0.790740,0.525741,0.782283,0.411922,-0.467283
0.154435,0.042000,-0.720129,0.246854,0.967880,0.047671
0.302546,0.071482,0.868772,0.056296,-0.682637,0.728586
0.162513,-0.065289,0.672002,-0.428874,0.645812,-0.631660
0.205549,-0.351214,0.499790,-0.734455,-0.612405,0.292467
0.347504,-0.369120,0.504775,0.352247,0.720882,-0.596867
-0.046312,0.579996,0.688996,0.638598,-0.005239,0.769523
0.137088,-0.140405,0.889567,0.909972,-0.178237,0.374409
-0.276592,-0.535774,0.492713,0.138654,0.731220,0.667901
0.099348,-0.351820,0.297483,-0.725714,0.687838,0.014763
0.037905,0.449619,0.806242,0.128510,0.989939,0.059207
0.480386,0.559131,0.713263,-0.115748,-0.617728,0.777827
-0.307048,-0.609275,0.142066,-0.423253,0.515397,-0.745133
0.186547,0.094973,0.857092,-0.209377,-0.455376,0.865329
0.053134,0.366965,0.754235,0.310828,-0.211382,-0.926663
0.138412,-0.423234,0.503551,-0.680898,-0.142637,-0.718354
-0.303936,0.039173,0.500500,-0.681313,-0.281541,0.675683
-0.451187,-0.602680,0.454543,-0.596590,0.753665,0.275806
0.224750,0.031230,0.803796,0.598784,-0.406283,-0.690211
-0.051279,-0.686478,0.251670,-0.622588,0.611624,-0.488160
0.901017,0.289023,0.572618,-0.066883,-0.041129,0.996913
0.736353,0.033856,0.455609,0.176041,0.728841,0.661664
0.201841,-0.011846,0.807531,0.304190,-0.813004,-0.496480
0.098091,-0.116040,-0.984229,-0.153955,0.311599,0.937659
-0.442911,-0.532274,0.450097,0.900279,-0.354017,-0.253319
0.175954,0.084068,0.828879,-0.402429,0.829088,0.388155
0.335651,0.103520,-0.982099,-0.023910,0.285692,0.958023
-0.070414,0.077404,0.532830,-0.646182,0.237337,-0.725342
0.130798,-0.013596,0.641224,0.649201,0.183079,0.738255
-0.106101,-0.879452,0.226719,-0.465695,-0.849045,0.249502
-0.130267,-0.316416,0.510049,-0.168438,-0.246915,0.954286
0.896184,-0.012587,0.447585,0.658510,0.124625,0.742182
0.118285,-0.316954,0.820895,0.333206,0.515036,0.789754
0.809978,0.001413,0.435708,-0.478256,-0.785166,0.393428
-0.095705,-0.304705,0.689417,-0.367320,-0.656440,0.658910
0.191445,-0.344349,0.624231,0.515901,0.811101,0.275610
0.363393,-0.010500,0.415952,-0.261183,-0.317812,0.911471
0.187010,-0.293667,0.650353,0.956812,0.281906,0.070994
-0.247128,-0.826277,0.375572,0.371999,-0.283809,0.883781
0.515544,0.273744,0.844531,-0.223164,-0.689345,0.689203
-0.098487,-0.406946,0.600279,0.729165,-0.405302,0.551406
0.775416,0.315206,0.306624,0.359846,-0.394558,0.845479
0.601682,0.519352,0.374914,0.762189,-0.557985,0.328206
0.242760,0.093356,-0.617641,-0.484244,0.866812,-0.118931
0.589102,0.144511,0.136476,-0.387683,0.921725,0.011200
0.216605,-0.143973,0.805164,-0.888427,0.399334,0.226342
-0.035587,-0.403984,0.615957,-0.610249,0.767447,-0.196522
-0.185089,-0.422359,0.198309,0.139519,-0.407126,0.902653
0.748139,0.758499,0.472392,0.337726,0.584977,0.737389
-0.307975,0.583429,0.523373,0.327092,-0.303603,-0.894894
-0.070347,-0.472302,0.609420,-0.206074,-0.978528,-0.004123
0.442846,-0.129703,0.715960,0.415296,0.368619,-0.831654
0.091403,-0.137511,-0.989044,-0.122632,0.528533,0.840008
-0.665706,-0.458033,0.255314,0.076973,0.379002,0.922189
0.026385,0.110183,0.782856,-0.209453,0.193355,-0.958511
0.491707,-0.222858,0.596399,-0.656662,0.611949,0.440809
0.485352,-0.455139,0.716841,0.218076,-0.468958,0.855875
0.133779,-0.198020,0.052573,-0.545374,0.424490,-0.722755
-0.234283,0.076192,0.513456,-0.703433,0.710600,-0.015128
0.256200,0.154406,0.960607,0.795294,0.515480,-0.319041
0.015527,-0.551120,0.548482,0.416702,0.581342,0.698857
0.247128,-0.204819,0.785724,-0.559543,0.744689,-0.363799
-0.060549,-0.358687,0.520650,-0.074852,0.683663,0.725949
0.190851,0.073434,0.896709,0.278684,0.652934,0.704282
0.349621,0.250858,0.819001,-0.467493,-0.154158,0.870452
-0.063263,-0.324427,0.691772,-0.493244,0.665151,-0.560611
0.302944,0.108501,0.617457,0.865844,0.262302,-0.426042
0.553150,0.785153,0.433064,-0.015693,0.920880,0.389530
0.192373,0.096185,0.026451,0.925813,-0.340611,-0.163874
0.372397,0.073635,0.695546,0.962411,-0.078003,0.260155
0.481445,0.152789,0.824118,-0.296859,-0.795009,0.528994
0.295991,0.080298,0.191561,0.727874,-0.682291,0.068400
0.357766,-0.145857,0.797614,0.079269,0.884749,0.459278
0.283743,0.047655,0.940338,0.449410,0.888555,-0.092197
0.156950,-0.356127,0.763732,0.223319,0.758784,0.611863
-0.169531,0.188397,0.607737,-0.395033,0.570331,-0.720189
-0.246995,0.186780,0.325222,0.265758,-0.210159,0.940854
-0.187008,-0.055058,0.505195,-0.524093,0.450168,0.722963
0.184030,0.281753,0.525990,-0.507910,-0.585797,-0.631561
0.380277,-0.037894,0.427211,0.698592,0.532494,-0.477932
0.668026,-0.195800,0.481941,-0.600598,0.636852,-0.483427
0.362532,0.263041,0.404443,0.920392,-0.070028,0.384675
0.101666,0.127953,-0.207266,-0.343671,-0.861116,0.374659
0.443308,-0.139329,0.719038,-0.538923,-0.138488,0.830893
-0.169001,0.589016,0.709541,-0.305042,-0.616638,0.725745
0.283345,0.334118,0.808847,0.941940,-0.041995,-0.333145
0.365842,0.057280,0.891198,0.464837,0.870823,0.159983
0.098819,0.247762,0.880071,0.795088,0.002229,0.606490
0.505744,-0.370060,0.404562,0.477183,0.508457,-0.716776
-0.095376,-0.442216,0.481704,-0.351215,0.177432,-0.919329
0.283280,-0.001144,0.461777,0.037135,0.994731,0.095554
0.342670,-0.135424,-0.986571,0.333162,-0.078731,-0.939577
0.101930,-0.267348,0.593018,0.911927,-0.402640,0.079188
0.338102,0.041125,0.929263,-0.645390,0.149004,-0.749179
-0.282615,-0.720671,0.491003,0.959643,-0.280148,0.024524
0.574271,-0.070472,0.709620,0.703089,0.696562,0.143068
0.223956,0.093829,0.747896,-0.242036,0.915194,-0.322240
0.043467,-0.170423,0.777792,0.975925,0.116273,-0.184532
-0.312675,0.234302,0.675672,0.374252,-0.420633,0.826440
0.269706,-0.412734,0.680946,-0.465449,0.426108,0.775750
0.307777,0.222119,0.884595,-0.290449,-0.095641,0.952099
-0.268845,-0.979471,0.376717,0.946200,0.059314,-0.318100
0.419672,-0.461128,-0.025819,0.664963,-0.197032,0.720419
0.516006,-0.137375,0.706963,-0.421970,0.793940,-0.437722
0.219056,0.353369,0.687036,0.384890,0.805028,-0.451431
0.372993,-0.551794,-0.985992,0.297434,-0.011984,-0.954667
0.160527,-0.184897,0.760996,0.754779,-0.094945,-0.649071
0.580428,-0.199031,0.545694,-0.348160,-0.375519,0.858935
0.304532,0.063406,0.918964,0.043531,-0.670672,0.740475
-0.206939,0.441072,0.367457,0.988313,0.149368,0.030433
0.612474,0.624757,0.483795,-0.069456,0.079309,0.994427
0.140398,0.109914,0.576446,-0.254243,0.949469,0.184038
-0.063196,-0.694419,0.244607,0.792127,-0.541015,0.282556
-0.068361,0.675776,0.541945,0.925998,0.322165,-0.196821
0.842554,0.213369,0.118496,-0.341225,0.939977,-0.002917
0.073527,0.395638,0.807860,-0.657880,0.115929,-0.744146
0.711722,0.230261,0.638962,0.445023,0.880777,0.161823
0.220048,0.002492,0.746896,-0.560156,0.155864,0.813592
-0.279372,-0.773372,0.351055,0.731157,0.675522,-0.095286
-0.154168,-0.568822,0.038039,-0.652017,-0.574510,0.494784
0.339557,0.507573,0.510970,-0.738213,-0.216093,0.639019
-0.116099,-0.488388,0.525938,0.082891,0.210366,0.974102
0.129673,-0.016759,0.801008,-0.580813,0.808788,0.092291
0.101799,0.389379,0.327945,-0.041316,-0.522300,0.851760
0.419472,0.034125,0.270940,-0.374000,-0.051763,0.925983
0.091601,-0.078010,0.756156,0.134387,0.353157,0.925862
0.046381,-0.657871,0.622942,0.899344,-0.435757,0.036013
-0.119673,0.222791,0.456950,0.425744,-0.109114,0.898241
0.036648,0.210809,0.512022,0.599338,0.047495,-0.799086
0.261231,0.361043,-0.986137,0.190858,0.165789,-0.967516
-0.131657,-0.145789,0.547917,-0.500041,-0.304666,0.810640
0.078558,0.105473,0.567975,-0.394305,0.910802,0.122327
-0.083392,-0.299858,0.407429,-0.141968,0.535995,0.832199
-0.188465,-0.521977,0.431446,0.057118,0.357309,0.932238
0.314728,-0.708015,0.390106,0.344913,0.218512,-0.912846
-0.184295,-0.833816,0.381741,-0.070606,-0.120987,0.990140
-0.142119,0.408696,0.672660,-0.609894,-0.791878,0.030948
-0.045518,-0.305377,0.695205,0.604607,-0.421394,0.675927
0.598108,0.644612,0.481402,-0.324346,0.376049,0.867978
0.327110,0.089318,0.740951,-0.150884,-0.350613,0.924286
-0.361934,0.295148,0.619640,0.567020,0.758414,0.321397
-0.029431,-0.510938,0.610262,0.446063,0.891226,0.082124
-0.035919,-0.104126,0.535132,0.094789,-0.450446,0.887757
-0.097891,-0.044288,0.288104,-0.702281,-0.659150,-0.268927
0.615056,-0.248501,0.732927,0.077651,-0.966313,0.245374
-0.069090,0.137780,0.507392,0.149360,-0.664301,-0.732390
-0.026715,-0.054655,0.768388,-0.715050,-0.010408,-0.698996
0.328434,-0.002826,0.745015,0.683829,0.725718,0.075581
0.858643,0.103588,0.426382,0.390214,0.648002,0.654084
0.149203,0.035203,-0.760457,0.131512,-0.991293,-0.006613
-0.283147,-0.608468,0.247580,-0.121806,-0.423377,0.897728
0.155958,-0.164434,0.800021,0.066140,0.375234,0.924568
0.580099,0.091810,0.277648,0.583009,0.333817,-0.740720
0.181118,-0.522648,0.692337,0.000938,0.526468,0.850194
0.398153,0.064347,0.475141,0.406367,-0.107215,0.907398
0.172377,-0.025308,0.671029,0.786987,-0.446243,0.426050
0.154237,-0.243993,0.772873,-0.367861,-0.375650,-0.850626
-0.363127,0.275560,0.595715,-0.633040,0.354576,-0.688139
0.449665,0.267619,0.744752,0.989130,0.073918,-0.127112
-0.059688,-0.512957,0.581457,0.999066,0.008935,0.042279
-0.547521,0.042068,-0.110920,0.548584,-0.724548,-0.417236
-0.101268,-0.384330,0.684327,0.747071,0.188914,0.637335
0.117689,0.322878,-0.990056,-0.260079,0.086912,0.961668
-0.388353,0.234031,0.533369,0.413219,-0.667069,0.619894
0.571954,0.550582,0.472839,0.442720,0.113455,-0.889453
-0.622074,-0.312916,0.423476,-0.544665,0.191518,0.816493
0.855928,0.301945,0.637094,0.137750,-0.215374,0.966767
0.216407,-0.032913,0.811504,-0.098762,0.650366,0.753174
0.147682,-0.410514,-1.000000,-0.162580,0.001139,0.986695
-0.339490,0.277984,0.680828,0.212779,-0.799672,0.561471
0.790712,0.782864,0.461238,0.404193,0.799051,0.445135
0.232032,0.154001,0.856171,0.295205,0.247077,0.922934
0.275135,-0.156289,-0.992200,-0.422241,-0.074535,0.903414
0.386963,-0.122836,0.706358,0.486626,0.751359,-0.445707
0.372266,0.097598,0.938825,0.897911,-0.043308,0.438041
-0.085972,-0.507302,0.124691,-0.438968,0.490960,-0.752506
0.145364,-0.156289,0.624152,0.963088,0.110274,0.245562
0.219850,0.073770,-0.514560,0.760806,-0.644650,0.074840
-0.091601,-0.396244,0.272728,-0.645371,-0.005113,0.763852
0.576987,-0.109914,0.680841,-0.251130,-0.350839,-0.902134
0.325786,0.125733,0.774373,0.402128,0.361575,0.841164
-0.202435,-0.268492,0.002920,-0.383431,0.731409,0.563933
0.278909,-0.704314,0.394223,0.389158,0.254469,-0.885326
0.228987,0.053644,-0.642921,-0.585901,0.799354,0.133243
0.481180,-0.010231,0.415742,0.585910,-0.489738,-0.645651
-0.002217,-0.021673,0.758957,0.793833,0.430381,0.429652
0.740657,-0.117048,0.637910,-0.314100,-0.350851,0.882182
-0.043730,-0.154069,0.679237,0.152540,-0.014700,-0.988188
-0.275464,-0.641449,0.434761,-0.008328,0.282755,0.959156
0.612012,0.128627,0.543931,-0.245997,0.959951,-0.134089
-0.692588,-0.549707,0.401615,0.980912,0.170264,-0.093921
-0.046248,0.380292,0.681078,-0.032097,0.880568,-0.472832
0.512101,0.031502,0.875717,0.503794,0.821524,-0.267002
0.495813,0.072963,0.654048,0.165810,0.889321,-0.426164
0.780581,-0.078616,0.475601,-0.433682,-0.798991,-0.416574
0.152911,-0.114088,-0.989267,0.185262,-0.030295,0.982222
-0.081735,0.568015,0.537052,-0.558883,-0.384555,0.734688
0.296389,0.136098,0.988267,0.546778,-0.141077,-0.825307
0.351276,-0.182272,0.857881,0.387836,0.821049,0.418881
0.295264,0.064683,0.156705,-0.231514,-0.922324,0.309387
0.911809,0.226897,0.569948,0.095525,-0.104146,0.989964
0.359752,-0.163760,0.800902,-0.031792,0.446328,0.894305
0.678021,-0.271723,0.546325,-0.289557,0.915234,-0.280183
-0.078359,-0.188261,0.680578,0.256032,0.672078,0.694808
0.008574,-0.469004,0.392408,0.855801,-0.106673,-0.506187
-0.152248,-0.620111,0.433827,0.117527,-0.243573,-0.962736
-0.359552,-0.604496,0.500171,0.303071,-0.040622,-0.952102
0.276725,0.136636,0.126572,0.184644,0.977349,0.103421
0.114246,0.248232,0.751802,-0.341481,-0.439486,0.830808
0.210449,0.145992,0.856303,0.206719,0.223486,0.952534
-0.533420,-0.178367,0.391001,0.502093,-0.672156,-0.544158
0.414374,0.288753,-0.981007,-0.205809,-0.006055,0.978574
0.231436,0.089924,0.981954,-0.415727,0.134949,0.899422
-0.331478,-0.711583,0.499303,0.970573,0.108742,-0.214857
0.169597,0.021741,0.154049,0.580157,-0.442840,-0.683602
0.171054,-0.054049,0.912427,-0.249535,0.677503,0.691897
-0.351343,-0.727198,0.511917,0.376851,0.367067,0.850438
0.268978,-0.057346,0.839599,0.670440,0.640507,0.374516
-0.419803,-0.621727,0.484059,0.910064,0.352367,-0.218223
-0.053134,-0.080703,0.663229,0.577753,-0.194354,-0.792735
-0.099413,0.322541,0.312082,0.867463,0.485838,-0.107096
-0.214817,-0.885172,0.377190,0.133757,0.293606,0.946522
-0.010361,0.197147,0.352331,-0.612641,-0.340177,0.713407
-0.270035,0.214782,0.499198,0.138354,-0.708490,0.692026
0.248785,0.724978,0.562082,0.641821,0.017813,0.766648
0.086503,0.000201,0.674002,-0.000109,0.752935,0.658095
0.252226,-0.655650,0.396012,0.489294,0.290264,-0.822398
-0.239713,0.454601,0.341177,-0.471370,-0.825227,0.311145
0.750058,0.330283,0.247988,-0.673899,-0.250933,-0.694904
-0.168536,0.077540,0.560780,0.905972,-0.384451,0.177235
0.691529,0.752979,0.456621,-0.455630,0.865992,0.206056
0.742643,0.202463,0.128098,-0.341225,0.939977,-0.002917
0.236403,-0.109308,0.543221,-0.423734,0.505016,-0.751936
-0.059753,-0.640910,0.637423,0.376729,0.791487,-0.481272
0.494158,-0.433061,0.390001,0.438768,-0.131313,-0.888954
0.210911,0.007270,0.907916,-0.452950,-0.310816,-0.835601
-0.235342,-0.109914,0.231428,-0.401851,0.243126,-0.882839
-0.806865,-0.255906,0.346464,0.732708,0.563452,-0.381656
0.006059,0.767652,0.633451,-0.742890,0.274246,0.610659
0.371007,-0.305108,0.582193,-0.700936,0.001338,0.713223
0.524349,0.793028,0.446480,0.114178,0.885882,0.449640
0.253353,0.236253,0.582207,0.715385,-0.173778,-0.676776
0.199127,0.267685,0.021532,0.974426,-0.214825,0.065914
0.148741,0.230261,0.737584,-0.101028,0.977645,0.184402
0.374714,0.229992,0.868036,0.523382,0.013112,-0.851997
0.022744,0.436023,0.804362,0.391374,0.850431,0.351558
0.158407,0.072491,-0.623178,0.504359,-0.828553,0.243150
0.793888,0.012924,0.449742,0.111072,0.417444,0.901889
-0.286390,-0.141818,0.454872,0.357372,0.250996,-0.899604
0.511571,0.025308,0.872994,-0.007417,0.995893,0.090238
0.201908,-0.377868,0.551784,-0.758605,-0.304808,-0.575856
0.267190,-0.588880,0.631465,0.741564,-0.534310,0.405703
0.561825,0.157501,0.282606,0.691838,0.452245,-0.562880
0.231238,-0.014001,0.668491,0.495182,-0.865676,-0.073479
0.322939,0.007740,0.777503,0.568596,0.364375,0.737515
0.341610,-0.284311,0.530949,-0.260788,-0.957077,0.126467
0.373391,0.023088,0.739293,0.450547,0.448839,-0.771719
-0.416756,-0.681160,0.516073,0.200258,0.467470,0.861028
0.367168,0.078010,0.267678,-0.286066,0.254481,-0.923800
-0.374383,0.183617,0.592795,0.401614,0.908854,0.112650
0.188996,0.294474,0.843992,0.817647,0.161026,0.552742
0.129804,0.446323,0.329300,0.240206,-0.260201,0.935199
-0.000827,0.364138,0.769322,0.948563,0.272596,-0.160995
-0.372926,-0.671603,0.493792,-0.306175,-0.866515,0.394219
0.259245,0.003568,0.858421,-0.688118,0.659453,0.302680
0.250306,0.049808,0.782712,-0.267043,0.157840,0.950671
0.353925,0.535977,0.567015,0.055517,0.455648,0.888427
0.195618,-0.364071,0.485255,0.809011,0.551480,-0.203396
0.836793,-0.081443,0.467907,-0.501406,-0.696936,-0.512711
0.177146,-0.320454,0.494765,0.931596,0.362926,-0.020323
-0.543615,-0.578111,0.369232,0.638287,0.502018,-0.583581
0.918563,-0.031366,0.426685,0.935554,0.117524,0.333056
0.407621,0.347379,0.698072,-0.338757,0.197738,0.919860
0.738604,-0.113684,0.525530,-0.372910,-0.926866,0.043103
0.255669,0.053376,0.697190,-0.734710,-0.559153,0.384120
-0.060814,-0.924145,0.223049,-0.435697,-0.869629,0.232193
0.667229,0.501179,0.515850,0.010740,0.903360,0.428748
-0.018307,-0.038500,0.218209,-0.142438,-0.087969,-0.985887
-0.688217,-0.441004,0.442718,0.534016,0.757487,-0.375554
0.147217,-0.167801,-0.242832,-0.228974,0.300306,-0.925952
-0.413845,-0.565458,0.253906,-0.345431,-0.683750,0.642778
0.418148,0.068251,0.107776,-0.103223,0.949273,0.297029
-0.172575,0.118665,0.500921,0.078648,0.996679,-0.021094
0.057173,0.722219,0.657179,-0.366964,0.666574,0.648858
-0.183236,-0.542304,0.372928,0.162334,0.254917,0.953239
0.183501,0.158309,0.157153,-0.660049,-0.667625,0.344401
-0.264806,-0.535437,0.279042,0.114285,0.966754,-0.228747
0.254941,0.120281,-0.626164,0.787850,-0.548300,0.280462
0.157680,0.092212,-0.501618,0.920041,-0.390932,-0.026397
-0.348362,0.255167,0.594307,-0.031633,-0.207401,0.977744
0.147682,0.063607,0.838573,-0.665874,-0.485282,-0.566668
0.399212,0.365283,0.698006,-0.419230,0.144135,0.896366
0.621809,-0.056068,0.478824,-0.229042,0.459312,0.858238
-0.041083,-0.311301,0.662335,-0.153982,0.983819,0.091597
-0.103585,0.158580,0.508010,0.142709,0.507578,-0.849705
0.300560,0.130443,-0.025359,-0.590731,-0.804605,0.060389
0.087364,-0.180049,0.787815,0.836999,0.456778,-0.301309
-0.749660,-0.428216,0.347990,0.463517,0.878687,-0.114287
0.101334,0.110789,0.827222,-0.752064,0.259762,-0.605743
-0.556990,-0.346301,0.470524,-0.302434,-0.299337,0.904948
0.132851,-0.067039,-0.228784,0.140023,0.088851,0.986154
0.154303,-0.320791,0.462961,0.591104,0.673049,-0.444524
0.154833,-0.242444,0.615471,0.387357,0.607083,0.693833
0.440860,-0.255031,0.672989,0.404770,-0.059355,-0.912490
0.247195,0.084741,0.031844,0.821992,-0.564363,0.076312
0.323336,0.175271,0.899616,-0.760031,-0.566942,0.317693
0.197604,0.089386,0.888318,0.560699,0.799812,0.214283
0.381204,-0.018645,-0.988517,0.301052,0.199050,-0.932602
0.204886,0.306455,0.661283,-0.592699,0.467714,-0.655706
0.113252,0.210339,0.655561,-0.549323,-0.664332,0.506861
-0.020623,-0.519688,0.597096,0.616688,0.726384,-0.303418
0.102858,-0.137375,0.788078,-0.369256,0.742471,-0.558916
-0.627370,-0.650669,0.237531,0.018563,0.733603,0.679325
0.318900,0.211080,-0.286237,-0.732450,0.680680,-0.013837
0.344392,-0.022414,0.682433,-0.778986,-0.560226,-0.281650
0.214023,0.048193,0.155074,-0.447128,0.549105,-0.706088
-0.839905,-0.606381,0.269730,-0.536756,0.312808,0.783610
0.252094,0.145050,0.833693,-0.521698,0.201420,0.829012
-0.226537,-0.348725,0.720537,0.148626,0.600039,0.786043
0.782899,0.096250,0.426527,-0.527204,-0.275555,-0.803819
-0.206608,0.165983,0.327721,0.308603,-0.112941,0.944462
0.184494,0.082184,-0.536907,0.592091,-0.798162,0.111201
0.300958,0.102376,0.042484,-0.417209,0.899067,0.132723
0.167544,0.355590,0.398077,0.650239,0.516064,-0.557555
-0.300493,0.018778,0.500158,-0.748059,0.373896,0.548279
0.427154,0.464427,0.705793,0.239338,0.415971,-0.877317
-0.186083,-0.585043,0.484532,-0.266772,0.350235,-0.897869
0.181979,0.095916,0.850292,0.280425,0.773275,-0.568690
0.011421,0.061925,0.857539,0.391616,0.240474,0.888149
0.450791,0.103319,0.817633,-0.529805,0.422052,-0.735648
-0.204820,-0.794104,0.441916,0.788451,0.470891,0.395735
-0.773099,-0.431849,0.323762,0.313239,0.922798,-0.224333
0.418878,0.038231,0.823868,-0.703686,0.149019,-0.694708
0.005794,0.974558,0.646578,-0.754288,0.641972,-0.137551
-0.127353,-0.219829,0.700163,0.596575,0.327459,0.732714
0.370346,-0.078548,0.781173,-0.537640,-0.098774,0.837369
0.384183,-0.568485,-0.985808,-0.325719,-0.005299,0.945452
0.308969,0.271388,0.581167,-0.796975,0.099673,0.595731
0.334063,0.120415,0.898064,0.915581,0.347261,0.202782
0.142186,0.015683,-0.877072,0.855902,0.515777,-0.037496
0.173238,0.133608,0.067883,0.622153,0.726201,-0.292502
0.106830,0.157232,0.588454,-0.552194,-0.829064,0.087948
0.490582,0.158849,0.691561,0.076062,0.980190,0.182870
-0.318436,-0.691593,0.366352,0.484722,-0.636828,-0.599579
0.235409,-0.204953,0.745804,0.156638,0.539284,0.827428
0.170060,-0.914250,0.448414,-0.538875,-0.505175,-0.674101
0.218527,-0.293531,0.668885,0.325287,0.573995,0.751478
0.263284,0.258733,0.881031,0.612725,0.763343,-0.204634
0.405900,-0.117319,0.787368,0.873948,0.221328,-0.432700
-0.029231,-0.642391,0.525188,0.580788,0.473580,-0.662123
0.271627,-0.576024,0.633661,0.741564,-0.534310,0.405703
0.056643,-0.522246,0.050350,0.036774,0.152817,0.987570
0.003014,-0.280003,0.644499,0.023131,-0.998314,0.053234
0.125700,0.363668,0.783935,0.616866,-0.734785,0.282077
-0.245142,0.038165,0.523899,-0.533319,0.174965,0.827622
0.648626,0.123915,0.260970,-0.484261,0.657936,-0.576725
0.562552,0.427947,0.777306,0.028576,-0.562592,0.826240
-0.171052,0.014202,0.323960,0.215157,-0.117369,0.969501
0.023140,-0.358013,0.621113,-0.629514,0.406581,0.662121
0.014070,-0.585111,0.608736,0.772476,0.575395,0.268704
0.215878,-0.276098,-0.988307,0.005456,0.046304,0.998913
0.311750,0.444236,0.605829,0.901651,0.395423,0.175118
0.079684,0.069529,0.846307,0.128012,0.165173,0.977922
0.439336,0.263782,0.874730,-0.438385,0.872305,-0.216569
0.508789,-0.219829,0.426580,0.746803,0.663660,-0.042903
0.030160,0.340178,0.531975,-0.061306,-0.630621,0.773666
0.225942,-0.091538,0.783054,0.749846,0.595710,0.287855
0.326051,0.341993,0.692600,-0.316803,0.260999,0.911875
0.437615,-0.058759,-0.982533,-0.367670,-0.032318,0.929395
-0.713973,-0.451032,0.250631,0.272358,0.278425,0.921032
-0.415235,-0.626372,0.242490,-0.199968,-0.341534,-0.918350
0.322541,-0.409100,-0.989951,-0.051303,-0.055156,0.997159
0.206543,0.230935,0.678303,0.358039,0.678676,0.641254
0.000431,0.374370,0.679092,0.214602,-0.797809,0.563424
-0.451385,-0.684122,0.470156,-0.557987,0.554463,0.617432
0.390473,0.454331,0.705148,-0.446645,-0.184149,0.875555
-0.254675,-0.553813,0.018046,0.655310,0.559672,-0.507284
-0.003541,0.074241,0.788249,0.291382,-0.672018,0.680800
0.236269,0.095041,0.707568,0.977932,0.002435,0.208907
0.044924,-0.093155,0.567107,-0.554163,0.831289,-0.043163
-0.044062,0.559870,0.533093,0.441997,0.403585,0.801098
-0.168074,-0.405263,0.484177,-0.062315,-0.039800,0.997263
0.324528,0.159050,0.885897,0.789279,-0.515943,0.332928
0.543815,-0.424580,0.698480,-0.598020,0.103029,-0.794832
0.407092,-0.404657,0.541393,-0.382946,0.870154,0.310135
0.117622,0.097261,0.781383,-0.477482,-0.486429,-0.731709
-0.944317,-0.263244,0.337323,0.493364,0.171072,0.852834
0.390671,-0.418859,0.592716,0.950447,-0.069698,0.302974
0.086768,0.075048,-0.918109,0.826717,0.562496,-0.011715
0.161850,-0.022346,0.698558,0.122022,-0.320663,0.939301
0.100011,-0.736084,0.054454,-0.408434,-0.545788,0.731640
-0.109940,0.050751,0.229955,0.374787,-0.272846,0.886053
-0.012878,0.545603,0.603265,-0.332542,0.024401,0.942773
0.012747,0.658477,0.633609,0.885174,0.387880,-0.256934
0.277188,0.187319,0.921213,0.650776,0.251770,-0.716312
0.029829,-0.625901,0.621968,-0.695883,0.637536,0.330597
-0.117224,-0.609949,0.633635,0.040441,0.809331,0.585959
0.094582,0.039040,0.846583,-0.367519,-0.679656,-0.634821
0.684907,0.655786,0.479047,0.463536,0.294290,0.835780
0.157546,0.141348,0.880031,0.539212,0.806781,0.241567
0.103387,0.404052,0.806677,0.570396,-0.416940,0.707679
0.538916,0.184695,0.621166,0.115460,0.905654,0.407994
-0.225742,-0.463821,0.491214,0.077467,0.194824,0.977774
0.076308,0.184022,0.699137,0.344170,0.866012,0.362726
0.294072,0.254561,0.356514,0.052589,-0.665942,0.744148
0.670739,0.190213,0.262298,0.173266,-0.296865,0.939069
0.765683,0.000136,0.449361,-0.037008,-0.713583,0.699593
0.239183,-0.137780,0.451123,-0.694277,0.314696,0.647261
0.591155,0.066569,0.444520,0.027035,0.380421,0.924418
0.168869,0.068453,0.846320,-0.826542,0.448422,0.340214
0.358758,-0.156425,0.660770,0.391057,0.167900,-0.904922
-0.139933,0.171233,0.660020,-0.397223,0.069423,-0.915092
0.170524,-0.362926,0.783672,-0.540513,-0.622767,-0.565692
0.162580,0.330484,0.790748,0.889257,0.390482,0.238212
0.496011,0.046106,-0.097898,0.262492,0.962445,-0.069270
-0.407686,0.275291,0.674646,-0.536808,-0.838446,0.094048
-0.271957,-0.444975,0.369798,0.866384,-0.287058,-0.408628
0.127818,0.396513,0.698953,-0.681172,0.570205,0.459208
-0.322739,-0.306858,0.130847,-0.477879,0.457309,0.750000
0.098024,0.188598,0.701873,0.503600,0.623162,-0.598377
-0.291819,-0.326243,0.145039,-0.113871,0.100777,0.988371
0.412984,0.142424,0.809123,0.216137,0.892229,-0.396501
0.293740,0.059365,0.744410,0.553990,0.671296,0.492399
-0.001622,-0.571380,0.353081,0.833576,-0.309680,0.457439
0.097827,0.757018,0.619351,0.991952,0.087966,0.091071
-0.240507,0.294406,0.667162,-0.579826,-0.764380,-0.282001
0.368293,-0.303561,0.526622,0.521341,0.354484,-0.776238
-0.190849,-0.136905,0.437628,-0.415868,0.702486,-0.577553
0.228789,0.162146,-0.623902,0.829459,-0.472954,0.297173
0.374979,-0.067914,0.841532,0.828261,-0.520001,-0.208765
0.160128,0.561082,0.574315,0.481648,0.164265,0.860832
0.274010,0.135962,0.982941,-0.362219,0.459137,0.811167
0.143776,-0.607593,0.657797,0.020537,0.754843,0.655584
-0.266859,-0.501380,0.422976,0.514738,-0.522596,-0.679660
0.270037,0.077608,0.899655,-0.513197,-0.804625,0.298676
0.212237,-0.207175,0.664032,-0.745469,0.597760,0.294887
0.121992,0.416101,0.382057,0.835964,0.491438,-0.244239
0.123185,-0.301339,0.810754,0.382357,0.705756,0.596415
0.453240,0.532746,0.710988,0.286199,-0.782565,0.552886
0.544609,0.040453,0.284711,-0.546077,0.149657,0.824259
0.501838,0.059906,0.811030,-0.249423,0.773496,0.582660
-0.213890,0.303023,0.603238,-0.619886,0.422724,-0.661094
0.145298,0.890221,0.552678,0.897834,0.427472,0.105651
0.216672,-0.215589,0.400260,-0.497503,0.238473,-0.834039
0.302348,-0.138655,0.590625,0.469152,0.097943,-0.877669
0.662065,0.189069,0.647262,-0.584146,0.486793,0.649466
0.283611,-0.144376,-0.985545,-0.369297,-0.043280,0.928303
0.197935,-0.326378,0.776043,0.501809,0.610549,0.612713
-0.357633,-0.158646,0.421503,0.512112,0.265180,-0.816958
-0.271096,-0.557582,0.277043,0.136005,0.977668,-0.160210
0.023341,-0.271522,0.638133,-0.138467,0.884878,-0.444767
-0.132453,-0.529043,0.434248,0.185454,0.332333,0.924750
0.384116,-0.201118,0.870272,0.997394,0.051343,0.050688
0.160262,0.155012,0.938773,0.162545,0.940727,-0.297676
0.278511,0.194791,0.854185,0.156386,-0.748237,-0.644737
-0.301685,-0.500302,0.482941,-0.385202,0.858081,0.339584
0.581091,-0.366090,0.636752,0.391396,0.747305,0.536977
0.265204,-0.141549,0.619180,0.485206,-0.592373,0.643172
0.013343,-0.259137,0.660822,-0.329240,0.114854,-0.937235
0.234019,-0.051424,-0.988162,-0.026395,-0.476718,0.878660
0.311287,-0.338090,0.658323,0.701185,0.494904,0.513234
0.314001,0.236185,0.781541,-0.708272,0.184849,-0.681308
-0.182838,0.169214,0.636897,0.680756,-0.120862,-0.722470
-0.043201,-0.299657,0.692429,-0.592120,0.358743,-0.721593
0.523555,0.382245,0.749987,-0.628801,0.542330,-0.557214
0.447281,-0.059903,0.696099,0.748943,-0.341422,0.567905
0.143510,-0.586054,0.391356,0.835242,0.375418,-0.401785
-0.060549,0.304032,0.323710,0.839829,0.532112,-0.107445
0.166087,-0.111058,0.926211,-0.207010,0.663320,0.719133
0.214421,0.322946,0.836587,-0.725801,-0.427325,-0.539079
-0.591287,-0.598573,0.213921,-0.679696,0.658676,0.322737
0.292482,-0.376389,0.499684,0.418458,0.392743,-0.818929
0.325322,0.043886,0.935353,0.838482,0.259911,0.478950
-0.004733,-0.467254,0.188457,-0.181281,0.938697,0.293231
-0.334790,0.298985,0.602186,-0.184130,-0.263967,0.946793
-0.059688,-0.719054,0.255288,-0.681546,0.540392,-0.493428
-0.010361,-0.272867,0.265179,0.216977,-0.495018,-0.841355
-0.176481,-0.124790,0.437484,0.290528,-0.820393,0.492492
0.433509,0.241099,0.845886,0.885521,-0.401423,0.233905
0.147153,-0.332571,-0.993779,-0.123620,-0.200531,0.971857
0.317842,0.190617,0.845662,-0.178993,0.876606,-0.446680
0.159931,-0.142087,0.414005,-0.127447,0.121671,-0.984354
0.295660,0.090530,-0.980376,0.094155,0.123886,0.987819
0.616248,-0.159857,0.551915,0.335935,0.066891,-0.939507
0.528322,-0.118126,0.725128,-0.285714,-0.878904,0.381963
0.596782,0.012183,-0.097385,0.307742,0.951462,-0.003744
-0.011884,-0.599112,0.053559,-0.363475,-0.009420,0.931556
0.357501,-0.049606,0.828761,0.850497,0.413813,0.324674
0.147417,-0.331156,0.046838,0.227222,-0.064224,0.971723
-0.334590,-0.536649,0.357474,0.821742,-0.053870,-0.567308
-0.703313,-0.268223,0.330484,0.494425,0.732125,-0.468548
-0.024464,0.634247,0.529252,-0.636794,0.119675,-0.761690
-0.369152,-0.681497,0.511996,0.278226,0.534252,0.798226
0.296389,0.316350,0.798377,0.319719,0.692240,0.646980
0.374848,-0.371408,-0.985953,-0.278303,-0.078461,0.957283
-0.253814,-0.747863,0.442929,-0.517442,-0.598294,-0.611799
0.210184,0.324291,0.607553,-0.058476,-0.544745,0.836560
-0.330420,-0.698458,0.255117,-0.071080,0.397962,0.914644
0.225876,-0.207847,0.545286,0.963378,-0.265219,0.039512
-0.125698,-0.537390,0.617128,0.718251,0.064393,0.692798
