-0.228090,-0.019357,0.717880,0.174040,-0.888776,0.424014
0.160450,0.771851,0.454356,0.882851,0.128126,-0.451838
-0.394335,0.442348,0.657479,-0.407602,-0.790021,-0.457960
-0.362538,0.030350,0.676296,-0.344353,-0.847688,0.403541
-0.124253,0.329135,0.758074,0.859004,0.464143,0.216066
-0.598560,0.672299,0.876791,0.450117,0.839299,-0.304914
-0.447235,0.436548,0.915967,0.377746,0.638398,-0.670639
-0.631906,0.697819,0.604214,0.248043,-0.823213,0.510681
0.142087,-0.079125,-0.987777,-0.059285,0.007344,0.998214
-0.656749,0.495186,0.702911,-0.596643,-0.465526,-0.653684
-0.246635,0.738867,0.651427,-0.028400,-0.911352,0.410647
0.245506,-0.094051,0.551611,-0.013815,-0.499103,0.866432
0.027192,-0.028886,0.727678,0.890439,0.310020,-0.333174
-0.337158,0.259569,0.687060,-0.607303,-0.393992,-0.689894
0.356534,-0.213059,-0.008086,-0.074153,-0.591242,0.803078
-0.577639,0.196604,0.757412,-0.300984,0.521640,0.798311
-0.648547,0.305750,0.727322,-0.639095,-0.345414,0.687202
-0.361406,-0.521772,0.404669,0.324856,0.767542,-0.552583
-0.752859,-0.070064,0.783705,0.054436,0.327177,0.943394
-0.444917,0.711147,0.641120,0.926028,0.364258,0.098933
-0.013878,0.231450,0.894370,-0.625249,0.352978,-0.696039
0.158012,-0.191203,0.667972,0.857850,0.348964,0.377251
0.014237,0.222657,0.783146,0.096154,-0.953910,0.284271
-0.012452,0.724405,0.886894,-0.437433,-0.889333,0.133189
0.730987,-0.174146,-0.955551,-0.148926,0.073029,0.986148
-0.212040,-0.118107,0.478208,-0.418284,0.777459,0.469676
0.031531,0.646709,0.881758,0.590444,0.477359,0.650772
-0.071353,0.111177,0.319975,-0.273415,0.147019,0.950594
0.109988,0.789042,0.425418,0.800215,0.114657,-0.588651
0.365749,-0.129369,0.559698,0.034804,0.060973,0.997532
0.255370,-0.037349,0.397074,-0.467760,0.141230,-0.872499
0.044547,0.242447,0.977640,0.545700,0.693300,0.470687
-0.014056,0.180743,0.457272,-0.597057,-0.285127,-0.749817
-0.108501,-0.351458,-0.986879,0.024933,0.328483,0.944181
0.292105,0.685224,0.528760,0.833192,-0.126455,-0.538331
0.161103,-0.197934,0.417027,-0.081185,-0.315256,0.945528
0.620852,0.130569,-0.972113,0.316429,-0.077685,-0.945430
0.409789,-0.065802,-0.979793,-0.056461,0.107209,0.992632
-0.006804,0.472000,-0.704606,-0.679349,0.733803,-0.004306
0.385124,-0.021089,0.459153,0.383949,0.028121,-0.922926
-0.263870,0.523041,-0.326179,0.655172,0.445282,0.610307
-0.151831,0.823424,0.677092,0.069810,0.711748,-0.698957
0.048650,0.510112,0.907508,0.878093,0.307458,0.366635
-0.013523,-0.026018,0.692315,0.643228,0.384890,0.661905
-0.181611,-0.766653,-0.993880,-0.125014,0.032098,0.991636
0.541978,-0.056403,-0.972181,0.187540,-0.189485,-0.963807
-0.393802,0.109046,0.421587,-0.122036,-0.673524,0.729021
-0.308390,0.106179,0.211531,-0.279464,0.338306,-0.898582
-0.217094,-0.490789,0.260320,-0.867071,0.343267,0.361048
0.093170,0.758588,0.872874,-0.747532,-0.217453,-0.627623
-0.420963,0.477527,0.945719,0.773698,0.369691,0.514509
-0.015304,0.465603,-0.304819,-0.743805,0.507710,0.434723
0.742756,0.222324,-0.963993,-0.059824,0.227849,0.971857
-0.239978,0.676297,0.915018,0.172736,0.121104,0.977495
-0.471962,0.581479,0.741189,0.289483,0.205163,-0.934937
0.447591,-0.075794,-0.979250,-0.117937,0.084328,0.989434
-0.814614,-0.173414,0.321331,-0.054165,0.173490,0.983345
-0.092811,-0.588674,-0.985184,0.432328,-0.032406,-0.901134
-0.272192,-0.720143,0.316771,0.972744,-0.071703,0.220516
-0.417041,0.486393,0.618878,-0.644167,0.567504,0.512823
-0.166037,-0.409828,-0.980556,0.935009,-0.098813,-0.340579
-0.062972,0.162352,0.829358,-0.446299,-0.114335,-0.887550
-0.060418,-0.423887,-0.988727,-0.165549,0.505903,0.846555
-0.164314,0.746993,0.876435,0.805618,0.472990,0.356735
-0.452880,0.139166,0.753310,0.331259,-0.080903,0.940065
-0.483313,0.464468,0.894709,0.906362,-0.245177,0.344086
0.599336,-0.246376,-0.960501,-0.234902,0.184970,0.954257
0.017622,0.702484,0.193443,0.298541,-0.224908,0.927518
0.392492,0.565483,0.567885,0.802239,0.048997,-0.594989
0.039080,-0.631251,0.510333,-0.776455,0.627200,0.061134
0.146483,0.444011,0.424723,0.920791,-0.325138,-0.215476
-0.170318,0.848342,0.670650,-0.342032,0.535077,-0.772468
-0.215726,0.213193,0.201665,-0.196417,-0.051429,-0.979171
-0.110641,0.002101,0.444880,0.123021,0.389858,0.912621
-0.226011,-0.669098,-0.996898,-0.077395,0.098335,0.992139
-0.634105,-0.359389,0.351676,0.020309,0.174721,0.984408
-0.699248,0.357124,0.268389,0.129446,0.640657,0.756837
-0.643022,0.445146,0.722948,0.127306,-0.652059,0.747404
-0.008411,0.460868,-0.942176,-0.683897,0.718754,0.125210
0.016258,0.652375,0.899575,0.827562,0.320122,0.461154
0.445809,0.221055,-0.814915,0.841284,0.540025,0.024795
-0.098456,0.039013,0.424435,0.149952,0.328926,0.932374
0.104401,0.493323,0.815525,-0.543034,0.765965,0.344110
-0.403786,-0.471133,0.414162,-0.295461,-0.670231,0.680804
0.354633,0.176412,-0.546576,0.989732,-0.142927,-0.001521
-0.594283,0.514777,0.889793,0.635685,0.771939,-0.003915
-0.095604,-0.078129,0.500687,-0.293340,0.068695,0.953537
0.190586,0.609131,0.659784,0.267688,-0.642585,0.717933
-0.182024,0.454605,0.893590,-0.589405,-0.057618,0.805781
-0.385716,-0.115374,0.601434,0.410854,0.436044,-0.800665
-0.585663,-0.393503,0.351320,-0.284873,0.400116,0.871065
-0.011618,0.485856,-0.319958,0.213110,0.976850,-0.018682
0.122174,-0.142562,-0.986285,-0.258633,0.045804,0.964889
0.713632,-0.135831,-0.957416,-0.155911,0.179768,0.971275
-0.259887,0.481594,0.848836,0.943994,-0.020769,-0.329307
0.050848,-0.279693,0.322772,0.195775,0.181000,0.963800
-0.119380,0.393837,0.848430,0.635182,0.770279,-0.056688
-0.254598,0.308145,-0.041855,0.423847,0.518806,-0.742424
-0.215015,-0.155621,0.662463,-0.700016,0.489347,0.520113
0.181553,0.136832,0.027056,-0.048709,-0.327560,0.943574
0.273027,0.247445,0.493499,-0.100068,-0.408514,0.907250
-0.178636,-0.045878,0.697944,-0.030251,-0.264086,0.964025
-0.554697,0.078662,0.303379,-0.456970,0.658684,0.597758
-0.547920,-0.308279,0.598145,0.146583,0.033748,-0.988622
-0.054117,0.287892,0.424588,-0.607562,-0.602516,0.517536
-0.061724,0.430553,0.924410,-0.107057,0.026040,0.993912
-0.703587,-0.283760,0.348150,0.163325,0.356928,0.919743
-0.533478,0.278163,0.803845,0.910830,-0.408798,0.057201
-0.184165,0.735333,0.676567,0.971727,-0.150351,0.182048
-0.491276,0.256641,0.214786,0.042254,-0.247483,0.967970
0.418587,0.201598,-0.789757,0.945517,0.324008,0.031887
-0.169248,0.107045,0.299327,0.433796,0.881864,-0.184762
-0.881481,-0.124769,0.322501,0.129634,-0.000942,0.991562
-0.228743,0.482794,-0.031412,0.668470,0.183878,-0.720650
-0.417219,0.653709,0.948668,-0.357169,-0.764582,0.536511
-0.725161,0.406163,0.730509,0.682472,-0.730906,-0.002874
0.022320,-0.075196,0.321670,0.155102,-0.094227,-0.983395
-0.245862,0.330534,0.616776,0.341468,0.937933,-0.060668
-0.162768,0.091054,0.427080,-0.553505,-0.535739,-0.637665
0.120273,0.099119,0.813389,-0.628555,0.776917,0.036310
-0.217569,0.075396,0.288257,0.562383,0.120035,0.818118
-0.049125,0.452076,-0.133686,0.536124,0.843110,-0.041670
-0.039435,0.451210,-0.680313,0.865807,-0.498385,-0.044615
-0.763917,-0.419625,0.354303,0.222544,-0.135162,0.965508
-0.185652,0.872533,0.687620,0.242319,-0.654442,0.716231
-0.526643,-0.252773,0.591466,-0.110243,0.160993,0.980779
0.422925,0.345594,0.416688,0.053421,0.675368,0.735544
-0.505363,-0.191736,0.686874,-0.776406,0.550768,-0.306347
-0.240453,0.899720,0.429453,0.728062,-0.057811,0.683069
-0.076762,0.264433,0.470732,0.463895,0.063702,0.883597
-0.184045,0.092656,0.576650,-0.026171,0.192118,0.981023
-0.988649,-0.025221,0.783146,0.089153,0.979415,0.181101
0.017741,-0.448476,-0.983658,0.141396,-0.074787,0.987124
-0.440161,0.280429,0.824459,-0.714620,0.370639,0.593250
-0.492049,0.190406,0.211616,0.099257,-0.003255,-0.995057
-0.036225,-0.101583,0.744156,0.734887,-0.640567,0.222744
-0.083121,0.092855,0.206428,-0.638534,-0.486316,-0.596465
-0.495140,0.490057,0.920867,0.977126,-0.010802,-0.212387
-0.187731,-0.106712,0.477462,-0.457393,0.865156,0.205661
0.287646,-0.215593,-0.977216,-0.135766,-0.033646,0.990169
-0.763797,0.380842,0.756802,0.014493,-0.998970,0.042990
-0.005142,0.306945,0.959043,0.794755,-0.229942,-0.561686
-0.587506,-0.071597,0.338673,0.118191,0.493790,0.861511
-0.568308,0.187539,0.821526,0.498099,-0.805074,-0.322107
-0.228329,0.600069,0.807608,0.948113,-0.311199,-0.065090
0.701983,0.139296,-0.965010,0.208675,-0.283867,-0.935882
0.233796,-0.088988,-0.986302,-0.055135,0.153391,0.986626
-0.095782,0.447809,0.923613,0.537780,0.432376,-0.723770
-0.159322,0.828353,0.681093,-0.107339,0.678449,-0.726764
-0.082468,0.395837,0.784841,0.144712,-0.972472,0.182637
-0.726768,0.090989,0.278357,0.937901,0.124257,-0.323884
-0.603555,0.201001,0.419078,-0.137787,0.680571,0.719609
-0.356832,0.804098,0.899710,0.886329,0.061942,0.458895
-0.098220,-0.007497,0.431030,-0.294829,0.102292,-0.950059
0.430000,-0.256905,-0.969808,-0.148477,0.084224,0.985323
-0.104877,0.289490,0.921833,0.957158,-0.070629,-0.280820
-0.027845,0.390571,0.070115,0.992585,-0.114560,-0.040637
-0.140599,-0.035015,0.269118,0.617239,-0.101045,-0.780260
-0.060357,0.343329,0.922748,0.867997,-0.403363,-0.289620
-0.201995,-0.019357,0.702555,0.046946,-0.817603,0.573866
0.119616,-0.238315,-0.987727,-0.251869,0.139217,0.957696
-0.199264,0.236314,0.898134,-0.541513,0.609340,0.579196
0.249428,0.614926,0.476513,0.729488,0.408126,-0.548891
0.152901,0.512112,0.636560,-0.788256,0.497709,0.361855
0.166454,0.035816,0.849684,0.387212,-0.380732,-0.839708
-0.016911,0.364920,-0.194223,-0.461842,-0.864454,-0.198549
-0.379298,0.390705,0.653308,-0.625620,-0.673844,-0.393109
0.057625,-0.373579,0.326332,-0.059187,0.371981,0.926351
-0.230169,0.210460,0.428351,-0.335516,0.316755,-0.887184
-0.236590,0.299019,0.837885,-0.755486,0.377446,-0.535514
-0.715116,0.115578,0.796454,-0.613845,0.692590,0.378832
-0.087046,-0.719142,0.502094,0.150362,-0.987407,-0.049186
-0.532350,-0.300882,0.595586,-0.153907,0.208643,0.965806
0.493300,-0.284024,-0.968655,-0.186450,0.090079,0.978326
-0.010370,0.790371,0.233467,0.885468,0.129523,-0.446286
-0.692054,-0.264632,0.344759,-0.157040,0.351093,0.923077
-0.412166,0.680961,0.976199,-0.499991,0.063963,0.863665
-0.693542,0.260968,0.793809,-0.600857,-0.196401,-0.774853
-0.660199,0.328602,0.006442,0.320190,-0.337891,0.885047
-0.447710,0.666967,0.950194,-0.714310,-0.424575,0.556325
0.252994,-0.086588,-0.986947,-0.186169,0.129554,0.973939
0.026894,-0.144962,0.484718,0.845604,0.470991,-0.251240
-0.708281,0.519575,0.726356,0.698452,0.651484,-0.296198
-0.042646,-0.004630,0.508586,0.095286,0.829632,-0.550119
0.039258,0.872264,0.876248,-0.670046,0.081394,-0.737844
0.045022,0.449343,-0.765346,-0.261088,-0.952077,-0.159321
0.242535,0.132236,0.053264,-0.402335,0.802242,0.441060
0.190230,0.691088,0.347794,0.504849,0.541958,-0.671870
-0.977711,-0.002231,0.772483,-0.106281,0.883732,0.455765
-0.917146,-0.497650,0.365221,0.266102,-0.133387,0.954671
-0.061605,-0.211660,0.746258,-0.684459,-0.489015,-0.540722
0.438082,0.250841,0.418739,0.215334,-0.570051,-0.792889
-0.695562,0.410361,0.721999,0.292491,-0.203974,-0.934261
0.178578,0.683759,0.842140,0.350703,0.208693,-0.912937
-0.923563,-0.006298,0.778908,-0.177207,-0.979436,-0.096454
-0.364319,0.430553,0.646103,-0.377630,-0.924015,-0.059942
0.368422,-0.275162,-0.971249,-0.156233,0.120255,0.980372
-0.340782,0.757388,0.155148,-0.602071,-0.645499,0.469939
-0.383517,0.025689,0.609605,0.931145,0.114891,0.346076
-0.006568,0.298820,0.933293,0.963088,0.021174,-0.268354
-0.023981,0.536368,0.720389,-0.216373,-0.309075,0.926097
0.015485,0.212526,0.333113,-0.044988,-0.285276,0.957389
-0.144165,0.226053,0.207801,0.023911,-0.520271,0.853666
-0.310233,-0.518241,0.416790,-0.639456,0.087035,0.763885
-0.000920,0.830354,0.352015,-0.780900,0.360810,-0.509914
0.591787,0.360320,-0.986557,-0.164872,0.034790,0.985701
-0.263751,-0.427755,0.423232,0.275482,-0.015667,0.961179
0.073493,-0.298018,-0.990201,0.184878,-0.186055,-0.964989
0.067968,0.290954,0.957941,-0.184810,-0.715131,0.674116
0.277482,-0.203530,-0.980234,-0.115328,-0.048491,0.992143
-0.369786,0.550293,0.890742,-0.577997,0.656621,-0.484529
-0.057803,0.211262,0.784282,0.946048,-0.272864,0.174755
-0.033671,0.454674,0.912882,0.936228,-0.322698,-0.139082
-0.295907,0.476197,0.799200,0.669657,0.458889,-0.583936
-0.270110,0.193672,0.421078,-0.279980,0.477404,-0.832885
-0.795714,-0.066200,0.321043,0.258069,0.161640,-0.952509
-0.111769,0.379513,0.921053,0.869822,0.268995,-0.413584
-0.349460,0.495186,0.623947,0.874448,0.079143,-0.478620
-0.249664,0.231653,0.280340,0.432705,0.448726,0.781928
0.273858,0.829886,0.482836,0.874051,0.441653,-0.202429
-0.030043,0.336797,0.925376,0.956779,-0.084733,-0.278199
0.690451,0.027954,-0.961400,-0.188237,0.127944,0.973754
-0.304646,0.670099,0.665361,0.812496,0.014397,-0.582789
-0.101252,-0.565618,-0.993185,-0.339285,0.121135,0.932852
-0.438199,-0.214926,0.591415,0.177556,0.451550,0.874401
-0.409728,0.169550,0.802421,0.531738,0.645521,-0.548231
0.381381,-0.020422,0.134144,-0.546500,-0.490726,-0.678621
0.009778,-0.374644,0.497873,-0.399178,-0.645011,-0.651627
-0.356237,0.387907,0.872044,0.861818,-0.279530,0.423241
0.213230,0.157289,0.038278,-0.578005,-0.223327,0.784879
-0.014473,0.351324,-0.152300,0.990673,-0.068943,0.117529
-0.684625,-0.335199,0.349540,0.152010,-0.284684,-0.946492
-0.428215,0.356990,0.207632,0.233048,-0.049984,0.971180
-0.066063,0.228652,0.316483,0.710958,0.386779,0.587316
-0.129066,0.453475,-0.011222,-0.348264,-0.497515,0.794475
0.068146,-0.160355,0.757684,0.688779,0.131672,0.712914
0.597671,0.221124,0.475631,-0.436003,0.207513,0.875694
-0.063807,0.315210,0.431962,0.311104,0.932046,-0.185752
-0.059468,0.604197,0.769110,-0.665654,0.570356,-0.481247
-0.158012,0.475196,0.701555,0.982136,0.146572,0.118008
-0.010370,0.033416,0.453898,0.765162,-0.622884,-0.162917
-0.743706,0.161819,0.786367,-0.017663,0.662163,0.749152
0.128831,0.016360,0.152215,-0.378072,0.041257,0.924856
0.294064,-0.421158,-0.973876,-0.141900,0.254487,0.956609
-0.691761,0.410361,0.027937,0.333507,-0.351210,0.874885
-0.078605,0.331201,0.265795,0.907823,-0.397208,0.134473
-0.079497,-0.305347,0.795623,-0.191197,-0.900097,-0.391495
-0.296800,0.595071,0.120243,0.879013,0.456819,0.136574
-0.039613,-0.110246,0.767024,-0.618828,-0.156441,-0.769791
0.512437,0.095052,-0.981895,-0.049234,0.354120,0.933903
0.047522,0.141297,0.008968,0.623495,-0.086101,-0.777072
0.132694,0.551627,0.661920,-0.579048,0.674427,-0.458096
-0.194627,0.149891,0.574226,0.143582,0.284296,0.947924
-0.378703,0.519710,0.617963,0.831517,-0.278119,-0.480863
-0.205743,0.308214,-0.027988,0.197538,-0.188478,0.962006
-0.497400,-0.075261,0.697164,0.815872,-0.438250,0.377213
0.541978,-0.121438,-0.967655,0.298779,-0.089250,-0.950140
0.166987,0.233386,0.808761,0.316764,0.609314,0.726909
-0.641414,-0.306681,0.349726,-0.077603,0.531353,0.843588
0.377575,0.202997,-0.632135,-0.750256,-0.652237,-0.108174
0.072959,-0.429219,0.505772,0.983019,-0.016975,0.182715
0.471309,0.284024,-0.985336,0.340231,0.026337,0.939973
-0.484024,0.090057,0.400380,0.839753,0.516070,-0.168780
0.080806,0.084726,0.871247,0.081842,0.733946,0.674259
0.177272,0.285956,0.463205,-0.004712,-0.999794,0.019762
-0.845998,-0.342527,0.340199,0.456398,-0.786613,-0.415862
-0.035216,0.213527,0.960484,-0.697189,0.715710,-0.041064
-0.181194,0.850542,0.414789,0.556068,0.024799,0.830767
-0.120926,-0.091188,0.458035,0.292284,-0.938343,-0.184614
-0.644328,0.219989,0.795216,0.493485,0.243458,0.834986
0.064162,0.011695,0.510400,-0.638549,-0.254990,0.726110
-0.276887,-0.842014,0.259404,0.961368,0.066672,-0.267070
-0.638741,0.277830,0.728526,0.823680,0.352221,-0.444401
-0.180661,0.886124,0.695536,-0.394716,0.705727,-0.588344
0.251688,0.285557,0.435166,-0.644596,0.274557,-0.713523
0.147554,0.785707,0.681381,0.041766,-0.577523,0.815305
-0.246160,0.064269,0.296411,-0.491362,-0.094252,-0.865841
-0.024576,0.393239,-0.195596,-0.461842,-0.864454,-0.198549
-0.471603,0.667500,0.959196,-0.013281,-0.851697,0.523867
-0.480520,-0.225256,0.596026,-0.260201,0.583613,0.769214
-0.070105,0.429154,-0.365187,0.970629,-0.064157,0.231868
-0.901216,-0.075794,0.759040,-0.186941,-0.897548,0.399326
-0.913402,-0.020491,0.778162,-0.177207,-0.979436,-0.096454
-0.660079,-0.003565,0.807405,-0.368012,0.858519,-0.357087
0.089187,0.579010,0.841682,0.576260,0.411563,-0.706074
-0.769623,-0.360853,0.356863,0.016171,0.301773,0.953243
-0.106067,0.375311,0.875451,0.924105,0.264411,0.275893
-0.028204,-0.222255,0.510705,-0.299396,-0.156339,0.941233
-0.646290,0.370980,0.187544,-0.318531,-0.668527,0.672019
-0.535143,-0.334666,0.397328,0.079687,-0.922813,0.376916
-0.050849,-0.105715,0.759887,0.790706,-0.612101,-0.010790
-0.096199,-0.280494,0.776653,0.253563,0.770640,0.584653
-0.648489,0.064736,0.767567,-0.559131,0.821713,-0.110272
-0.197540,0.166285,-0.023699,-0.362018,0.241524,0.900338
-0.038365,0.228587,0.834749,0.849163,0.221987,-0.479212
0.067906,-0.428487,0.493177,0.967927,0.053605,0.245446
0.056435,0.792840,0.871450,-0.321455,-0.359114,-0.876187
-0.267792,0.656108,0.138111,0.860697,0.310388,-0.403559
-0.213945,0.589475,0.913187,-0.511634,0.387756,-0.766731
-0.252102,0.506915,0.817966,0.923211,0.013521,0.384056
0.012869,0.899785,0.875672,-0.411551,0.374907,-0.830705
-0.482004,0.034417,0.722423,0.735578,-0.676298,-0.039314
0.010254,0.330534,0.954008,-0.482661,0.557156,0.675733
-0.469822,-0.599467,0.397633,0.967723,-0.207954,0.142361
-0.027072,-0.101315,0.768686,0.145985,0.989268,0.006114
-0.024341,-0.669834,0.477428,-0.430551,0.900767,-0.056969
-0.235342,0.641845,0.796843,-0.676251,0.681999,0.278500
-0.325687,-0.505516,0.481039,0.115740,0.499148,0.858752
0.441112,0.227521,-0.981352,-0.097049,-0.062488,0.993316
-0.153913,-0.762919,-0.992982,-0.128679,0.088863,0.987697
-0.062972,0.590804,0.896370,0.824877,0.286732,-0.487198
-0.074266,-0.166484,0.734205,-0.711760,-0.398665,-0.578329
0.000267,0.382510,-0.260116,-0.793436,0.607535,0.036875
0.460371,-0.116509,0.566360,-0.641976,0.400719,0.653675
0.695624,0.088190,0.067928,0.088086,-0.561898,0.822503
-0.023506,0.447610,0.693078,-0.677068,0.731076,0.084298
-0.407889,-0.478596,0.411585,-0.185479,-0.620132,0.762256
-0.394455,0.466066,0.888623,0.906822,0.131896,0.400345
-0.631609,0.408697,0.676923,0.536774,0.158753,-0.828656
-0.088174,0.782843,0.835851,0.261138,-0.965247,0.010228
-0.498408,0.193672,0.275712,0.171258,-0.527370,-0.832197
0.141430,0.112845,0.604282,-0.638458,0.491188,-0.592542
-0.280514,0.785707,0.144993,-0.530027,-0.491411,0.691076
-0.137211,0.325072,0.472614,0.967895,0.209158,0.139398
-0.081282,0.147162,0.082134,-0.656074,0.656087,-0.372983
0.416269,-0.073529,-0.978555,0.087053,-0.093322,-0.991823
-0.003952,0.267968,0.438709,0.636910,0.428821,-0.640671
-0.040683,-0.004431,0.921341,-0.170506,-0.821239,0.544513
0.296088,0.639315,0.509366,0.822168,0.334462,-0.460624
-0.393385,0.543229,0.757633,0.688815,0.496974,-0.527779
-0.153318,0.730937,0.880978,0.778703,0.154903,0.607970
-0.653956,0.060938,0.200122,0.504580,-0.222819,-0.834116
-0.790544,0.646843,0.642950,-0.675800,0.140742,-0.723524
-0.017208,0.871268,0.897761,-0.136847,0.791262,0.595967
-0.056791,0.361122,0.317839,-0.263055,0.963983,-0.039216
-0.027250,0.322205,0.100493,0.848076,0.528355,-0.040110
0.532469,-0.034551,-0.974995,0.210020,-0.283782,-0.935606
-0.516123,0.317873,0.403770,0.088484,-0.248613,0.964553
-0.170793,-0.300816,0.800370,0.444286,-0.827151,-0.344139
-0.071770,0.203530,0.803506,0.070091,-0.970813,0.229367
-0.701029,0.071264,0.296632,0.661510,0.218688,0.717342
0.882551,-0.121772,-0.950533,0.224983,-0.220037,-0.949192
0.001159,0.011959,0.324806,0.282997,0.118142,0.951817
-0.010609,0.483859,-0.625557,0.674503,-0.738097,-0.016050
0.230825,0.833750,0.345895,-0.682329,0.276147,0.676882
0.603377,0.172613,-0.972944,-0.363115,0.163215,0.917338
-0.450148,-0.067664,0.323789,-0.480814,-0.544886,-0.686962
0.092216,0.789709,0.422231,0.835047,0.066114,-0.546191
-0.744777,0.006895,0.784299,0.311177,0.379827,-0.871149
-0.484383,-0.085856,0.710268,0.351967,-0.280252,-0.893072
0.593212,0.114577,-0.432148,0.371620,0.926474,-0.059536
0.362182,0.728936,0.362305,-0.152518,0.507973,0.847763
0.458231,0.211595,-0.983336,-0.155514,0.214448,0.964276
-0.091026,-0.061934,0.431114,0.169005,-0.264902,0.949349
-0.259709,-0.450876,0.760616,-0.055471,0.181020,0.981914
0.065290,0.796838,0.416722,-0.713622,0.001564,0.700529
-0.281762,0.306283,0.837309,0.195897,-0.048755,0.979412
-0.110046,0.782311,0.283511,0.960935,-0.169396,-0.218881
0.382744,0.579279,0.581769,0.723291,0.255039,-0.641721
-0.367054,-0.335931,0.434233,-0.209635,0.627036,0.750253
0.378525,-0.010161,-0.982692,-0.079703,0.144480,0.986293
-0.517668,-0.179811,0.700724,0.623780,-0.597846,0.503467
-0.080270,-0.461003,0.819678,0.090034,-0.359204,0.928906
0.249784,0.535831,0.464866,0.763361,0.432980,-0.479383
0.005737,-0.465867,-0.978691,-0.268918,0.025501,-0.962825
-0.025766,-0.133635,0.146960,0.068412,-0.755977,0.651014
0.020237,-0.113044,0.802845,0.811206,0.487918,-0.322306
-0.093583,0.364318,0.929614,0.935712,0.079638,-0.343658
-0.659306,0.550025,0.699215,0.649032,0.206435,0.732217
-0.565932,0.478064,0.692756,0.444223,0.848141,-0.288657
-0.086451,0.378777,0.323687,-0.519218,0.850065,0.088328
-0.140124,-0.485193,0.469071,-0.394205,-0.322881,-0.860436
0.398376,-0.081793,-0.978674,-0.113720,0.069546,0.991076
-0.111711,-0.382311,0.798861,0.243660,-0.839152,-0.486265
-0.391009,0.449741,0.889657,0.949923,0.215000,0.226761
-0.053286,0.686956,0.245724,-0.141625,0.989487,0.029303
-0.249073,0.846211,0.180271,0.838313,-0.211601,-0.502450
-0.077476,-0.274828,0.783689,-0.106396,0.788060,0.606335
-0.792209,0.371582,0.758836,-0.273266,-0.919886,0.281310
-0.805879,0.347928,0.739901,0.362646,0.930304,-0.054971
-0.234747,0.401100,0.869976,0.948725,0.315712,-0.015727
-0.686468,0.473862,0.722779,-0.418557,-0.460668,0.782684
0.051385,0.028687,0.817661,0.333298,0.372393,-0.866162
0.026481,-0.492721,-0.989812,0.031092,-0.028268,0.999117
0.539837,0.155621,0.613742,0.199006,0.293713,-0.934949
0.079497,-0.063402,0.845717,-0.093908,-0.837490,0.538323
0.225119,0.456004,0.834596,0.199199,-0.715024,0.670120
-0.505363,-0.249910,0.597162,0.362928,-0.277497,-0.889539
0.695682,-0.010828,-0.962739,-0.249699,0.224671,0.941899
0.308448,0.076128,-0.985506,0.027364,-0.115161,0.992970
-0.636303,-0.053475,0.672956,0.233883,-0.795682,0.558739
-0.121339,0.218257,0.719795,-0.054792,0.278823,0.958778
0.345894,0.102783,-0.985404,-0.151562,-0.110813,0.982217
0.065352,0.351658,0.436810,-0.750033,0.572308,-0.331532
-0.146541,0.304680,0.345081,-0.485481,0.865765,-0.121489
-0.711789,0.049343,0.782417,-0.196630,0.181095,-0.963608
0.311006,0.801434,0.514740,-0.545473,0.561020,0.622668
-0.662158,-0.151025,0.781993,0.698077,0.563103,0.442271
0.043658,0.130837,0.852108,0.433999,0.048517,0.899606
0.342092,0.612795,0.414501,0.390953,0.827272,-0.403456
-0.480222,0.616459,0.732340,0.280957,0.187093,-0.941307
-0.247643,-0.660903,0.471970,0.863814,0.436376,-0.251794
-0.095960,-0.409694,-0.987269,0.952982,-0.071835,0.294390
0.102500,0.853674,0.881198,0.666724,0.679503,0.306194
-0.673335,0.014558,0.766346,-0.734410,0.599761,-0.317692
-0.075989,0.295420,0.857075,-0.682246,-0.718920,0.133022
-0.578411,0.012093,0.772483,-0.625234,0.695365,0.354329
-0.767007,0.681226,0.638577,-0.659894,0.202397,-0.723585
-0.247408,0.609065,0.909916,0.135928,-0.380949,0.914550
-0.300188,-0.746460,0.254675,-0.631277,-0.106748,0.768176
-0.379059,-0.720342,0.258998,0.295803,0.633841,-0.714665
0.238850,-0.124505,0.545017,0.362106,0.586968,-0.724119
-0.031708,0.437614,-0.378511,0.890726,-0.452809,-0.039635
0.302626,0.645644,0.578515,-0.067218,0.404265,-0.912168
-0.023865,0.452873,-0.733035,0.935607,-0.352129,0.025383
0.393327,0.263368,0.462510,-0.596761,-0.712694,-0.368705
-0.247821,0.432152,0.862890,0.185854,0.794481,0.578151
-0.015184,0.462670,-0.697096,-0.607873,0.793591,0.026549
-0.487355,0.440546,0.918086,0.943621,0.329033,-0.036278
0.150525,0.028821,0.601146,0.648551,-0.184226,0.738540
-0.151355,-0.367251,0.794216,0.095387,0.598481,0.795438
-0.051857,0.456671,0.433844,-0.562218,0.795891,-0.224653
-0.071712,0.188405,0.625659,-0.560507,0.607405,0.562931
0.009778,0.275963,0.978488,0.286307,0.860866,0.420640
0.004605,0.453540,-0.409229,0.858885,-0.501930,-0.101896
-0.088472,0.294155,0.930343,0.972213,-0.061419,-0.225897
-0.360398,-0.097187,0.601485,0.046750,0.751179,0.658441
-0.028679,0.416424,-0.128482,0.873045,0.435378,-0.219633
-0.001932,0.558224,0.240909,-0.417486,-0.348103,-0.839363
-0.125323,-0.049143,0.704877,-0.066445,-0.329606,0.941778
0.143512,0.491054,0.430453,0.988515,0.116756,-0.095948
-0.211090,-0.441347,0.765600,-0.021014,0.185293,0.982459
-0.894559,-0.025286,0.776755,0.016012,0.911940,0.410011
-0.066481,-0.035682,0.820763,0.630444,0.748783,-0.204609
0.100835,-0.284691,0.503636,-0.132782,-0.798119,0.587687
0.155281,0.535701,0.430267,0.946598,-0.318416,-0.050636
-0.122885,0.824489,0.673668,0.335727,0.610699,-0.717171
0.314332,0.113776,0.452593,0.547046,0.820395,-0.166410
-0.021250,-0.375181,-0.974809,0.093899,0.437808,0.894152
-0.474933,0.716678,0.973859,0.184397,0.377160,-0.907606
-0.008886,0.485925,-0.614810,0.768313,-0.630332,0.111248
0.050076,0.247177,0.440438,0.565919,0.382045,-0.730600
-0.807544,0.678363,0.651359,-0.786169,0.068691,-0.614183
0.200156,0.408498,0.113241,-0.232272,0.858216,0.457729
0.032423,0.292687,0.114564,0.852148,0.490018,-0.183645
0.169367,0.643846,0.356880,0.673403,0.500749,0.543855
0.983182,-0.260037,-0.939073,-0.222084,0.081083,0.971650
-0.769264,-0.016559,0.785113,0.667226,0.743905,-0.037610
0.236589,0.552225,0.450881,0.637638,0.453029,-0.623042
-0.300068,-0.390839,0.452203,0.219295,-0.784228,-0.580427
0.244375,-0.108245,-0.981624,-0.127106,0.142679,0.981574
-0.275044,-0.451941,0.310821,-0.665361,0.441653,-0.601861
-0.142025,-0.685224,0.490566,-0.202843,-0.561149,0.802475
0.469107,0.140565,-0.316262,0.400184,0.879450,-0.257721
-0.472673,0.729135,0.618454,0.872775,0.273651,-0.404202
-0.635650,0.440948,0.707403,-0.358794,-0.254272,-0.898116
0.620377,0.292154,-0.978691,0.292657,-0.165948,-0.941707
0.803619,-0.124037,-0.953381,-0.186960,0.116840,0.975394
-0.215309,-0.417157,0.423232,-0.662773,0.722632,-0.196303
-0.035394,0.195535,0.768143,0.830568,-0.057983,-0.553891
-0.116823,-0.524704,0.466206,-0.359263,-0.464228,-0.809582
-0.544474,0.653575,-0.113496,0.470185,0.731505,0.493788
0.106897,0.462670,0.822933,-0.445204,0.788633,0.424089
-0.104401,0.067599,0.312906,0.477792,0.287940,-0.829943
0.019109,-0.516041,0.498245,0.697878,-0.251027,0.670785
0.548337,0.189271,-0.978250,-0.340697,0.032331,0.939617
-0.729859,0.427755,0.717541,0.920336,-0.386176,-0.062049
0.139231,0.581211,0.658021,0.652565,-0.746065,0.132460
-0.213586,0.017226,0.757870,0.872082,-0.433307,0.227416
0.127641,0.428487,0.420468,-0.425357,0.867518,-0.257845
-0.018692,-0.103181,0.786096,0.893511,0.112392,-0.434749
0.410145,-0.008030,-0.981132,-0.161062,0.129594,0.978399
0.049303,0.501782,0.635017,0.220001,-0.348774,0.911019
-0.006568,0.242179,0.983980,-0.157963,0.863108,0.479680
0.070464,0.459006,-0.936954,-0.536184,0.828787,0.160061
-0.377931,0.369382,0.359254,-0.121053,-0.956504,0.265417
-0.268982,0.353590,0.606927,-0.315886,-0.937706,0.144649
-0.040089,0.372448,0.942786,-0.258209,0.393426,0.882351
-0.098575,-0.704615,0.461985,0.851401,-0.523474,-0.033020
-0.253705,0.398635,0.856499,-0.122785,-0.003994,0.992425
0.121818,0.449741,0.823577,0.239087,0.670810,0.702033
0.740855,0.204132,-0.966536,-0.075264,0.126366,0.989124
-0.392373,0.459469,0.896303,0.992292,-0.123913,-0.001259
0.257155,-0.046476,-0.986319,-0.145915,0.199996,0.968871
-0.434694,-0.351125,0.445609,-0.360171,0.569709,-0.738721
0.005795,0.674166,0.896506,0.804473,0.574852,0.149562
-0.198904,0.724340,0.891081,-0.613544,-0.256650,-0.746790
-0.665905,0.374779,0.705725,-0.344815,0.938595,-0.011929
-0.899373,0.033485,0.766278,-0.040827,0.682154,0.730068
-0.195338,0.531170,0.212650,-0.581956,0.567928,0.582052
-0.541027,0.421289,0.698317,-0.495795,-0.290129,-0.818543
0.274213,0.395504,0.557341,-0.394785,-0.206373,0.895296
-0.261614,0.275495,-0.024750,-0.204853,0.414604,-0.886645
-0.592915,0.688290,0.960891,-0.616154,-0.023300,0.787281
-0.299118,0.785243,0.148333,-0.530027,-0.491411,0.691076
-0.299176,0.463601,0.832613,0.811989,0.021883,0.583263
0.382331,0.583541,0.577396,0.614752,0.170568,-0.770056
0.325865,0.107448,0.498229,-0.290030,0.567538,0.770573
-0.130137,0.655840,0.888064,0.191910,0.545953,0.815540
-0.012927,0.436548,-0.865534,0.872574,-0.487385,-0.032731
0.295907,-0.384308,-0.975860,-0.209657,0.076233,0.974799
0.223395,0.512710,0.338606,0.963864,-0.144525,-0.223782
0.562304,0.052808,0.036295,0.256207,-0.784250,0.565075
0.708579,0.173613,-0.973707,0.141701,-0.067140,-0.987630
-0.387559,-0.025221,0.314618,-0.306783,-0.106863,-0.945761
-0.231239,-0.286488,0.750038,-0.578790,0.712608,0.396474
-0.387203,0.133968,0.206208,-0.047133,-0.077370,0.995888
0.148087,0.531703,0.849345,-0.462013,0.364590,-0.808466
-0.035931,-0.596868,-0.976351,-0.221151,-0.214981,0.951249
0.138103,0.178213,0.808439,-0.012237,0.508171,0.861169
-0.093108,0.552559,0.272458,-0.503521,0.847178,-0.169575
0.092216,0.496654,0.231399,0.540350,0.762120,-0.356645
-0.192131,-0.262103,0.399312,-0.441719,-0.755014,0.484602
-0.020655,0.402166,-0.018122,-0.245430,0.968704,0.037114
-0.090315,-0.549761,-0.988761,0.352808,-0.123360,-0.927528
-0.178045,0.404834,0.252861,0.095665,0.541695,0.835114
0.169247,-0.044011,-0.006171,-0.628048,-0.006580,0.778146
0.033018,0.372847,0.887047,-0.502435,-0.523251,-0.688308
-0.700554,-0.397501,0.354253,-0.045786,0.142145,0.988786
-0.044725,0.296884,0.220533,0.932053,-0.359341,-0.046374
-0.107728,0.069865,0.845124,-0.214316,-0.399568,-0.891299
-0.186958,0.006830,0.720524,0.187624,-0.882093,0.432100
-0.172933,0.280762,0.909932,0.747038,-0.231812,-0.623055
-0.754346,0.569083,0.634779,0.777884,-0.032881,0.627547
-0.117178,-0.339729,-0.990337,0.207657,0.029009,0.977771
-0.442479,0.558488,0.942074,0.863674,-0.142395,0.483518
-0.233201,-0.398835,0.786638,-0.761517,-0.559920,0.326469
0.057505,-0.053406,0.694401,0.810478,0.585343,0.022319
-0.426550,0.570551,0.943312,0.539657,-0.757741,0.366878
-0.431901,-0.623324,0.388310,0.728215,-0.519293,0.447255
-0.110641,0.071199,0.798962,0.680790,0.026922,-0.731984
-0.582750,0.062137,0.788181,0.061532,-0.557551,0.827859
0.122054,0.601065,0.651359,0.784862,-0.619274,0.022152
-0.113199,0.128901,0.372629,0.950777,0.292135,0.103341
-0.187909,-0.388374,0.461238,0.149625,0.346423,0.926069
0.421913,-0.093518,0.524030,0.802674,-0.383074,-0.457132
-0.436892,0.431952,0.660750,-0.373500,0.707713,-0.599700
0.344526,0.409230,0.410331,-0.011402,0.696120,0.717835
0.209309,0.038948,0.566072,-0.423214,0.363377,-0.829968
0.221730,0.122573,0.592060,-0.687506,0.516207,-0.510751
0.084373,0.219725,0.954568,-0.286365,0.878476,0.382459
-0.136141,-0.230384,0.416264,0.868167,-0.207329,-0.450889
-0.611282,-0.084990,0.336402,0.013108,0.387160,0.921919
-0.302684,0.564687,0.179406,0.635078,-0.590696,-0.497749
-0.350472,0.321672,0.830579,0.060328,-0.225080,0.972471
0.026778,0.465867,-0.778433,-0.025093,-0.996955,0.073827
-0.180777,-0.044743,0.697249,-0.030251,-0.264086,0.964025
-0.290262,0.626122,-0.030836,-0.271273,-0.535095,0.800053
-0.034088,0.369048,-0.383783,0.867442,-0.492410,-0.071252
-0.080803,0.861938,0.832477,-0.116241,0.991313,-0.061531
-0.498053,0.348660,0.812270,0.040629,-0.916191,0.398677
0.030163,0.355257,0.387852,-0.498436,0.866858,-0.010909
-0.102736,0.416628,0.917154,0.660115,0.704976,-0.259338
0.185355,0.462337,0.443998,-0.013737,-0.888334,-0.458992
0.006093,0.482127,-0.661276,-0.162307,-0.981566,0.100921
-0.206751,0.662705,0.186272,0.322908,0.648958,-0.688900
-0.514222,-0.020890,0.733255,-0.135388,-0.808624,0.572536
-0.226367,-0.627188,0.267626,0.832234,-0.307236,-0.461511
-0.156409,-0.721806,-0.992253,-0.209587,0.078886,0.974603
-0.729681,0.236782,0.794640,0.118291,-0.695555,0.708668
0.448603,0.231918,-0.849701,0.686986,-0.715176,0.128736
-0.037295,0.385174,0.029361,-0.397612,0.914826,-0.070699
-0.345596,0.631121,0.983098,0.796309,0.123144,0.592222
-0.048588,0.357323,0.799895,-0.094304,0.108676,-0.989594
0.257928,0.097585,0.784604,-0.618103,-0.215472,-0.755990
-0.117298,0.099582,0.787520,-0.278052,0.960095,0.030068
-0.078249,0.225654,0.826764,0.824969,-0.525878,-0.207072
-0.047993,0.442681,-0.494279,0.219552,0.935870,0.275579
-0.151058,0.066265,0.322179,-0.406970,0.856506,0.317447
-0.742520,0.158488,0.789622,-0.065808,0.589652,0.804972
-0.208950,0.432485,0.548136,0.926321,0.376723,-0.003032
0.467326,-0.037548,0.542474,-0.597234,0.277437,0.752556
-0.046510,0.141765,0.949143,0.261502,-0.828135,0.495792
0.163838,0.275764,0.491431,-0.682750,0.381737,0.623000
0.181491,-0.027885,0.159470,-0.263558,-0.004618,0.964633
0.010076,-0.376312,0.763837,0.451381,0.629490,0.632454
0.216561,-0.079662,0.165336,-0.220485,0.064006,0.973288
-0.462508,0.427755,0.899303,0.158336,0.985138,0.066575
0.189871,-0.081061,-0.986133,-0.080751,0.105622,0.991122
-0.372286,0.763387,0.618302,-0.632412,0.138801,0.762096
-0.303515,0.136165,0.845310,-0.111657,-0.162445,0.980380
0.235044,0.576078,0.861178,0.358109,0.102395,-0.928048
-0.130492,-0.361988,0.785367,0.880466,-0.075848,0.468003
0.342328,0.205800,0.094306,-0.695675,-0.619960,0.362885
-0.511545,0.534302,0.724542,-0.619102,0.695759,-0.364187
-0.377038,0.610863,0.958314,0.873507,-0.299923,0.383447
-0.147017,0.168815,0.263727,0.428281,0.375571,0.821901
0.329786,-0.280693,0.140484,-0.513300,0.792097,0.330312
-0.439925,0.298287,0.450915,-0.510583,0.668584,-0.540648
-0.070224,0.369850,0.370916,-0.239282,0.587874,0.772753
-0.416149,-0.249044,0.433945,0.041965,0.454589,0.889712
0.472912,0.118376,0.463764,-0.306396,0.153373,0.939467
0.750185,0.013692,-0.961806,-0.101268,0.048318,0.993685
-0.555350,0.234984,0.413111,-0.277556,0.136404,0.950977
0.068799,0.611261,0.401041,0.896174,-0.214863,-0.388209
0.198908,0.769849,0.451355,0.070590,0.883636,-0.462823
-0.442004,0.806432,0.608249,-0.083241,-0.640202,0.763683
-0.334601,0.191073,0.229890,-0.345201,-0.320505,0.882107
-0.144521,0.350991,0.552544,0.982840,-0.059336,0.174655
-0.062737,0.047675,0.681602,0.940962,0.331739,0.067369
-0.431066,0.120039,0.410619,0.471991,0.730786,-0.493130
-0.606171,0.365986,0.013342,0.315423,-0.355964,0.879658
0.061249,0.173215,0.697435,0.999702,-0.024407,-0.000720
-0.236887,-0.405432,0.423554,-0.433012,0.810376,-0.394704
-0.361348,-0.266235,0.600451,0.468387,0.100917,0.877741
0.190288,0.016360,-0.001390,0.328539,0.554597,-0.764515
0.303993,-0.069999,0.551798,-0.043572,-0.322518,0.945560
0.031890,-0.331803,-0.990591,-0.084036,0.307791,0.947735
0.921426,-0.210062,-0.942328,-0.231699,0.092761,0.968355
-0.057088,0.115643,0.319382,0.416194,-0.127895,-0.900236
-0.491040,-0.106581,0.696825,0.764479,-0.637135,0.098142
-0.106480,0.336732,0.342403,0.867000,-0.398874,0.298681
0.189636,0.877263,0.468647,0.738045,0.422056,-0.526458
-0.019109,0.245713,0.938039,0.677089,0.407219,-0.612963
0.160095,0.032684,0.029412,0.150050,0.389180,-0.908859
-0.037832,0.161087,0.770737,-0.623984,0.560863,0.544129
-0.530445,0.687757,0.591144,0.160790,0.542092,-0.824793
-0.655976,-0.126904,0.344878,0.368363,-0.269457,-0.889776
0.740260,-0.087788,-0.957568,-0.316639,0.107419,0.942444
0.238908,0.726540,0.491397,0.920834,0.023764,-0.389229
-0.450384,0.175147,0.713065,0.677121,0.082068,0.731281
-0.172694,0.473200,0.560867,0.861249,0.357128,0.361539
-0.391662,-0.011625,0.687043,-0.446199,0.865037,-0.229385
-0.294126,0.635851,0.901270,-0.655580,0.666744,-0.354495
0.221792,0.522040,0.333147,0.956050,-0.157345,-0.247410
0.108860,0.260968,0.947024,-0.296040,0.901788,-0.314864
-0.496090,-0.246376,0.597874,-0.274353,0.446456,0.851708
-0.122351,0.114976,0.427283,0.155282,0.402164,0.902303
-0.037890,0.196002,0.644798,0.755195,-0.654783,0.030647
-0.445512,0.015757,0.740359,0.045197,-0.592635,0.804202
0.277601,0.597536,0.373934,0.336794,0.633706,0.696410
-0.699782,0.314408,0.795182,0.964710,0.247161,-0.090802
-0.764330,-0.015892,0.193070,-0.024505,0.613332,0.789445
0.035216,0.239181,0.312262,-0.127209,0.699260,0.703459
-0.068323,0.805830,0.877452,-0.792994,0.489752,-0.362358
-0.665724,-0.325336,0.351879,0.015898,0.406908,0.913331
0.105472,0.748327,0.354524,-0.374985,-0.842400,0.386975
0.008291,0.327736,0.164844,0.463057,-0.845334,-0.266439
-0.700554,0.196401,0.181509,0.533344,-0.177685,-0.827026
0.028204,0.585941,0.903948,-0.790134,-0.119326,-0.601207
-0.478322,0.138629,0.752632,0.376029,0.326387,0.867222
0.170735,0.570417,0.625049,0.408426,-0.375477,0.831989
-0.403844,0.259772,0.347149,0.781859,-0.260482,0.566432
-0.300188,0.479727,0.810575,-0.312299,-0.867499,0.387187
-0.500966,0.653042,0.948414,0.645448,-0.728120,0.230733
0.282952,-0.310943,-0.977521,0.219071,-0.181035,-0.958767
0.216383,-0.079926,-0.986268,-0.071200,0.144873,0.986885
0.330737,-0.025152,-0.983353,-0.196542,0.188084,0.962287
-0.189752,0.085925,0.454017,0.990813,-0.049830,0.125727
0.263573,0.079394,-0.987692,-0.059121,-0.092650,0.993942
-0.015663,0.428487,-0.855956,0.938642,-0.343497,-0.030998
-0.331510,-0.439680,0.433657,-0.668854,0.687151,-0.283651
-0.180719,-0.001100,0.448067,0.603636,0.238275,0.760821
-0.184938,0.508249,-0.011155,-0.652985,-0.482905,0.583450
-0.623940,0.505447,0.782468,0.199126,0.809733,-0.551979
-0.508218,-0.368516,0.412128,-0.499146,0.858360,0.118625
0.003477,0.766653,0.742189,-0.659428,0.740779,-0.128063
0.233023,-0.456671,-0.976131,-0.358019,0.298851,0.884596
-0.112484,0.396769,0.432894,-0.689327,0.666377,-0.284202
-0.000506,0.466603,-0.672668,-0.612111,0.790699,0.010739
0.501441,0.592537,0.371001,-0.024686,0.740498,0.671605
0.023031,0.434616,-0.443862,-0.215595,0.976482,0.001461
-0.219293,-0.077328,0.701470,0.336425,0.930003,-0.148028
-0.073257,-0.379110,0.814372,-0.215673,-0.211137,0.953366
-0.677790,-0.023355,0.766126,0.212159,-0.259006,0.942287
-0.267792,0.298616,0.436725,-0.256828,0.246773,-0.934421
-0.569614,0.651842,0.967723,-0.150653,-0.908544,-0.389681
-0.044903,-0.034218,0.193240,0.768287,0.114365,0.629806
-0.448661,0.576412,0.958857,-0.701894,0.592149,-0.395859
-0.261614,-0.142029,0.482412,0.336900,-0.931249,-0.138829
0.042646,-0.170148,-0.046585,-0.430191,-0.675498,0.598865
0.364439,0.752724,0.525149,0.595962,-0.311068,-0.740315
-0.520164,-0.092985,0.331926,0.222003,0.230650,0.947373
-0.454128,0.843881,0.140348,0.048691,-0.893850,0.445714
-0.341138,-0.036816,0.600298,0.462587,0.456612,0.759947
-0.577878,0.403699,0.239214,0.492833,-0.222615,0.841165
0.027609,0.429020,-0.446795,-0.215595,0.976482,0.001461
-0.101786,0.362387,0.925410,0.941975,-0.199826,-0.269729
-0.504354,0.257105,0.416535,0.355896,0.410364,-0.839607
-0.317006,0.191337,0.827036,-0.700480,-0.134026,0.700975
-0.686410,0.043746,0.805354,-0.656649,0.695170,-0.292490
-0.280275,0.486523,0.872858,-0.541199,-0.812741,0.215765
-0.073196,0.244578,0.906983,0.854546,0.295041,0.427437
-0.198252,-0.130703,0.669345,-0.439405,0.541282,0.716894
-0.413236,0.141362,0.318229,0.143874,0.155969,-0.977228
0.066898,0.266036,0.961399,-0.377776,-0.883595,-0.276670
-0.539362,0.224988,0.204276,-0.366412,-0.148901,0.918461
-0.848672,-0.104182,0.330350,0.343695,0.110911,-0.932509
-0.132872,0.570950,0.921375,0.253996,0.498466,0.828865
0.535023,0.067734,0.056977,-0.069472,0.802799,-0.592188
-0.020891,0.246579,0.926257,0.853843,-0.338387,-0.395534
-0.154388,0.182943,0.802743,-0.137192,-0.637929,0.757776
-0.273916,-0.400966,0.413942,-0.157585,0.108534,-0.981523
0.054890,0.424355,-0.811321,-0.096572,-0.976521,0.192565
-0.456508,-0.047675,0.734900,-0.338944,0.797881,-0.498501
0.713335,-0.066001,-0.959603,-0.160229,-0.050825,0.985771
-0.039973,0.057538,0.433488,-0.528481,0.538076,0.656644
-0.362179,0.630254,0.950414,-0.398438,0.885920,-0.237471
0.895629,-0.223853,-0.944074,0.242431,-0.075471,-0.967229
-0.084786,0.297551,0.467223,0.456694,0.107743,0.883075
-0.093881,0.542432,0.864432,0.440271,-0.597401,0.670279
-0.254242,0.311744,-0.024496,0.226885,-0.043184,0.972964
0.575027,-0.243179,-0.961654,-0.169732,0.015471,0.985369
-0.029035,0.303615,0.459408,-0.284368,-0.263688,-0.921739
-0.341733,-0.039082,0.310041,0.220662,0.401803,0.888742
-0.336324,0.405899,0.867535,-0.824414,0.553864,0.116516
-0.055782,0.433551,-0.302683,-0.534695,0.602393,0.592641
-0.287766,0.273499,0.671888,0.203009,0.774442,0.599189
0.485573,-0.159818,-0.972588,-0.105735,0.074620,0.991591
0.397843,0.548492,0.411484,0.637251,0.612341,-0.467920
-0.592440,-0.185806,0.585940,0.045282,0.446867,0.893454
0.061724,0.605397,0.887437,0.886600,-0.051975,0.459607
-0.815863,-0.295684,0.350879,-0.625713,0.623245,0.469094
-0.025349,0.387972,-0.330502,0.546312,-0.810125,-0.212700
-0.121757,0.852877,0.191476,0.691533,0.099212,-0.715499
-0.447174,0.790974,0.615471,0.251471,-0.738803,0.625246
0.057447,0.272100,0.861907,0.653353,-0.755000,0.055717
0.004787,0.017824,0.447219,-0.555488,-0.224278,0.800707
-0.272965,0.577278,0.802336,0.762493,-0.493057,-0.418926
-0.495974,0.022224,0.742884,-0.174001,0.774536,-0.608127
-0.341853,-0.056073,0.587584,0.544352,0.490754,0.680324
0.703587,0.051010,0.057587,0.113111,0.723200,-0.681313
-0.061489,0.268232,0.302446,0.151431,0.649883,0.744796
0.073910,-0.551290,0.712879,0.797618,-0.370315,0.476101
-0.817585,0.016758,0.792521,-0.203744,0.766832,-0.608651
-0.475466,0.159155,0.363254,0.974011,-0.203128,0.100211
-0.405868,-0.438280,0.264456,0.798868,-0.531800,-0.281068
-0.026122,0.507049,0.904779,-0.556093,0.465927,0.688239
0.357960,0.658304,0.556934,0.054269,-0.056067,0.996951
0.017622,0.365583,-0.115767,0.923918,0.283633,-0.256766
-0.528308,0.302350,0.428419,-0.457646,0.173856,0.871972
-0.070761,0.162820,-0.013494,-0.179663,0.461127,0.868955
0.135012,-0.292219,-0.981658,-0.204853,0.228979,0.951632
-0.455079,-0.117640,0.332740,0.167500,0.264410,0.949753
-0.016196,0.475998,-0.692807,-0.610731,0.788672,-0.070747
-0.220899,-0.234915,0.432521,-0.181798,0.840203,0.510890
-0.023093,-0.236448,0.505196,0.019645,-0.395611,0.918208
-0.560998,-0.159285,0.332537,0.303293,-0.048917,0.951641
-0.336386,-0.325605,0.437878,0.092041,0.396403,0.913451
-0.321465,-0.318740,0.420672,-0.435814,-0.518781,0.735481
-0.416327,0.573614,0.939921,0.627237,-0.549922,0.551507
0.562543,0.089923,-0.002712,0.126220,-0.948120,-0.291782
0.177867,-0.316674,-0.982251,0.162857,-0.183506,-0.969434
0.172755,0.145429,0.799522,-0.647992,-0.390002,-0.654221
-0.056733,0.122040,0.670294,0.948778,-0.175176,-0.262932
0.106600,0.101050,0.847514,0.090962,0.706765,0.701576
-0.318018,0.653973,0.659953,0.215352,-0.353393,0.910350
0.332642,0.786642,0.517639,-0.541192,0.317291,0.778741
0.422033,0.039614,0.126040,0.544605,0.402293,0.735911
0.893729,-0.010894,-0.954737,-0.109618,0.159670,0.981065
-0.557015,-0.100249,0.164437,0.662683,0.634148,-0.398382
-0.093703,0.344996,0.479259,0.793321,0.572481,0.207139
0.039258,0.426690,-0.076896,-0.188433,0.949378,0.251344
-0.038485,-0.094051,0.711505,0.939875,-0.156007,-0.303803
0.026717,0.496251,0.812067,-0.348585,0.787617,0.508083
-0.045498,0.337732,0.929970,0.467617,0.726757,-0.503149
-0.280870,0.333336,0.425554,0.318697,0.944104,0.084263
-0.107373,0.309081,0.344539,0.785228,-0.617769,0.042173
-0.010965,0.384108,0.069962,0.999723,-0.022023,-0.008295
0.228267,0.712277,0.562698,-0.149923,0.330603,-0.931786
0.017031,-0.005964,0.315856,0.046701,0.113802,0.992405
-0.146719,-0.260570,0.718219,-0.434325,0.891388,0.129575
-0.114385,0.539764,0.870077,-0.466886,-0.875018,0.127912
-0.101666,-0.723673,0.480802,-0.470589,0.877086,-0.096258
-0.872981,-0.591472,0.354982,-0.282075,0.183681,-0.941645
-0.501916,-0.046545,0.318856,-0.056235,-0.856167,-0.513629
0.168830,-0.001364,0.556307,0.626685,0.640117,-0.444428
-0.098873,0.161087,0.928851,0.041691,0.667624,0.743330
-0.540610,0.068466,0.759260,-0.684810,-0.684653,-0.249571
-0.632617,0.754456,0.962078,-0.453218,-0.339213,-0.824334
-0.008767,0.473265,-0.607486,-0.701289,0.707716,-0.085627
-0.470177,0.530170,0.923935,-0.688717,0.645657,0.329842
-0.552915,0.285358,0.412484,-0.313859,-0.039775,0.948636
0.170971,0.004899,0.857618,0.697049,-0.417523,-0.582922
-0.471070,0.667967,0.956144,-0.036686,-0.944504,0.326446
-0.626377,-0.287290,0.343369,-0.008357,0.498438,0.866885
-0.840589,-0.011361,0.767872,-0.046727,-0.692009,0.720375
0.765106,0.046345,-0.962366,-0.209233,0.110013,0.971658
0.006746,0.478930,0.805659,0.174415,-0.970648,-0.165594
-0.596064,-0.215060,0.339470,0.376276,-0.044961,0.925416
-0.431306,-0.144762,0.432809,-0.353017,-0.517199,-0.779669
-0.714583,-0.007294,0.796081,-0.170990,-0.630627,0.757015
-0.031948,0.396968,-0.668565,0.850619,-0.517775,-0.091409
-0.601651,0.030285,0.770483,0.417113,0.566611,0.710612
-0.487710,-0.176944,0.442574,-0.604944,-0.338619,-0.720680
-0.379774,0.394504,0.634271,-0.192972,-0.920499,-0.339770
0.359625,-0.007294,-0.981674,-0.143172,0.222220,0.964427
0.155516,-0.316141,0.348218,-0.458538,0.884129,0.089771
-0.114505,0.357856,0.778128,0.904511,0.400919,0.145343
-0.434930,-0.361988,0.425130,0.576818,-0.744274,-0.336656
-0.721537,0.533969,0.742460,-0.542744,0.835195,-0.088761
-0.036584,0.878662,0.389751,0.176578,0.626579,0.759090
-0.137033,0.281958,0.552849,0.997740,-0.058549,-0.032965
-0.808197,0.660370,0.641442,-0.675800,0.140742,-0.723524
-0.001870,0.774982,0.814016,0.820657,0.569456,0.047344
-0.090848,0.373514,-0.022309,-0.340964,-0.135427,0.930270
-0.254540,0.605531,-0.029955,-0.142384,-0.379146,0.914317
-0.581799,0.585477,0.876367,0.876066,0.472074,-0.098254
0.323844,0.633187,0.493499,0.892401,0.205250,-0.401861
0.533597,0.425823,0.447185,0.933106,-0.116348,-0.340259
0.085976,0.452340,0.636983,0.073556,0.025702,0.996960
-0.619010,0.710211,0.964129,0.828210,0.383705,0.408459
0.381319,0.063402,-0.003696,-0.522492,0.703625,-0.481574
0.317721,0.145763,0.161386,-0.634463,0.502015,-0.587739
0.177272,0.588340,0.667124,-0.498808,0.636155,-0.588640
-0.021366,0.268232,0.731102,-0.606457,-0.541228,-0.582479
-0.665191,0.460072,0.740257,0.815458,-0.432093,0.385129
0.236234,0.612063,0.489515,0.915021,0.318601,-0.247448
-0.307320,-0.913776,0.249860,-0.574662,-0.478610,0.663849
0.328183,0.483725,0.383258,-0.678586,0.192505,0.708846
-0.314572,0.442880,0.864755,0.113176,-0.175506,0.977951
-0.093406,0.235582,0.758565,-0.662633,0.358340,0.657655
-0.262800,0.781310,0.166251,0.965819,-0.043923,-0.255469
-0.258701,0.576944,-0.031752,-0.259974,-0.407713,0.875319
-0.221016,-0.103246,0.266321,0.494188,-0.240770,-0.835349
0.152248,-0.056403,0.862195,-0.810651,-0.012667,0.585392
-0.400815,0.410763,0.889335,0.577832,-0.272597,0.769286
0.506730,-0.057603,-0.974775,-0.308066,0.136706,0.941492
-0.675116,0.756392,0.635322,-0.376874,0.849834,-0.368439
-0.427562,0.549159,0.932462,0.687613,0.592345,-0.419899
-0.445450,-0.040347,0.319958,0.315214,0.667255,0.674841
-0.083716,0.631454,0.891014,0.828912,0.346475,-0.439159
0.263097,-0.283491,0.169082,0.617904,0.395271,0.679674
-0.527536,0.741795,0.645442,0.654569,0.739144,0.158766
-0.011204,0.487125,-0.537829,-0.802673,0.596167,0.017329
-0.284556,0.539833,0.185238,-0.141036,0.628644,0.764798
-0.390174,0.042213,0.314194,0.203912,0.438359,0.875363
-0.506433,-0.267101,0.596908,-0.478179,0.469826,0.742030
0.011146,0.491590,-0.517198,-0.841356,0.440087,0.313757
0.463342,-0.071532,-0.976572,0.137579,-0.087788,-0.986593
0.101847,0.379443,0.645442,-0.029005,0.037393,0.998880
-0.085559,-0.223190,0.774127,0.070076,-0.451359,-0.889587
0.421913,0.144897,-0.352218,0.319725,0.905704,-0.278347
-0.615084,-0.162018,0.345064,-0.074540,-0.392637,0.916668
-0.058812,0.242313,0.805964,0.918137,-0.387989,-0.080554
0.166694,0.589405,0.854752,-0.331727,0.355701,-0.873747
0.311241,0.062670,-0.985946,0.064269,-0.020296,-0.997726
-0.210379,0.134965,0.952279,-0.352379,0.896832,-0.267433
-0.102439,-0.727671,0.492906,-0.136123,-0.547893,0.825399
-0.041043,0.093319,0.673193,0.951650,-0.144365,-0.271149
-0.211152,0.319272,0.429606,0.211645,-0.395753,0.893637
-0.573597,-0.283023,0.340809,0.122483,0.374676,0.919030
0.022320,0.725873,0.393022,0.767585,0.534199,-0.354181
-0.220421,0.496186,-0.032921,0.584093,0.423469,-0.692466
-0.540313,0.057204,0.205140,-0.276803,-0.308840,0.909944
-0.000386,0.652842,0.369238,0.765431,-0.634297,-0.108547
-0.195520,-0.053873,0.695011,0.186486,0.380747,-0.905679
0.177508,0.146027,0.036041,-0.030432,-0.283234,0.958568
-0.296800,0.431420,0.212497,-0.049068,0.040545,0.997972
