0.657877,-0.419516,0.637238,0.602664,0.797950,-0.008433
-0.217381,-0.083925,0.445711,0.485175,-0.870653,0.081051
-0.246349,0.514763,0.673283,0.295858,-0.746533,0.595951
0.259429,-0.005467,0.870481,0.340343,0.940029,-0.022643
0.028520,0.117713,0.683377,-0.626560,-0.488069,-0.607628
0.093445,0.791615,0.394595,-0.316148,-0.351221,0.881303
0.158189,0.092084,0.662455,0.381232,0.916907,-0.118085
0.341078,-0.855586,0.299346,0.141554,0.782679,-0.606115
-0.715336,-0.436410,0.422089,0.766430,-0.299325,0.568322
-0.184472,-0.663206,0.614593,-0.790134,0.508630,0.342028
-0.774466,0.317885,0.566975,-0.653965,0.590747,-0.472597
0.852829,0.142296,0.350436,0.618982,-0.781300,-0.080194
0.463042,-0.057143,0.569186,0.423577,0.759515,-0.493680
-0.356668,0.683813,0.602929,-0.341096,0.782070,-0.521555
0.300403,-0.002171,0.875406,-0.114160,-0.984905,0.130110
0.313782,-0.219343,0.434729,0.992664,0.058344,-0.105900
0.912976,0.620524,0.322647,0.203740,0.232330,0.951059
0.255966,0.088056,-0.235705,0.559765,0.805832,0.193127
-0.065015,0.645473,0.619749,0.008660,0.719188,0.694761
0.509273,-0.407904,0.769175,-0.359899,0.839010,0.408087
0.047932,-0.043283,0.601528,0.345686,-0.898704,-0.269875
-0.313721,0.711170,0.570652,-0.290972,0.286582,0.912801
-0.068896,0.877815,0.375242,0.350296,-0.455958,-0.818165
-0.726504,0.047676,0.543519,0.933914,0.223619,-0.278924
0.224428,0.066193,0.013534,0.871694,0.457253,-0.176265
-0.403613,-0.425688,0.476303,0.777365,-0.515920,0.359904
0.262595,-0.003531,-0.456127,0.394000,0.919099,0.004568
0.374646,0.254910,0.719551,0.928868,-0.046606,-0.367466
0.447573,0.029996,0.857827,0.202466,0.977552,-0.058315
0.698014,0.289536,0.272521,-0.204594,0.541584,-0.815370
-0.581722,-0.077491,0.511512,-0.760134,-0.606663,0.232713
0.765566,0.176662,0.714175,-0.440532,0.381121,0.812821
0.188651,0.086225,0.057912,0.447493,0.894019,-0.021891
-0.425415,-0.181265,0.672807,0.517130,-0.831651,0.202319
0.342751,0.052540,0.860605,-0.224957,0.958667,0.174220
0.284277,0.433741,0.598351,0.538055,0.224241,-0.812535
-0.038197,0.139472,0.678414,0.456136,0.532462,0.713039
0.390234,0.184036,-0.941271,0.497675,0.078552,-0.863800
-0.351531,-0.676073,0.568286,0.838596,0.325843,-0.436559
-0.614036,0.071631,0.486282,-0.254662,0.436894,0.862711
-0.028221,-0.680100,0.522751,0.315439,0.536055,0.783035
-0.301418,0.028115,0.488468,-0.008322,-0.932668,0.360640
0.122115,0.486936,0.626796,-0.597523,0.184038,-0.780446
-0.152218,-0.133981,0.724270,0.888662,-0.410256,0.204866
0.002837,-0.210712,0.717840,0.455777,0.720000,0.523323
0.522054,0.885973,0.426448,-0.245701,0.252198,-0.935963
-0.284277,-0.141200,0.671701,0.826841,-0.283498,0.485761
-0.539255,-0.116982,0.547158,0.989358,-0.108598,-0.096833
0.194564,-0.140676,0.454661,0.732980,0.146655,0.664254
0.433359,0.945288,0.432967,0.660127,-0.138734,0.738231
-0.240375,0.368099,0.652888,0.499454,-0.208335,0.840918
0.344065,-0.350368,0.766063,-0.672363,-0.739183,0.039188
-0.148574,0.065931,0.494409,0.229339,-0.956938,0.177968
0.156638,-0.718231,0.694951,0.189602,0.831455,0.522240
0.237151,-0.007454,0.990973,0.840938,-0.534706,-0.083144
0.166193,-0.712426,0.677076,-0.037090,0.881739,0.470278
0.635479,-0.107200,0.394505,-0.769434,0.577287,0.273333
-0.486217,-0.598504,0.503771,-0.690870,-0.494747,-0.527185
-0.153293,-0.353872,0.601643,0.559352,-0.000081,0.828930
-0.322801,-0.525172,0.614143,0.281986,0.578431,0.765442
-0.436822,0.336245,0.320474,0.516351,0.213545,-0.829325
0.686247,0.283572,0.269333,-0.179348,0.584008,-0.791687
-0.010423,0.604048,0.632712,0.488163,0.517265,-0.702947
-0.821949,-0.305281,0.197320,-0.390909,-0.370421,0.842602
-0.273705,-0.189267,0.664320,0.884331,-0.426594,0.189672
-0.709840,0.037267,0.530866,0.952764,-0.247390,0.176181
0.437837,0.294191,0.835349,0.999757,-0.013295,-0.017575
0.321846,0.590239,0.535997,0.129426,0.235127,-0.963309
0.150067,-0.544421,0.013779,0.978981,-0.013099,0.203531
0.384022,-0.712164,0.588283,0.061048,0.929322,0.364188
0.076482,-0.662422,0.328022,0.941627,0.058287,-0.331574
-0.368494,-0.360672,0.479184,-0.082083,0.730945,0.677482
0.507899,-0.071267,0.683365,-0.752581,0.524574,0.398050
0.231477,-0.191254,0.721557,-0.740828,-0.067600,-0.668284
0.461192,0.051180,-0.932874,-0.136694,0.104097,-0.985129
0.229984,0.071842,-0.144044,0.617430,0.780377,0.098954
0.249276,-0.619060,0.517569,0.072050,0.365711,0.927936
0.541765,0.188849,-0.931833,0.217803,-0.177123,-0.959786
-0.435329,-0.167247,0.654997,0.193062,0.972837,0.127730
-0.441661,-0.562101,0.290255,0.108897,0.496409,0.861231
0.066986,-0.482124,0.392178,0.160706,0.091204,-0.982779
0.487232,0.233256,0.615441,-0.464685,0.694050,0.549875
0.282963,0.059758,0.742518,0.914206,0.374712,0.154330
-0.734209,-0.170281,0.416238,0.399736,0.545932,-0.736322
0.886994,0.761435,0.327097,0.329170,-0.470381,0.818773
0.430552,0.691084,0.404124,0.228885,-0.610653,0.758099
-0.297834,0.750608,0.481241,0.947608,0.000301,0.319435
-0.159325,0.647828,0.620058,0.351923,0.574288,-0.739150
-0.511841,-0.227136,0.140109,0.518429,0.511049,0.685609
-0.244258,0.203912,0.621254,0.954017,0.246623,0.170376
0.103120,0.013887,0.641893,0.791899,-0.604403,0.087138
-0.268329,0.106885,0.522803,-0.091963,-0.962438,-0.255452
-0.561296,-0.137694,0.559915,0.993518,-0.035824,-0.107886
0.473913,0.802024,0.415877,-0.064013,0.577026,-0.814213
-0.696042,0.026022,0.175189,0.605375,-0.792540,0.073491
0.132089,0.284620,0.747661,0.512995,0.293174,-0.806774
0.500015,-0.656093,0.545615,-0.438435,0.821942,0.363574
0.444527,-0.249889,0.697060,0.989303,-0.104307,-0.101977
-0.611586,-0.001020,0.521414,0.422101,0.700287,-0.575698
-0.206689,-0.394617,0.349639,-0.577553,-0.180103,-0.796239
0.541705,-0.341214,0.751725,0.368015,-0.517068,-0.772791
0.201194,-0.685646,0.677012,-0.001120,0.451607,0.892216
-0.359892,-0.319247,0.356441,0.638721,0.215856,0.738540
0.187995,0.114000,0.932836,0.510618,0.854841,0.092284
0.101986,-0.022362,0.651885,-0.644656,0.722878,0.248728
0.161476,-0.118865,0.063004,0.942072,-0.237804,0.236539
0.267910,0.023877,0.736229,0.912393,0.335298,-0.234765
-0.076304,-0.548919,0.403892,-0.662814,0.599999,0.447972
0.210931,0.309934,0.757357,0.450881,0.470034,-0.758798
0.340361,-0.199101,0.735316,0.818171,0.296371,0.492707
-0.181663,-0.158460,0.722213,-0.048365,-0.993006,-0.107707
0.282007,-0.013731,-0.782111,-0.843325,0.534303,0.057644
0.244198,-0.169234,0.813141,0.664104,0.411562,0.624165
-0.200716,0.032507,0.568903,0.075179,0.643302,0.761912
-0.594445,-0.300468,0.085135,0.049631,0.978134,0.201967
-0.027205,0.588146,0.629188,0.538208,0.474283,-0.696697
-0.914230,0.021524,0.232323,-0.369927,-0.525637,0.766068
0.370763,0.057718,0.634936,-0.186406,0.107292,0.976597
0.718679,0.337918,0.667946,-0.410744,0.337550,0.846965
-0.737016,0.030311,0.537218,0.708111,-0.216736,0.672015
0.179036,0.368727,0.669309,-0.265559,-0.470569,0.841453
-0.322682,-0.512985,0.612857,-0.356161,-0.503182,-0.787374
0.002239,0.690979,0.636595,0.469899,0.313562,-0.825151
-0.232791,-0.130738,0.576529,0.231314,0.027615,0.972487
0.124264,-0.544577,0.650393,-0.038805,0.944892,0.325075
0.237151,-0.094961,0.395019,0.926676,0.370034,0.065930
0.218874,-0.855951,0.531856,-0.040148,-0.995952,0.080417
-0.303509,-0.778540,0.228877,-0.191544,0.323164,-0.926756
0.713542,0.032664,0.744626,-0.076508,0.926315,0.368900
-0.318023,-0.809609,0.371924,-0.426867,0.575751,0.697349
0.122412,0.132254,0.844081,0.482756,0.462213,0.743846
0.720531,0.277192,0.444695,0.322431,-0.527298,-0.786127
0.484186,-0.525121,0.322236,0.803857,-0.558204,-0.205480
0.796565,0.144754,0.457657,0.439250,0.409233,-0.799742
0.504792,-0.644377,0.549422,-0.501148,0.863266,0.060192
0.572464,-0.032509,-0.936951,-0.149075,-0.364321,0.919264
-0.568463,-0.129534,0.656926,-0.510050,-0.508907,-0.693443
-0.254174,0.220336,0.734275,0.840561,-0.013286,0.541553
-0.125758,-0.064467,0.617396,-0.027702,0.851393,0.523797
-0.666059,0.007871,0.488661,0.816100,0.089288,-0.570971
-0.013529,0.066505,0.858187,0.133673,-0.988400,0.072094
-0.145051,-0.052907,0.720682,0.996552,-0.006479,-0.082720
0.216485,0.107722,0.716297,0.980011,-0.194128,0.043515
0.257637,-0.026493,0.832417,-0.120233,-0.504632,0.854922
0.648916,0.714099,0.411775,0.226955,-0.331777,-0.915650
0.513812,0.590083,0.776248,-0.799129,0.525806,-0.291412
-0.180051,0.155843,0.622553,-0.683975,0.291357,-0.668797
0.501626,-0.423125,0.723203,0.972521,0.231235,-0.027069
0.756189,0.686899,0.336703,0.223365,-0.578815,0.784272
-0.048648,-0.064729,0.691916,-0.407681,-0.450814,-0.794080
-0.153173,-0.073307,0.651460,0.605820,-0.421854,0.674553
-0.905867,-0.135863,0.408445,-0.525989,0.784508,-0.328456
-0.422666,-0.284778,0.397990,-0.593616,0.401835,-0.697244
-0.860475,-0.225463,0.388719,-0.781267,0.023217,-0.623764
-0.297955,0.314067,0.160272,-0.168960,-0.725786,0.666849
0.033239,0.147840,0.653428,-0.170765,-0.267174,0.948397
-0.329013,-0.500955,0.141408,0.236949,0.261683,0.935616
0.236792,-0.098831,0.766127,0.987520,0.150215,0.047324
-0.333732,-0.536679,0.593491,-0.669465,-0.618280,0.411761
-0.092012,-0.639982,0.419748,-0.562852,0.656673,0.501975
-0.537823,0.304705,0.514264,0.286050,-0.834620,0.470729
-0.127251,0.318356,0.597966,0.355967,-0.046858,0.933323
0.273107,-0.815415,0.545229,-0.628962,-0.696547,-0.345294
-0.443810,-0.010958,0.591562,0.432888,-0.834245,0.341530
0.847692,0.739728,0.333192,0.499110,-0.514723,0.697101
0.576228,-0.062374,0.854111,-0.593797,-0.573943,0.563910
0.510109,-0.231583,-0.272367,0.866154,0.416297,0.276540
0.664446,0.895702,0.350423,0.160654,-0.102470,0.981677
-0.262296,-0.726706,0.583949,-0.419628,0.292152,0.859395
0.295505,0.636373,0.539366,-0.057349,-0.273868,0.960056
0.217261,0.332060,-0.958207,-0.139055,0.326721,0.934835
0.296460,-0.001073,0.770101,-0.134667,-0.923816,-0.358370
0.618994,0.496770,0.617036,0.710685,0.016503,-0.703317
0.459697,0.530768,0.744961,0.232221,0.524521,-0.819116
0.378707,0.082929,-0.909997,-0.516949,-0.554928,-0.651781
0.601733,0.183880,-0.928541,-0.424637,0.313915,0.849200
-0.395430,-0.469206,0.469912,0.812979,-0.106100,0.572545
0.355711,0.244658,-0.944602,-0.428799,0.099452,0.897909
0.717485,0.739362,0.634422,0.331764,0.514255,-0.790870
0.014784,-0.614144,0.411171,-0.111368,0.729689,0.674649
-0.831028,0.181211,0.298317,0.213370,0.954959,-0.206221
0.501329,-0.137642,0.393335,0.151524,0.006876,0.988430
-0.386831,-0.202552,0.393592,-0.539965,0.242343,-0.806045
0.154844,-0.581557,0.659279,0.138630,0.521134,0.842141
0.178677,0.392421,0.771335,0.348233,0.916449,-0.197118
-0.184172,-0.350054,0.624366,0.072897,0.451403,-0.889338
-0.007855,0.708711,0.602955,0.480739,0.041477,0.875882
0.172226,-0.060858,0.909792,-0.684515,-0.423365,-0.593466
-0.093385,0.733190,0.655048,-0.474055,0.759408,-0.445613
0.242348,-0.240212,0.460576,-0.058288,0.553839,0.830581
-0.865790,-0.326256,0.234201,0.346294,0.938109,0.005686
0.046917,-0.906740,0.131712,0.521046,0.570155,-0.635165
-0.828221,-0.391479,0.459895,0.791729,0.304641,0.529489
-0.358817,-0.782567,0.208263,-0.038397,-0.143586,0.988893
-0.485440,-0.274839,0.013162,-0.405040,-0.880202,-0.247361
0.519307,0.482281,0.764185,0.964461,0.244818,-0.099389
0.319755,0.071371,0.233403,0.112197,-0.719427,0.685447
0.475884,0.270549,0.591060,0.748301,-0.447236,-0.489925
0.101270,0.241049,0.356596,0.786070,0.573647,-0.230268
-0.032940,-0.255538,0.737219,0.345217,0.747189,0.567920
0.229685,-0.151398,0.813038,0.759742,0.488304,0.429362
0.124802,0.151554,0.896071,0.739255,0.636902,0.218765
0.339763,0.065773,-0.656759,-0.063739,0.996203,0.059305
0.111601,-0.451264,0.480213,0.099907,0.802624,0.588059
0.245213,0.420874,0.771104,-0.815120,0.575485,0.066308
-0.328654,-0.068180,0.651473,0.813472,-0.167443,-0.556979
0.217859,0.687161,0.388500,-0.287608,-0.201353,0.936343
-0.331940,0.408530,0.482425,0.214944,0.177994,0.960269
0.434492,0.227816,-0.924837,0.489308,-0.125980,-0.862964
0.150545,0.511101,0.698551,-0.181398,0.806726,-0.562395
-0.032522,0.108245,0.451974,0.466490,-0.129893,0.874937
-0.509034,-0.557497,0.497457,0.833904,0.015724,0.551685
-0.307032,0.264796,0.740691,0.833784,0.205750,0.512320
0.185007,0.272745,0.608369,0.775809,-0.015143,0.630787
0.563925,0.540079,0.318198,-0.357915,0.323698,-0.875852
0.124146,-0.215369,0.329064,0.895105,-0.440033,-0.071825
-0.094460,-0.625599,0.591176,0.922839,0.306450,-0.233360
0.817232,0.776604,0.339647,0.448615,-0.544761,0.708505
0.361267,0.494939,0.385221,-0.518523,-0.595565,0.613544
-0.923309,0.038156,0.476239,0.932887,-0.001655,0.360166
-0.650710,-0.424276,0.482052,0.890154,0.455181,0.020863
0.825653,0.313701,0.267339,0.333521,-0.717484,0.611540
-0.050440,0.085598,0.133422,-0.487007,-0.668255,0.562369
0.160400,0.126605,0.937851,-0.530769,-0.827631,-0.182515
-0.562610,-0.152811,0.665940,-0.383933,0.878492,0.284338
0.080664,-0.590082,0.415865,0.060337,0.398227,0.915300
0.226519,0.021836,0.964907,0.759806,0.640658,-0.110691
0.754039,0.216622,0.715461,0.307563,-0.612408,-0.728260
0.410004,0.428878,0.732269,-0.721865,0.165669,0.671911
0.021592,-0.189947,0.366549,-0.164302,-0.000429,-0.986410
-0.333551,0.198107,0.273615,0.321384,0.696776,-0.641261
0.719935,0.850406,0.348636,0.025794,-0.409358,0.912009
-0.106107,-0.387139,0.538723,-0.067969,0.570279,0.818634
0.422070,-0.548553,0.699863,0.274243,0.713505,0.644750
-0.119665,-0.569841,0.145973,-0.202615,-0.345471,-0.916295
-0.265284,-0.135916,0.394094,-0.015013,0.583843,0.811727
0.385994,-0.538615,0.703657,-0.193408,-0.762955,-0.616841
0.101328,0.087324,0.781494,-0.173961,0.972406,-0.155449
-0.143199,0.204383,0.639540,-0.454650,0.814337,-0.360763
-0.850320,-0.255278,0.286358,-0.061937,0.174992,0.982620
0.290846,-0.413710,0.574086,0.877387,0.311046,0.365298
0.286187,-0.208934,0.422346,0.987183,0.147202,-0.061648
0.067822,-0.013887,0.906037,-0.612230,0.529562,0.587144
-0.391430,0.484268,0.309852,-0.130602,-0.682961,-0.718685
0.497507,-0.551377,0.323187,-0.653823,0.411194,0.635165
0.438734,-0.132516,0.487028,0.070922,0.473257,0.878065
-0.100255,0.107462,0.425471,0.124901,-0.969970,-0.208706
-0.427684,-0.015665,0.589157,-0.361166,0.876345,0.318714
-0.406659,0.128436,0.514444,0.152448,0.813804,0.560787
-0.451515,0.645841,0.404201,0.230388,-0.938571,0.256915
-0.278960,-0.596831,0.503359,-0.486625,0.485879,0.726029
0.492609,-0.225516,0.128034,0.566695,0.735137,-0.372062
0.453485,-0.338756,0.508966,-0.153359,-0.307604,0.939074
-0.403972,-0.257683,0.654277,0.759875,0.560175,0.329839
-0.920859,-0.206371,0.419144,0.969705,0.204581,0.133491
-0.395908,-0.804117,0.172540,0.158166,0.977052,0.142660
0.157294,-0.747104,0.390364,-0.172051,-0.556605,0.812766
0.529759,-0.499699,0.516978,-0.320631,0.501590,0.803494
0.455279,0.219709,-0.933350,0.489308,-0.125980,-0.862964
0.856233,0.185449,0.244617,0.212852,-0.341284,-0.915543
0.463580,0.452416,0.745900,-0.388197,-0.541516,0.745697
0.051396,0.435259,0.528577,0.078390,-0.459470,0.884727
0.890398,0.239271,0.487941,0.692252,-0.092242,-0.715737
-0.038315,-0.340848,0.590687,-0.676536,0.221480,-0.702315
0.920980,0.312969,0.488275,0.896118,-0.133672,-0.423208
-0.691086,0.215629,0.473539,0.160961,-0.885820,0.435219
-0.010720,0.105944,0.606453,0.535473,0.601370,-0.592978
0.032940,-0.705731,0.571784,0.352811,-0.807554,0.472632
0.257936,0.064989,0.534505,0.994120,-0.021710,0.106084
-0.349798,0.696786,0.585145,0.851504,-0.379872,0.361440
-0.575751,-0.245496,0.459792,-0.429097,-0.844263,-0.321087
0.405882,0.051180,-0.907284,-0.712345,-0.022239,-0.701477
0.314498,-0.262076,0.834642,-0.549482,-0.706885,-0.445403
-0.775243,-0.022518,0.588077,0.725304,0.544515,0.421233
0.441601,-0.843033,0.322711,0.286470,-0.592412,0.752983
0.059698,0.587990,0.632262,-0.000889,-0.364877,0.931055
-0.173003,0.018960,0.727009,0.280416,0.524202,0.804102
0.140392,-0.320397,0.525478,0.233332,0.260301,0.936910
-0.099059,0.359416,-0.979322,-0.120640,0.029158,0.992268
-0.749678,-0.009756,0.446778,-0.180996,-0.194453,-0.964069
0.288159,0.648037,0.295578,0.609831,-0.219365,-0.761568
0.515007,0.089258,0.703849,-0.809501,0.321344,-0.491372
0.228311,0.059235,0.292749,0.605428,0.725791,0.326625
-0.559266,-0.751811,0.149239,0.865267,0.284692,-0.412630
0.337077,0.053638,0.635708,-0.855770,0.486589,-0.175752
-0.017231,0.720741,0.603469,0.146243,-0.113152,0.982756
0.605376,0.402725,0.690874,-0.804109,0.430720,0.409744
0.591937,0.117713,0.445762,-0.124417,-0.461969,0.878126
0.288159,0.468368,0.783127,0.472262,-0.757317,0.451042
-0.163446,-0.166932,0.734056,0.609810,-0.776074,-0.160748
-0.696818,0.039726,0.583846,0.541414,0.651686,0.531202
-0.170912,0.196851,0.708016,-0.680151,0.383811,-0.624567
0.837180,0.454821,0.307756,-0.264396,0.149755,0.952716
-0.239898,-0.091038,0.660063,-0.557481,0.137187,-0.818776
0.101328,0.179276,0.834243,-0.179270,0.693341,-0.697954
0.322502,-0.522295,0.688907,0.735641,0.577992,-0.353210
-0.744303,-0.541177,0.181850,0.183426,0.125206,0.975027
-0.383725,-0.258416,0.647718,0.638039,0.338462,0.691628
-0.145827,0.070533,0.434523,0.845156,-0.430312,-0.317085
0.028520,-0.323430,0.517801,-0.632520,0.264730,-0.727899
0.217500,0.056986,0.809643,0.006066,-0.995679,0.092660
0.089384,0.072364,0.872461,0.728271,0.458958,-0.508900
-0.716110,0.286607,0.496917,-0.384908,-0.090371,0.918520
0.320831,0.107984,0.799626,0.792992,-0.291871,-0.534766
-0.686904,-0.377776,0.205241,0.285719,0.587055,-0.757451
-0.266776,0.047571,0.208958,0.212997,0.503071,0.837587
-0.227117,-0.330648,0.454944,-0.698637,0.215512,-0.682247
0.535732,0.598870,0.536408,-0.641760,0.089622,0.761651
-0.715992,0.001962,0.580425,0.114826,-0.991739,0.057168
0.347410,-0.011534,0.885205,0.547110,0.727494,-0.414034
0.897207,0.608861,0.321927,-0.165169,0.008313,-0.986230
-0.474571,-0.140049,0.694694,0.190022,-0.883164,0.428852
0.000269,0.785600,0.613345,0.343110,0.616846,-0.708362
-0.107959,-0.015352,0.651473,-0.403736,0.688104,-0.602918
0.051277,-0.052071,0.589556,-0.103980,0.968261,0.227285
0.471823,-0.629312,0.585454,0.172123,0.185019,0.967544
0.006720,0.772262,0.381672,-0.209698,-0.503427,0.838205
-0.400806,-0.402830,0.151207,-0.498265,0.010738,-0.866959
-0.053187,0.634908,0.360351,0.844110,-0.217985,0.489858
-0.590205,-0.636479,0.530608,-0.559022,0.589649,-0.582930
-0.132567,-0.317572,0.520154,0.106859,0.647416,0.754608
0.131730,0.280540,0.551183,0.906325,0.357370,-0.225527
0.150904,0.024662,0.632879,-0.111493,0.956626,-0.269140
-0.697715,0.028166,0.583576,-0.460743,-0.745252,-0.481991
-0.104673,0.771895,0.604627,0.164196,-0.430582,0.887490
-0.153771,0.022569,0.440529,0.921891,-0.346887,-0.172589
0.410900,-0.198943,0.496094,-0.099794,0.401518,0.910398
0.040884,0.159400,0.896919,0.446737,0.744092,-0.496743
0.579752,-0.343516,0.390107,0.602797,0.355613,0.714265
0.071406,-0.227503,0.584785,-0.683934,0.575101,0.448880
0.475645,-0.746633,0.429225,0.140891,-0.959575,-0.243651
-0.791788,0.195752,0.521980,0.478574,0.132797,-0.867947
-0.216067,-0.403772,0.337088,0.146880,0.475101,0.867586
-0.209677,0.061275,-0.979554,-0.273822,0.025465,0.961443
0.143975,0.435990,0.769484,0.878498,0.474568,0.055020
0.810063,0.054424,0.615068,0.972896,-0.220669,0.069123
-0.407317,0.053638,0.442445,0.530431,-0.596869,0.601989
0.354816,-0.255538,0.461785,0.634511,0.091054,-0.767532
0.425594,-0.464237,0.726739,0.883258,-0.088910,-0.460380
0.294251,0.393728,0.728308,-0.556810,0.407488,-0.723821
0.709901,0.021680,0.332613,0.726784,-0.651516,-0.217513
0.144154,0.033293,0.323560,0.149022,-0.388967,0.909119
-0.498223,0.435625,0.329244,-0.114337,0.066790,-0.991194
-0.708765,0.321181,0.181130,-0.515230,0.460366,-0.722911
-0.648021,0.285874,0.521478,0.769038,-0.331758,0.546367
-0.127907,0.372701,0.619865,0.987708,-0.144198,-0.060339
0.091176,-0.392108,0.635219,-0.470464,0.572500,0.671497
0.201852,0.074351,0.823081,-0.291713,0.946969,-0.134731
-0.270240,0.223003,0.744318,0.899662,-0.081118,0.428986
0.310020,-0.057249,0.695517,-0.584716,-0.738761,-0.335171
0.119605,-0.511730,0.413781,-0.202788,0.501910,0.840811
-0.620009,0.170383,0.493754,0.586451,-0.175791,0.790679
0.433716,0.321703,0.689936,-0.415822,-0.575310,-0.704351
0.080425,0.423752,0.535559,-0.118143,-0.360496,0.925248
-0.017769,0.461150,0.539083,0.114239,-0.528026,0.841509
0.889621,0.281220,0.488083,0.836435,-0.036710,-0.546836
0.003554,-0.827811,0.382777,0.185966,0.650550,0.736343
0.023682,-0.923844,-0.004083,0.986176,-0.058329,0.155094
-0.190742,-0.029840,0.463277,0.477390,-0.625683,0.616944
0.588173,0.091613,-0.930161,-0.072707,-0.096220,0.992701
0.753740,0.153333,0.463547,-0.357177,0.203229,0.911659
-0.683738,-0.372336,0.428518,-0.229595,0.615516,-0.753940
0.113154,0.315898,0.642035,-0.674420,-0.716090,0.179922
-0.631835,0.222323,0.506433,0.054332,-0.832657,0.551117
-0.086637,-0.013313,0.651242,-0.366583,0.585829,0.722787
-0.745258,-0.157623,0.414643,0.399736,0.545932,-0.736322
-0.799432,-0.002433,0.603714,0.898943,-0.092612,0.428165
-0.318561,-0.298428,0.644465,0.848434,0.238207,0.472670
0.591339,0.696262,0.560751,-0.638344,0.139916,0.756928
-0.360251,-0.820698,0.213060,-0.022455,-0.560394,0.827922
0.101090,0.071631,0.829832,0.181848,0.876654,-0.445431
0.350456,-0.494050,0.406091,0.296728,-0.226095,0.927811
-0.291265,-0.182258,0.229571,0.727304,-0.205125,-0.654945
-0.251425,-0.148365,0.762514,-0.821706,0.506316,-0.261617
0.609078,-0.012265,-0.935112,-0.198994,-0.146496,0.968989
0.146185,0.245652,0.742736,0.433402,0.317064,-0.843583
-0.003016,-0.923529,0.129101,0.502672,0.639918,-0.581228
0.153711,0.270445,0.550515,0.906325,0.357370,-0.225527
0.165477,0.067133,-0.011773,0.536679,0.840256,0.077108
0.379782,-0.156211,0.803214,0.883227,0.449522,-0.133566
0.475287,0.181369,0.651859,0.208945,-0.492982,0.844577
-0.260564,-0.702644,0.366922,0.600557,-0.498591,-0.625091
-0.346692,0.201505,-0.997827,0.185742,0.135071,-0.973271
0.392563,0.378716,0.319355,-0.004872,-0.180848,0.983499
0.757981,0.248581,0.249645,0.627859,-0.704155,0.331601
0.693474,0.315061,0.272483,0.109156,-0.545217,0.831158
-0.609497,-0.364752,0.434806,0.217542,0.698832,0.681403
-0.603642,0.155111,0.143272,0.285704,-0.849406,0.443715
0.329013,-0.080996,0.119573,-0.611746,-0.161503,0.774392
-0.021712,0.022675,0.580515,0.742578,-0.618670,0.256564
0.495595,-0.308210,0.664988,0.689562,0.491347,0.532055
0.064536,0.266940,0.585196,-0.362084,0.760449,0.539086
-0.080543,-0.573450,0.354281,-0.057031,0.124676,0.990557
-0.614275,-0.388446,0.435115,0.165474,0.941433,0.293808
-0.529998,-0.620735,0.525169,0.323016,0.158014,0.933109
0.543557,0.749719,0.409628,0.105468,0.706912,0.699394
0.377990,-0.069436,0.490076,-0.054430,0.252256,0.966128
0.145528,-0.704371,0.422911,0.380921,0.465107,0.799109
0.419621,-0.353192,0.705123,0.862930,0.298218,-0.407944
0.404628,0.351832,0.709816,-0.139023,-0.860881,0.489445
-0.216127,0.266992,0.688598,0.732429,-0.410144,0.543442
-0.421950,-0.385099,0.484688,0.387152,-0.535668,-0.750449
0.163147,-0.680677,0.011464,0.964887,-0.123420,0.231865
0.186561,0.461412,0.808460,-0.698493,-0.702736,0.135162
-0.070808,-0.333056,0.380823,0.710490,0.648511,0.273198
-0.182858,-0.824935,0.596757,0.203334,-0.936181,0.286742
0.570434,0.557183,0.615467,-0.519970,-0.299264,0.800045
0.280932,-0.201821,0.796295,0.916424,-0.023888,0.399494
-0.284754,0.308680,-0.973265,-0.498601,-0.535712,0.681476
-0.074630,0.317990,0.617718,0.882333,0.257407,-0.393993
0.680811,0.185187,0.644877,-0.019987,0.626146,0.779450
0.424877,0.221069,-0.935909,0.764290,-0.124782,-0.632685
-0.037001,-0.644377,0.420327,-0.099121,0.591669,0.800064
-0.140570,0.056673,0.405809,0.927761,-0.286324,0.239330
-0.387009,0.559641,0.491542,0.233827,-0.363809,0.901647
0.529580,0.792870,0.401822,0.351198,-0.260139,0.899438
0.417112,0.622303,0.332562,0.271789,-0.105868,-0.956516
-0.749379,0.194340,0.496184,-0.408388,0.793752,-0.450752
0.275974,0.582185,0.540189,-0.450944,0.056593,-0.890756
0.754516,0.162225,0.727433,-0.019433,0.687991,0.725459
-0.820695,-0.081205,0.224286,0.398861,0.640852,-0.655911
0.475227,-0.028167,0.788952,-0.027908,0.956617,0.290010
-0.776914,0.055731,0.481949,0.252995,0.901953,0.349963
-0.552993,-0.743389,0.149278,0.865267,0.284692,-0.412630
-0.611586,0.057927,0.548419,0.504241,0.848346,0.161399
0.020277,-0.474384,0.323071,0.494233,-0.006845,0.869303
-0.197132,-0.083245,0.740897,-0.450168,-0.524720,-0.722508
-0.176646,0.049820,0.703168,0.887527,0.398392,-0.231475
0.064955,-0.011011,0.638524,-0.403361,-0.914915,-0.015203
-0.295027,-0.114052,0.319574,-0.608722,0.708702,-0.356651
0.912019,0.208514,0.487350,-0.707630,-0.004347,0.706570
-0.762221,-0.013155,0.453967,-0.209610,-0.183506,-0.960411
-0.578915,-0.307163,0.169904,-0.649228,-0.099394,-0.754071
0.092668,0.309516,0.522224,0.631099,0.541673,-0.555252
-0.662057,0.041922,0.529001,-0.142057,-0.986978,-0.075462
0.152756,0.638361,0.634010,-0.224351,0.357472,-0.906576
0.161295,0.122367,0.624134,-0.733285,-0.409938,-0.542442
0.186980,-0.889218,0.388834,0.395382,0.326840,-0.858399
0.073675,0.262389,0.295308,0.006929,-0.949016,0.315151
0.393161,-0.239794,0.725055,-0.445148,-0.562055,0.697092
-0.753978,0.158093,0.493124,0.303055,-0.355131,0.884330
0.560937,0.522085,0.323123,-0.360237,0.322649,-0.875287
-0.377274,0.489918,0.483993,-0.072016,-0.168198,0.983119
-0.248201,0.325521,0.310328,0.100285,-0.276827,0.955673
0.324713,0.362607,0.702101,0.368702,-0.444869,-0.816180
0.422428,-0.373592,0.312977,0.791038,0.425289,0.439760
-0.754935,0.051127,0.069280,0.207369,-0.963216,0.170917
0.701417,0.493894,0.720078,0.075714,-0.933095,0.351570
0.133165,-0.175198,0.884227,0.938647,0.191018,0.287147
-0.256562,0.599915,0.446007,-0.582570,0.101496,-0.806418
-0.270538,-0.302143,0.452604,0.159400,0.263741,0.951332
-0.461072,-0.302614,0.411737,-0.474963,0.100845,-0.874208
0.253875,0.050447,0.932424,0.857979,0.465100,-0.218071
0.165715,-0.192405,0.517698,0.801401,-0.388283,-0.454965
0.700881,0.145225,0.713622,-0.619820,0.692431,0.369274
-0.656442,0.052958,0.565007,0.187080,0.853168,0.486935
-0.293892,0.250463,0.011798,0.221680,-0.199448,0.954504
0.364910,0.833146,0.424519,-0.510126,0.581091,-0.634117
-0.741436,-0.539243,0.179561,0.198971,0.024606,0.979696
-0.186263,0.258100,0.000405,0.154146,-0.294940,0.943000
0.374465,-0.348641,0.792553,0.260273,0.766135,0.587618
-0.230819,0.189058,0.717365,0.443673,-0.734673,0.513235
0.298134,0.068807,0.134708,-0.575791,-0.789394,0.212890
-0.909988,-0.292256,0.191443,0.644631,0.343868,-0.682792
-0.379244,-0.283627,0.405037,-0.478586,-0.029835,-0.877534
0.442855,-0.283939,0.727871,0.693630,0.506409,0.512277
0.703568,0.297958,0.640839,-0.163856,-0.471715,0.866393
-0.762102,0.215942,-0.102135,-0.257724,-0.931714,-0.255905
0.391907,0.271020,0.819403,0.832225,-0.535019,0.145453
0.640495,0.512199,0.613140,-0.708940,0.478314,0.518285
0.578199,-0.022989,0.308913,0.797842,-0.190983,-0.571816
0.519068,-0.048462,0.219515,0.924818,-0.375956,-0.058035
0.086994,0.293720,-0.965730,0.470865,-0.102446,-0.876237
-0.316649,-0.288857,0.643925,0.918359,0.113195,0.379214
-0.676393,0.341267,0.525349,0.823535,0.362831,0.436055
0.276811,0.617543,0.533669,-0.184438,0.161869,-0.969423
0.714022,0.721683,0.572376,0.538259,0.260882,0.801385
0.090876,0.429348,0.589298,0.912010,0.250280,0.324959
0.317365,0.030311,0.519048,0.686835,0.574964,0.444605
-0.041182,0.166200,0.604820,-0.681752,-0.679724,0.270537
-0.134777,0.641290,0.411827,0.825403,0.489971,-0.280423
0.841480,0.182153,0.239319,0.065800,-0.400769,-0.913813
0.049485,-0.507806,0.628970,0.747542,-0.618074,-0.243240
0.143556,-0.150196,0.344084,0.820890,-0.553691,-0.139877
0.425175,0.420823,0.345807,-0.431645,0.901928,0.014426
0.449962,-0.619740,0.725363,0.792041,0.597365,-0.125801
-0.249037,0.493474,0.365469,0.726971,0.588326,0.354097
0.247842,0.630933,0.544471,-0.448226,0.097228,-0.888617
0.311153,-0.029580,0.744678,0.841425,-0.041771,-0.538757
-0.807316,-0.200147,0.377660,-0.800266,0.590226,-0.105866
0.619233,-0.418521,0.369301,0.981744,0.077063,-0.173894
0.446738,-0.603108,0.713841,0.493838,0.834976,0.242774
0.321368,-0.020112,0.858059,-0.150428,0.982972,-0.105538
-0.254651,-0.728484,0.285136,-0.370751,-0.214698,-0.903575
0.254830,0.088213,0.602749,-0.366766,0.090662,0.925885
-0.346096,-0.136178,0.481524,0.165978,-0.081113,0.982788
0.073675,0.162173,0.913058,0.725174,0.687281,-0.042046
0.195640,0.090827,-0.008031,0.536679,0.840256,0.077108
0.641749,0.622303,0.562435,-0.027637,0.237085,0.971096
0.321964,-0.012633,-0.896444,0.928019,0.154866,0.338819
0.357802,0.423385,0.720194,0.385419,0.478053,0.789251
-0.223294,0.076131,0.732423,-0.652705,-0.682384,-0.329132
0.423682,-0.097001,0.686039,0.844479,-0.001311,-0.535587
0.248080,0.051547,0.861312,0.767323,0.553972,0.323003
0.235061,0.694588,0.389914,-0.287608,-0.201353,0.936343
0.127430,0.069278,-0.129950,-0.013951,0.995075,0.098140
0.973481,0.633705,0.317079,-0.225833,-0.242676,0.943455
0.007795,-0.690300,0.661915,0.908129,-0.194435,-0.370806
0.335524,-0.478045,0.582162,0.204687,0.482237,0.851792
0.463223,-0.708764,0.621910,-0.590076,0.191010,0.784427
-0.361862,0.636948,0.593169,0.790521,-0.516889,0.328484
-0.271494,-0.237492,0.483402,0.273640,-0.404782,0.872509
-0.829118,0.117713,0.472613,-0.526593,-0.825379,0.203592
-0.028758,0.605826,0.629985,-0.588140,-0.578951,0.564718
-0.198924,0.604414,0.566820,0.287868,-0.788135,0.544035
-0.564043,-0.274368,0.461914,-0.206369,-0.976490,0.062283
-0.160579,0.148311,0.700956,0.103822,0.983437,0.148566
0.380260,0.207260,0.716567,0.522894,0.020854,-0.852142
0.082096,0.000653,0.702628,0.046380,-0.982531,-0.180226
0.507062,-0.320659,0.566782,0.888392,0.178737,-0.422862
-0.383544,-0.151189,-0.051765,-0.193698,0.894306,0.403358
-0.933223,-0.173838,0.386211,0.881731,0.464348,0.083258
-0.568403,-0.174674,0.679005,-0.556394,-0.726779,-0.402762
-0.568463,-0.494050,0.287580,0.067182,0.428162,0.901201
-0.553531,-0.479039,0.491323,-0.161194,-0.083413,0.983392
0.090220,0.617228,0.643256,-0.433492,-0.220339,0.873805
0.438256,-0.422915,0.717390,0.865332,-0.124001,-0.485617
0.106525,0.080785,0.878621,-0.253745,0.589532,0.766854
-0.667374,0.375996,0.500428,-0.462712,0.883677,0.070800
-0.469374,-0.159505,0.314932,0.317325,-0.884648,0.341617
-0.050739,0.681983,0.370060,-0.791897,0.282801,-0.541223
-0.543557,-0.625546,0.525928,-0.233042,-0.201651,-0.951330
-0.605017,-0.350316,0.179536,0.787645,-0.055140,0.613657
-0.070629,0.180793,0.688135,0.562255,0.235183,0.792817
-0.036524,0.635064,0.363617,0.844110,-0.217985,0.489858
0.183575,-0.020687,0.591343,-0.218942,0.929725,0.296102
0.025891,0.463661,0.533990,0.084335,-0.462025,0.882848
-0.258474,0.555246,0.300015,-0.513133,0.311040,0.799968
-0.024818,0.080785,0.594031,0.518840,0.411352,-0.749396
0.883052,0.200512,0.733940,-0.733148,0.569297,0.372015
-0.547917,-0.744018,0.147889,0.758848,0.321995,-0.566100
0.393101,0.532076,0.533977,0.140462,0.066062,0.987880
0.206451,0.363652,0.754078,0.283055,0.444017,-0.850135
0.873615,0.187069,0.348469,-0.499384,0.855467,0.137081
0.189129,-0.105056,0.852722,0.883930,-0.184292,0.429772
-0.332835,-0.238016,0.395354,-0.710727,0.330963,-0.620750
-0.006122,-0.714360,0.516759,-0.065121,-0.937666,-0.341381
-0.497326,-0.022047,0.633175,0.095603,0.868533,0.486324
0.757981,0.183304,0.459445,0.418219,-0.217210,-0.881994
-0.673644,-0.081727,0.382687,-0.594381,0.022147,-0.803879
-0.702374,0.041451,0.554810,0.500873,0.862024,0.077724
0.375123,0.938855,0.441275,0.677873,-0.275560,0.681583
0.412572,-0.710490,0.606093,0.623875,-0.243296,-0.742689
0.590025,0.067866,0.298922,-0.635505,0.370149,0.677587
0.479050,0.265318,-0.942184,-0.106061,0.526314,0.843650
0.080543,-0.000078,0.636994,-0.297110,-0.953871,0.043071
-0.166134,-0.207312,0.437378,0.786527,-0.172153,0.593076
0.478273,-0.407643,0.682632,-0.706483,-0.571009,-0.418126
0.186799,0.413499,0.681963,0.238351,-0.751239,0.615490
0.185784,-0.755159,0.394531,0.986597,-0.107786,0.122508
-0.354218,-0.177499,0.693896,0.390063,-0.858609,0.332629
0.147976,0.071527,0.869632,0.055038,-0.024776,0.998177
0.082514,0.114000,-0.962798,-0.410375,-0.106293,0.905701
-0.294728,0.694066,0.483042,0.974436,-0.125788,-0.186150
-0.031865,0.639615,0.538054,-0.174332,-0.479786,0.859892
-0.178438,0.382692,0.650959,0.628626,0.098183,0.771485
-0.293236,-0.073882,0.606118,-0.324463,0.945625,-0.022727
0.517754,-0.255590,0.570614,-0.495962,0.192472,0.846744
0.659966,-0.004943,0.752226,0.095106,0.815855,0.570382
-0.863880,-0.234198,0.399302,-0.471622,0.506572,-0.721774
-0.261341,-0.064938,0.339596,-0.496531,0.593787,-0.633146
-0.080842,-0.087063,0.693279,-0.495147,-0.394644,-0.774007
0.457548,-0.619897,0.717879,0.792041,0.597365,-0.125801
-0.347171,0.060125,0.493175,0.274282,0.943263,-0.187147
0.099775,0.782095,0.660488,0.276358,-0.273444,0.921333
-0.019501,-0.568795,0.620264,-0.225708,-0.250416,0.941460
0.066747,-0.254963,0.657543,0.931892,-0.283915,0.225763
0.166075,-0.126552,0.596487,0.904788,-0.280611,-0.320339
0.158249,-0.016713,0.794778,0.472877,0.628800,0.617250
-0.126415,-0.520622,0.201795,-0.791292,0.439561,-0.425022
0.128028,-0.693124,0.293817,-0.715645,0.543688,0.438471
0.147200,-0.107409,0.636132,-0.609356,0.791466,0.047607
0.114828,-0.024191,0.482412,0.758532,-0.177179,0.627086
-0.327937,0.391374,0.480624,0.366438,0.237788,0.899545
-0.094998,-0.824517,0.386931,0.238738,0.463001,0.853601
0.445484,-0.417999,0.724604,0.984481,0.019355,0.174419
0.083471,0.008289,0.659832,-0.402553,-0.378648,-0.833413
0.376377,-0.250203,0.760160,0.842633,0.463609,0.273929
-0.274361,-0.819966,0.209318,-0.309875,0.911605,-0.270100
0.614931,-0.339123,0.616046,-0.651973,0.222890,-0.724742
0.230522,0.105473,-0.051418,0.111389,0.993743,0.008253
0.142362,0.021105,0.594378,0.869185,-0.477727,0.127646
0.484126,-0.006722,0.732487,0.853888,0.476203,-0.210015
-0.198208,-0.652588,0.190029,0.839575,-0.490857,0.232750
0.581961,0.636739,0.336201,-0.145877,0.530932,-0.834764
-0.814902,0.296545,0.327791,0.202753,-0.587664,0.783289
-0.379244,0.585479,0.580014,0.799969,-0.472016,0.370473
0.584351,0.594999,0.330054,-0.084379,-0.380794,0.920802
-0.125638,-0.632346,0.637084,-0.002578,0.412187,0.911095
0.463163,0.397965,0.703091,0.061346,-0.996275,0.060598
0.288039,-0.011167,-0.723318,0.894793,-0.440510,0.072776
0.128267,0.506759,0.652052,0.923350,0.379520,-0.058225
0.299149,-0.834297,0.540124,-0.568684,-0.656093,-0.496125
-0.280454,-0.019327,0.660629,-0.096381,-0.051600,0.994006
-0.088009,0.594005,0.621035,0.431912,0.445991,-0.783928
-0.052292,-0.289170,0.677758,0.941712,-0.035595,0.334533
0.512736,-0.265005,0.627593,-0.101864,-0.182284,0.977955
0.859877,0.373538,0.671598,0.084151,-0.636937,0.766309
-0.141407,-0.164265,0.713455,-0.829765,0.318420,-0.458365
0.113096,-0.123572,0.560275,-0.626049,0.049169,-0.778232
-0.717545,0.359834,0.537385,-0.797226,-0.107414,-0.594048
0.416514,0.604310,0.324422,-0.279158,0.032187,0.959706
0.276572,-0.148730,-0.954118,0.286398,0.013244,-0.958019
-0.379782,-0.530561,0.407030,0.830502,-0.059753,-0.553802
-0.236016,-0.581453,0.621833,-0.402346,0.213211,0.890314
-0.041064,-0.743180,0.161623,0.814091,-0.017731,0.580467
-0.544213,-0.588724,0.525722,0.222300,0.429022,0.875513
0.019083,-0.440804,0.500762,-0.593518,0.600098,-0.536301
-0.476481,-0.279390,0.690129,-0.770560,0.010717,-0.637277
0.410004,0.501739,0.536048,0.009524,0.237731,0.971284
-0.515425,-0.383581,0.165506,-0.527960,0.259151,-0.808764
0.434314,-0.380496,0.784992,0.009342,0.932807,0.360256
0.909690,0.226769,0.734815,-0.733148,0.569297,0.372015
0.042138,-0.332532,0.525619,-0.466944,0.695427,-0.546209
0.724413,0.042655,0.742775,-0.105977,0.988411,0.108687
0.574138,0.173000,0.443654,0.292282,-0.130943,-0.947325
-0.527550,-0.288908,0.703476,0.811508,-0.063570,0.580873
-0.475825,-0.165678,0.657273,-0.239468,-0.879456,-0.411354
-0.118471,-0.581557,0.620071,0.459409,0.055968,0.886460
-0.072301,-0.360463,0.377698,-0.593756,0.559997,0.577803
0.055517,0.010173,0.539160,0.004637,-0.995838,0.091024
0.195341,0.031827,-0.573790,0.025207,-0.988212,0.151003
0.498641,-0.754060,0.445531,-0.341552,-0.619084,0.707161
-0.129938,-0.651855,0.221367,-0.595240,0.196517,-0.779147
-0.604180,0.407903,0.185927,-0.502129,0.479212,-0.719877
-0.085084,-0.679735,0.159051,-0.695152,-0.059476,-0.716398
0.338509,0.012998,-0.743083,0.913310,-0.390107,0.116969
0.676511,0.703375,0.338953,-0.267962,0.568599,-0.777747
0.448947,0.198211,0.435835,-0.219518,0.224815,0.949352
0.543914,0.403143,0.309544,-0.280261,0.141782,-0.949395
0.920262,0.266627,0.491027,0.836435,-0.036710,-0.546836
0.246409,-0.006565,0.966077,-0.742094,-0.670136,0.014622
0.307032,-0.279076,0.849623,0.449534,0.776889,0.440866
-0.069554,0.287130,0.655421,-0.044747,0.806764,0.589176
-0.370823,-0.342783,0.142822,-0.452019,-0.188752,-0.871809
0.130835,0.672568,0.640093,-0.323619,0.732994,-0.598323
-0.322443,-0.123101,0.485048,0.171085,0.166789,-0.971036
0.283023,-0.240892,0.817449,0.830701,0.441503,-0.339133
-0.528087,0.586421,0.187740,-0.704082,0.710088,0.006635
-0.540630,-0.310250,0.710691,0.811508,-0.063570,0.580873
0.522831,0.518267,0.547338,-0.571186,0.214450,0.792311
0.259967,-0.022152,0.689254,-0.597553,-0.748176,-0.288380
0.600836,-0.311192,0.759865,-0.326865,0.489269,0.808563
-0.259967,0.482856,0.555890,-0.194956,0.914397,0.354782
0.042376,-0.122787,-0.056690,0.838925,-0.444358,0.314247
-0.471644,0.102284,0.227064,0.121148,-0.808540,0.575836
0.199641,-0.056463,0.824663,0.963894,0.105318,-0.244575
0.028640,0.329759,0.370098,0.718902,0.665861,-0.199521
0.873734,0.577999,0.314610,0.324607,-0.381217,0.865623
0.124563,0.512617,0.720117,0.113294,-0.870126,0.479631
0.134000,0.784031,0.661735,0.141604,-0.188676,0.971777
-0.083709,0.231634,0.618309,-0.717216,-0.265268,0.644387
0.404211,-0.273270,0.668872,-0.705975,-0.707140,-0.039392
-0.411378,-0.161336,0.703489,-0.098378,0.021246,0.994922
0.228431,0.026806,0.978152,-0.615399,0.776843,0.133413
0.475705,-0.620473,0.529181,0.268562,-0.655729,-0.705616
0.487591,-0.457123,0.682554,-0.869998,0.488725,-0.065199
0.435269,-0.697048,0.608729,0.716230,-0.350971,-0.603186
0.165298,0.064518,0.654945,0.294571,0.814003,0.500627
0.239421,0.165311,0.520372,0.825280,0.557540,0.089786
-0.497745,-0.288908,0.695298,-0.496163,-0.719530,-0.485900
0.003913,0.551010,0.630603,-0.456908,-0.380203,0.804165
0.058145,-0.592542,0.414334,0.077615,0.295284,0.952252
-0.541823,0.039151,0.412946,0.370821,-0.087450,0.924578
-0.693833,0.093444,0.543159,-0.654201,0.392791,-0.646326
0.065493,0.235609,0.310521,-0.659250,-0.744139,-0.107924
-0.201374,-0.081832,0.697510,-0.568909,-0.434680,-0.698137
-0.542123,0.044642,0.547004,-0.024567,-0.967864,0.250271
0.527490,0.008969,0.857788,0.644097,0.573898,-0.505747
-0.362819,0.309360,0.594481,0.767046,0.163993,-0.620280
-0.213617,0.480607,0.350938,-0.726723,-0.683559,-0.067984
0.023084,-0.279232,0.182969,0.891936,-0.431415,0.135390
-0.288637,-0.555457,0.612574,0.350732,0.699641,0.622486
-0.024398,0.265789,0.663137,0.126104,0.778235,0.615182
0.864357,0.669377,0.323496,0.424346,-0.001213,0.905499
0.673586,0.261918,0.610079,-0.600046,-0.685641,-0.412117
-0.515842,0.513768,0.287747,-0.364723,0.843722,0.393842
0.436583,0.129376,0.609578,0.765502,-0.641567,0.048974
-0.320293,-0.645528,0.550039,0.392470,-0.915927,0.083933
-0.155980,-0.074823,0.376219,-0.550006,0.145891,-0.822319
-0.144393,-0.093549,-0.002874,-0.385990,0.466388,-0.795923
-0.400268,0.571881,0.577532,0.936592,-0.055648,0.345974
-0.040466,-0.396606,0.540934,0.463827,-0.640647,-0.611912
0.848410,0.429401,0.476638,0.666123,0.031637,-0.745170
0.517038,-0.265529,0.505108,-0.154286,0.229970,0.960890
0.434553,0.374532,0.728102,-0.004969,-0.240379,0.970666
0.107422,0.062374,0.235307,0.168629,0.983212,-0.069698
-0.486993,0.464183,0.318146,-0.080095,-0.308206,-0.947942
0.823980,0.132305,0.729247,0.250423,-0.932012,0.261995
-0.374347,0.253654,0.583293,0.440891,-0.210425,0.872546
-0.631536,0.227658,0.471263,-0.257466,0.958927,0.119041
-0.113453,0.303763,0.340599,0.815541,0.565393,-0.123385
-0.230163,0.120276,0.261552,0.005406,-0.199180,0.979948
0.401045,-0.046422,0.897331,0.329767,0.937005,0.115220
-0.323996,-0.247588,0.637341,0.999505,0.030831,0.006301
0.163805,0.495881,0.814710,-0.698493,-0.702736,0.135162
-0.008391,-0.583335,0.350359,0.819055,-0.420565,-0.390223
0.572823,0.220651,0.639566,-0.234164,-0.576131,0.783096
-0.709661,0.246645,0.518019,-0.426023,0.763800,-0.484886
-0.226340,0.053377,0.714175,0.162388,0.953765,0.252909
0.409825,-0.367837,0.732873,0.999637,-0.025858,0.007588
0.231238,0.050344,0.282333,-0.212028,0.968089,0.133595
-0.161953,-0.669326,0.627876,0.826231,-0.231317,-0.513649
-0.209197,0.168502,-0.991256,-0.267045,-0.058004,0.961937
0.225265,-0.764417,0.527895,-0.411834,-0.560177,0.718745
-0.399730,0.330700,0.491465,0.416883,0.198368,0.887050
0.246289,0.010853,0.993969,0.840938,-0.534706,-0.083144
-0.518113,-0.498339,0.286538,0.079273,0.476413,0.875641
0.504913,0.031880,0.750490,0.070272,-0.995811,-0.058505
0.205556,0.065931,0.525349,0.983795,0.085726,-0.157478
-0.360370,-0.268039,0.652746,0.613921,-0.113924,0.781104
0.539255,-0.233988,0.365263,0.853592,0.346655,0.388859
0.069971,-0.642128,0.666532,-0.747315,0.428139,0.508151
-0.098282,0.384679,0.507320,0.423566,0.696325,-0.579416
0.086577,0.741088,0.657659,0.023598,0.102091,0.994495
0.736061,0.525852,0.310765,0.102452,-0.236213,0.966285
-0.006242,0.834559,0.624983,0.398177,-0.225044,0.889275
0.285649,-0.363916,0.403404,-0.150390,0.484192,-0.861940
0.135374,0.270340,0.288904,0.237973,-0.641354,0.729407
0.300702,0.007924,0.363450,-0.448758,-0.689120,0.568973
0.030492,-0.305647,0.119701,0.944167,-0.039369,0.327106
0.620188,0.474749,0.687737,0.749721,-0.627011,-0.211604
0.261520,-0.817036,0.554655,0.184011,0.889421,0.418415
-0.508974,-0.256323,0.470118,0.284303,0.881098,0.377940
-0.531432,-0.443943,0.162073,-0.658098,0.363374,-0.659444
0.295088,-0.061747,0.632609,0.910338,0.333764,0.244718
-0.383665,0.569212,0.224080,-0.739640,0.664356,0.107535
-0.527668,0.060385,0.247022,-0.026208,-0.707571,0.706156
-0.424578,0.417894,0.321220,0.120280,-0.225889,0.966699
0.210810,-0.269190,0.873991,0.858690,0.511887,0.024965
0.776854,0.158458,0.719216,0.116849,0.549294,0.827419
0.723039,0.007924,0.027281,0.132842,-0.973423,-0.186550
-0.720950,0.084969,0.543802,-0.373310,0.362158,-0.854097
0.160101,0.025969,0.407815,-0.223187,0.783985,0.579271
0.436166,-0.241363,-0.946839,0.278494,0.018134,-0.960267
0.336838,0.044851,0.830758,-0.526357,0.573463,0.627764
0.410242,-0.426839,0.782754,0.095930,0.994032,-0.051941
0.856950,0.452885,0.686656,-0.131869,-0.579925,0.803927
0.564820,-0.304392,0.746401,-0.472970,0.575817,0.666884
-0.258414,0.258676,0.725839,0.860925,-0.112021,0.496246
-0.334270,0.412192,0.656244,0.538622,-0.332801,0.774034
-0.071524,0.213065,0.613795,-0.665307,-0.557991,0.495997
-0.390354,0.366111,0.495657,0.237190,0.318354,0.917819
0.184351,-0.402883,0.644684,0.891231,0.453533,0.003794
-0.313364,-0.409577,0.467186,-0.758129,0.641248,0.118499
-0.091952,-0.665193,0.635270,0.392727,-0.544636,-0.741038
-0.423025,0.388236,0.014859,0.664444,0.234411,0.709624
-0.604539,-0.251249,0.463033,0.180884,0.971737,-0.151686
0.528922,-0.295814,0.734840,0.714421,-0.207606,-0.668208
-0.552933,-0.255434,0.286397,-0.116357,-0.893918,0.432864
0.155442,0.039360,-0.110905,-0.024446,0.997311,-0.069091
0.866029,0.438763,0.478695,0.666123,0.031637,-0.745170
-0.599581,-0.582655,0.510265,-0.869347,-0.357263,-0.341467
0.219292,0.404085,0.782459,-0.585100,0.635527,-0.503749
0.319396,0.035907,-0.582084,0.016012,-0.997452,0.069515
0.223772,-0.647462,-0.138579,-0.525095,0.832608,0.176180
0.160699,-0.106416,0.863845,0.961285,-0.161442,0.223310
0.134597,0.089991,0.887841,0.942745,-0.305420,0.133978
-0.102524,-0.845491,0.393297,-0.258756,-0.411047,-0.874120
-0.172525,-0.634491,0.339570,-0.067803,-0.427121,0.901649
0.302554,0.632868,0.389014,-0.381093,-0.411500,0.827911
0.126533,-0.751811,0.426795,0.108752,0.481204,0.869837
0.296163,-0.167091,0.752188,0.904526,0.416043,-0.093494
0.698670,0.658393,0.564416,0.390763,-0.048838,-0.919195
0.726444,0.418416,0.294948,0.179342,-0.706435,0.684680
-0.674181,0.024295,0.488198,-0.509391,-0.164323,0.844701
0.379842,0.212282,0.539250,-0.875833,0.470687,0.106631
0.646408,0.410205,0.648773,-0.521211,0.379922,0.764198
-0.502405,-0.765777,0.218885,0.336810,-0.030757,-0.941070
0.384082,-0.496299,0.581879,0.030887,0.317918,0.947615
0.885919,0.768966,0.324345,0.326806,-0.441277,0.835747
-0.551561,0.338547,0.510959,0.084084,-0.539261,0.837931
0.070688,-0.636164,0.677552,0.099318,0.745600,0.658951
0.354278,0.003269,0.886812,0.547110,0.727494,-0.414034
0.224368,0.014200,0.119688,-0.186753,-0.749845,0.634709
0.083290,-0.039360,0.512027,0.968011,-0.245761,0.050562
-0.511959,-0.431703,0.478554,-0.142845,-0.989733,0.004831
0.393998,-0.522243,0.444425,-0.534519,0.250390,0.807214
0.519367,0.630672,0.327688,-0.049490,-0.378989,0.924077
0.243901,0.006407,0.606993,0.730095,-0.132444,-0.670388
0.072421,-0.177080,0.652708,0.128175,0.299139,0.945562
0.516023,0.015875,0.753294,-0.094408,0.924620,0.369005
0.176049,0.052540,-0.131197,0.472387,0.878580,0.070344
0.412094,-0.561472,0.520887,-0.085247,0.630478,0.771512
0.089324,-0.295605,0.466402,-0.662943,0.200164,-0.721416
0.574377,0.691555,0.553948,-0.330077,0.348618,0.877220
0.424101,0.198420,0.711462,-0.642111,0.362222,-0.675640
0.753441,0.064257,0.317619,0.580885,-0.774994,-0.248912
-0.301418,0.621728,0.445750,0.834863,-0.224339,0.502669
0.934299,0.406648,0.477911,-0.730116,-0.119863,0.672729
0.069135,-0.427204,0.612021,-0.620703,-0.113205,0.775830
0.398836,0.159452,0.540279,0.752342,-0.651477,-0.097771
-0.384858,-0.518634,0.493638,-0.261319,-0.316883,0.911755
-0.252442,-0.191307,0.385658,-0.539626,0.676396,-0.501290
0.872659,0.444674,0.677192,-0.131869,-0.579925,0.803927
-0.022069,-0.792976,0.144815,-0.074244,-0.585439,0.807310
-0.695564,-0.230483,0.350912,-0.421625,-0.644645,-0.637703
-0.151381,-0.040825,0.425753,0.887770,0.176147,0.425250
0.277646,0.301147,-0.952961,-0.197673,0.195579,0.960559
0.100074,0.343776,0.636737,0.912599,0.062546,-0.404044
-0.034015,0.821115,0.624019,-0.059578,-0.554857,0.829810
0.130715,-0.136178,0.374072,-0.057852,0.183180,0.981376
0.800029,0.762795,0.340496,-0.381001,0.509553,-0.771488
-0.783842,0.210293,0.501803,-0.428415,0.827124,-0.363766
0.342571,-0.419516,0.404896,-0.033114,-0.510574,0.859196
0.470508,-0.212858,0.494384,0.124585,0.463333,0.877383
0.257637,0.014515,0.863112,-0.573236,-0.799265,-0.180488
0.475348,0.587466,0.778485,0.511560,0.643732,-0.569136
0.214037,0.330543,-0.957268,-0.139055,0.326721,0.934835
0.640734,-0.499334,0.327315,-0.604357,0.326103,0.726918
0.244736,-0.625913,0.519781,-0.365134,-0.427484,-0.827004
0.232015,-0.231530,0.549589,0.056118,0.303666,0.951124
-0.008511,-0.342365,0.369674,-0.237443,0.886842,0.396398
0.164104,-0.451788,0.639244,0.993671,0.111103,-0.016542
0.435329,-0.098203,0.544342,-0.330323,-0.620932,0.710866
0.203942,0.176138,0.601823,0.695778,0.037935,0.717254
-0.712348,0.030467,0.576465,0.382731,0.598326,0.703934
-0.826788,0.059549,0.456667,-0.559374,0.360480,-0.746428
0.139674,-0.229072,0.631220,0.946049,-0.166355,0.278059
-0.175870,-0.103591,0.297443,0.370556,-0.887647,0.273444
-0.168165,-0.292885,0.625639,0.779086,-0.094257,0.619791
0.033000,-0.215107,0.722997,0.562925,-0.694001,-0.448863
-0.161177,-0.451212,0.592423,0.182550,-0.311396,0.932581
-0.390354,-0.156105,0.618592,0.818538,0.555112,0.147805
-0.170555,0.079007,0.261861,0.038816,-0.124313,0.991484
-0.227295,-0.254336,0.125681,-0.219188,-0.323621,-0.920449
-0.849006,-0.312761,0.193244,-0.390909,-0.370421,0.842602
0.350574,-0.314121,0.779385,0.874204,0.273277,-0.401355
0.175212,-0.256950,0.856888,-0.441000,0.826835,0.349090
0.253875,-0.035856,0.801902,0.971436,0.075525,0.224963
0.302195,-0.271805,0.826617,-0.407631,0.903239,-0.134150
0.021712,-0.213223,0.725479,0.528269,-0.777389,-0.341465
0.176468,-0.840731,0.453748,-0.618356,-0.017693,0.785699
0.206689,0.040562,0.950170,-0.925756,0.089761,-0.367314
0.437658,-0.881842,0.152132,-0.206510,0.859485,-0.467588
0.533523,0.095796,-0.929055,-0.143680,-0.056800,0.987993
0.285053,0.366529,0.756496,0.979784,-0.189294,-0.064744
0.428700,-0.523132,0.434009,0.968150,-0.218149,-0.122872
0.605733,0.431388,0.705187,-0.360166,0.663719,-0.655559
0.388563,-0.409734,0.773457,0.800544,0.567416,-0.192789
-0.269943,0.752648,0.466042,0.872313,-0.228690,0.432169
0.153771,-0.234041,0.635952,-0.442753,0.633998,-0.634048
-0.167567,0.672463,0.617988,0.213167,0.290795,-0.932737
