0.074393,-0.317879,-0.162040,0.744931,0.106511,-0.658585
-0.589087,-0.048107,0.652884,-0.414929,-0.814465,-0.405562
-0.441167,-0.040442,0.626225,0.156653,-0.313689,0.936514
-0.444246,0.763058,0.427320,0.919628,-0.146748,0.364348
-0.283846,-0.115246,0.838624,-0.075941,-0.900208,0.428786
-0.521232,-0.019665,0.673687,0.875636,0.279987,0.393533
-0.465316,-0.118048,0.676779,0.774882,0.502795,0.383087
0.167099,0.974625,0.143861,-0.459659,0.544737,0.701409
0.959805,0.303288,0.133725,0.691386,0.575249,-0.437120
-0.480227,0.043773,0.852555,-0.547106,0.303355,0.780160
0.175365,0.094471,0.263742,-0.200076,0.238787,0.950237
0.563642,-0.032089,0.143658,-0.518830,0.694335,-0.498712
-0.241977,0.278442,0.718369,0.328738,0.841902,0.427939
0.305672,-0.197769,0.440204,-0.222749,-0.513467,0.828695
0.167423,0.440315,0.161243,-0.711015,0.126292,0.691742
-0.297352,-0.420120,0.682917,0.441426,0.599230,0.667882
-0.834684,-0.525164,0.506782,-0.336486,0.164317,-0.927242
-0.113398,-0.459822,0.746433,0.262430,0.751102,0.605785
-0.190599,-0.194650,0.989318,-0.603391,0.761054,0.238153
-0.378498,-0.004282,0.856787,0.623108,-0.774868,-0.106379
-0.494273,0.022521,0.638172,0.225043,0.387334,0.894051
-0.634089,0.635283,0.249951,-0.361972,-0.306815,0.880250
0.394436,0.576443,0.135912,0.483569,-0.456247,0.746994
-0.483090,0.006608,0.811137,0.689802,0.579780,0.433623
-0.187304,0.326549,0.331990,-0.376160,0.922723,0.084176
-0.314641,-0.134489,0.877480,-0.622583,0.502794,0.599657
-0.365370,-0.354673,0.756975,0.777940,0.627697,0.028391
-0.456942,0.684606,0.430240,-0.739135,0.470870,-0.481623
-0.197244,-0.436086,0.805108,0.216633,0.965933,-0.141573
-0.353107,0.254864,-0.355385,0.767003,-0.036653,-0.640596
-0.373204,-0.097801,0.959941,0.799845,-0.589645,0.112104
0.431389,0.158015,0.453042,-0.388121,-0.548775,0.740411
-0.211507,-0.100338,0.524320,-0.325063,0.945115,0.033048
-0.323609,0.424826,0.015047,-0.418840,-0.573322,0.704184
-0.212912,-0.298319,0.833454,-0.491239,0.707367,-0.508249
0.420098,-0.003066,0.280499,-0.002971,0.530580,0.847629
-0.137169,-0.741806,0.684713,-0.194407,0.769955,0.607762
-0.231767,0.227110,0.588196,-0.486108,-0.197015,-0.851401
-0.140249,0.152200,0.719352,-0.071276,-0.925144,0.372865
-0.197083,-0.061006,0.938935,-0.638339,0.765351,-0.082223
-0.328579,0.453215,0.618276,0.898528,0.418283,-0.132992
-0.408752,0.288486,0.224526,0.083366,-0.132232,0.987707
0.154133,0.033887,0.620275,0.749116,0.439076,-0.496021
0.459967,-0.359801,0.429756,-0.707491,0.128234,0.694991
0.004376,0.103246,0.361742,-0.371014,0.212276,-0.904039
0.004484,-0.148763,-0.986226,-0.236460,0.315526,0.918983
-0.176877,0.448298,0.755819,0.419205,-0.813822,-0.402445
-0.207780,-0.068936,0.662036,-0.398382,0.914143,0.075060
-0.296002,-0.122806,0.987787,-0.572567,0.155622,-0.804953
0.270935,0.418746,0.229071,0.442437,-0.259031,0.858576
-0.189573,0.302020,0.566004,-0.906338,0.247818,0.342252
0.459698,-0.031296,0.136068,-0.024345,0.645303,0.763538
-0.191248,-0.041710,0.606781,0.272135,0.953644,-0.128473
-0.524689,-0.122964,0.657007,0.019538,0.968718,0.247394
0.237601,0.190527,0.221277,-0.415501,0.702253,-0.578099
-0.492220,-0.137767,0.515746,0.058170,0.998084,0.021080
-0.355591,0.342197,0.545607,0.766108,-0.004742,-0.642695
-0.094490,-0.103722,-0.809216,0.996342,-0.029241,-0.080295
-0.060616,0.202210,0.867579,0.988507,-0.119101,-0.093103
0.404646,-0.296098,0.546263,0.296741,-0.745835,-0.596385
0.159158,0.469973,0.408344,0.123253,0.992280,0.013743
0.157698,-0.224043,0.708779,-0.269838,-0.775744,-0.570446
-0.655213,-0.643106,0.626038,0.139415,0.474295,0.869257
-0.224203,0.236150,0.102397,-0.288157,-0.350958,0.890951
-0.247055,-0.322373,0.523571,0.683596,0.389428,0.617286
0.117180,-0.318936,0.224229,-0.313119,-0.142585,0.938950
-0.277363,-0.039966,0.907653,0.446034,0.881407,0.155484
-0.181037,0.060214,0.905998,0.791344,0.504802,-0.344891
0.108266,0.168482,0.766252,-0.609263,0.347540,0.712752
-0.587466,0.137926,0.644373,0.025677,-0.029884,0.999224
0.228741,0.197770,0.603533,0.884403,-0.465849,-0.028577
0.369206,0.645168,0.183030,-0.165741,0.066504,-0.983924
-0.090978,-0.031930,0.247609,0.291912,-0.919307,0.263935
0.832685,0.152411,0.191260,-0.574297,0.112605,0.810865
-0.087736,-0.093624,0.853601,0.396375,0.669926,0.627762
0.188277,-0.295200,0.669205,-0.401006,0.155647,0.902756
0.327175,0.468757,0.463896,0.869724,0.383668,0.310450
-0.267099,0.198192,0.524664,0.764588,-0.638855,0.085268
-0.217125,-0.080989,0.231038,-0.166343,0.979867,-0.110412
-0.507779,-0.226422,0.764612,0.137677,-0.469235,0.872275
-0.143706,-0.038591,0.736516,-0.425812,0.764587,-0.483830
-0.580172,0.074646,0.174737,-0.681693,-0.099682,0.724816
0.205457,-0.502220,0.588306,-0.086151,0.471511,0.877642
-0.366721,-0.054346,0.884133,0.359875,-0.702500,0.613990
0.050189,0.403151,0.333880,0.177964,0.483767,-0.856912
-0.096542,-0.069993,-0.996767,0.048030,0.347311,0.936519
-0.532307,-0.250158,0.488697,-0.697656,0.180235,-0.693391
-0.393571,-0.017287,0.868438,-0.716814,0.693452,-0.072812
-0.688925,-0.203743,0.757053,-0.285505,-0.865332,0.411931
0.306105,-0.041552,0.130165,-0.002185,-0.837980,0.545696
0.518098,-0.103351,0.489962,0.350591,0.039364,0.935701
0.698163,-0.117414,0.146063,0.213204,-0.526606,0.822940
-0.605024,-0.193540,0.785961,-0.042801,0.697033,0.715761
-0.140410,0.317985,0.705453,0.363396,0.766738,-0.529204
-0.300810,-0.169909,0.907888,-0.262880,0.817533,0.512380
-0.506537,-0.288380,0.830674,0.840758,-0.319127,0.437360
-0.491248,0.076021,0.812527,0.364899,0.232184,-0.901631
-0.191626,-0.181856,-0.594178,0.977915,-0.171944,0.118815
0.253485,0.452316,0.433692,0.520483,-0.620947,-0.586107
-0.145597,-0.129414,0.392914,-0.521429,-0.739378,-0.425948
-0.257590,0.134912,0.898798,0.992322,0.039698,0.117134
-0.337763,-0.090928,0.944792,-0.568775,0.393517,-0.722246
0.271637,0.003648,0.647902,0.607888,-0.433374,-0.665326
-0.192869,-0.048266,0.975855,0.961867,-0.046278,-0.269576
-0.393841,-0.414252,0.611107,0.910577,-0.387848,-0.142914
-0.157536,0.095316,0.837890,-0.130276,-0.139035,-0.981681
-0.010157,0.707813,0.383669,-0.146038,0.834045,-0.532017
0.643545,0.225999,0.135646,0.881225,-0.456324,0.123332
-0.258617,0.463364,0.758693,-0.452686,0.805591,0.382229
-0.543274,0.743656,0.444031,0.061660,-0.496029,0.866114
-0.539816,-0.296627,0.835282,-0.095354,0.563197,0.820803
0.526959,0.010468,0.276017,0.080695,0.426305,-0.900973
0.021718,0.711461,0.191432,-0.000758,0.777131,0.629339
-0.058778,-0.063649,0.722242,0.363315,-0.274158,0.890415
0.196435,0.158755,0.543717,0.806637,0.197113,0.557210
0.211021,-0.542874,0.608093,0.352233,-0.567056,-0.744566
0.067477,-0.038010,0.847807,-0.714569,-0.684506,0.144369
0.337385,0.562276,0.394913,0.261541,-0.566820,0.781224
0.238574,0.203796,0.712246,-0.394701,0.735057,-0.551273
-0.512696,0.030926,0.824115,0.793855,-0.165646,0.585112
0.258726,0.064866,0.607640,0.778453,-0.606084,-0.163319
0.934576,0.273578,0.141503,0.495801,-0.441637,0.747755
-0.165856,-0.058945,0.059964,-0.183316,0.972958,-0.140526
-0.403620,0.006185,0.869234,-0.001203,-0.997888,0.064951
0.409022,-0.427521,0.359493,0.956595,-0.174257,0.233582
0.322312,-0.075174,0.477983,-0.107383,-0.197767,0.974350
-0.253917,-0.107581,-0.995080,-0.234529,0.209946,0.949168
-0.641167,0.309474,0.057340,0.031120,-0.628593,0.777111
-0.375905,-0.251004,0.879292,-0.121199,-0.991634,-0.044424
-0.555429,-0.127987,0.700611,-0.712690,0.701396,0.010812
-0.178606,-0.111334,0.425383,0.787238,0.564099,0.249095
0.503133,0.307412,0.237457,0.039885,0.417471,0.907814
0.147866,-0.457972,0.596130,-0.369342,-0.769188,0.521475
-0.504430,-0.002590,0.667502,0.133991,-0.833210,0.536477
0.603511,0.264591,0.201396,0.663819,-0.538005,0.519515
-0.716910,0.696765,0.231038,0.869113,-0.399245,0.291969
-0.419395,0.049218,0.386495,0.576467,0.759353,0.301775
0.059535,-0.171706,0.813433,0.798261,0.602179,-0.012650
0.182064,0.186509,0.813042,-0.542764,0.538085,-0.644882
-0.218692,0.545412,0.695223,0.234535,-0.441842,0.865892
0.685413,0.325386,0.252778,0.168001,-0.659965,0.732271
-0.046623,-0.122383,-0.389151,-0.239782,0.970195,-0.035029
-0.545111,0.128357,0.868594,-0.712509,-0.697092,-0.079960
-0.446029,-0.289913,0.865049,0.341255,-0.075531,0.936931
0.382226,-0.193592,0.741529,-0.686845,0.608352,0.397683
0.616586,0.508934,0.118077,0.273179,-0.842667,-0.463989
-0.340788,-0.276961,0.853945,0.635503,0.601226,-0.484421
-0.294003,-0.081254,0.977854,0.583781,0.475376,0.658193
0.141924,0.267710,0.431162,0.845629,-0.516997,0.132762
-0.123447,0.165310,0.818961,0.873857,-0.485767,0.020097
0.646786,-0.318355,-0.174144,0.146851,-0.404090,0.902854
-0.540195,-0.062592,0.674077,-0.382307,0.213346,0.899069
-0.055862,-0.249365,0.869297,-0.150547,0.280894,-0.947858
-0.254673,-0.082311,0.931892,0.999515,0.004664,0.030797
0.462723,-0.231920,-0.168006,0.420968,0.519311,-0.743708
-0.490384,0.789332,0.443593,-0.306306,0.041256,-0.951039
0.109508,0.010573,0.267677,0.058828,-0.059920,0.996468
0.318639,-0.143582,0.481653,-0.245817,-0.076184,0.966318
-0.481037,-0.153996,0.452605,0.031796,-0.995278,0.091713
-0.014749,-0.154102,0.885820,0.889129,-0.361486,-0.280673
0.296272,-0.477743,0.423993,0.095956,-0.482039,0.870879
-0.533928,0.078399,0.655149,-0.433222,0.222529,-0.873384
-0.355322,0.003753,0.578232,0.156410,0.174719,-0.972116
0.713831,0.331201,0.241658,-0.397176,-0.651069,0.646807
0.184657,-0.291235,0.672484,-0.534254,0.113523,0.837666
0.308536,-0.344153,0.259165,-0.202723,0.235083,0.950600
-0.201674,0.497357,0.520978,0.209714,-0.515844,0.830617
0.100703,0.238793,0.718369,0.119068,-0.431443,0.894248
-0.119556,-0.205699,-0.965782,0.124947,-0.779991,0.613191
-0.353268,-0.085324,0.776950,0.742529,-0.245113,-0.623354
-0.098379,0.235462,0.311812,0.158949,0.017682,0.987128
-0.143543,-0.119052,-0.814464,0.979380,-0.201977,0.004428
-0.453052,0.259727,0.764237,0.545575,-0.695441,0.467664
0.156780,-0.172764,0.459586,-0.098812,-0.275085,0.956329
0.567964,0.096585,0.176111,0.297796,0.469080,-0.831433
-0.302702,-0.060689,0.862034,-0.093842,0.971070,-0.219585
-0.565316,-0.083051,0.649292,0.978270,0.197040,0.064522
-0.335926,-0.546680,0.702564,-0.209229,0.214827,0.953977
0.153647,-0.235092,0.859973,0.510406,-0.758855,-0.404506
-0.464235,-0.154578,0.827285,0.793788,0.420881,0.439044
-0.533657,0.702845,0.407892,-0.153168,0.976839,-0.149416
-0.029119,-0.082311,0.846370,0.584322,-0.338256,-0.737666
0.244895,0.216854,0.042925,-0.711221,0.443724,0.545227
-0.427066,-0.086752,0.881260,0.598455,0.590654,-0.541276
-0.201080,0.178209,0.094744,-0.476040,-0.202973,0.855680
-0.458077,-0.291446,0.867235,-0.609927,0.266435,-0.746325
0.015451,-0.527278,0.546529,0.573933,0.551276,-0.605554
-0.588655,-0.228008,0.434348,0.244120,0.478015,0.843746
-0.318747,0.009357,-0.123308,0.647782,0.755424,-0.098556
-0.559913,-0.147018,0.522134,-0.588533,0.364785,-0.721499
-0.070124,-0.508300,0.522165,0.731812,0.470647,-0.492892
-0.302702,-0.107739,0.453026,0.118448,-0.038767,0.992203
0.149325,-0.282829,0.535346,-0.620920,0.333897,0.709205
-0.426256,0.320205,0.591148,0.985355,0.137870,0.100334
-0.422096,0.111229,0.656414,0.115276,0.898635,0.423281
0.103242,0.582153,0.357056,-0.157507,-0.772453,0.615230
-0.513938,-0.060478,0.647074,0.320860,0.787341,-0.526443
-0.268395,0.311429,0.718103,0.393118,0.202898,-0.896822
0.324041,-0.163671,0.715651,0.192585,-0.172644,0.965974
-0.305618,-0.035896,0.784931,0.474405,0.174475,-0.862843
0.717072,0.016600,0.276704,0.404943,-0.053545,-0.912773
0.192815,0.220290,0.552276,0.928519,0.322295,-0.184335
-0.176877,0.388824,0.707436,0.152700,0.141377,-0.978108
-0.674446,0.563069,0.083952,0.495552,0.765453,-0.410501
0.442194,0.616039,0.169177,-0.663699,0.267648,-0.698476
0.380281,-0.040336,0.666144,-0.271308,-0.012660,0.962409
-0.655051,-0.537587,0.625600,-0.415070,0.253363,0.873799
-0.192706,-0.065764,0.110252,-0.524265,0.815265,0.245944
-0.290491,-0.152093,0.953022,-0.368406,0.760796,0.534291
0.194220,0.424615,-0.009456,0.709222,0.356447,-0.608235
0.072286,0.207761,0.480123,0.604674,-0.280759,0.745348
-0.795300,-0.851713,0.584510,0.483015,-0.003325,-0.875606
0.490168,-0.359695,0.580528,0.775273,-0.300317,-0.555663
-0.586872,-0.106259,0.724600,-0.006146,-0.920406,0.390916
-0.047326,-0.420490,0.417449,0.444365,-0.812691,-0.376926
0.134306,0.172182,0.693287,0.728054,0.584389,-0.358367
-0.435602,0.697717,0.054341,-0.045111,-0.380988,0.923479
-0.238087,0.493815,0.617635,0.550331,0.486504,-0.678565
-0.168017,-0.466589,0.616245,-0.565505,0.033435,-0.824067
0.655754,0.096056,0.197180,0.402378,-0.330091,-0.853892
-0.429714,0.153468,0.810715,-0.461410,0.585630,-0.666437
0.414100,0.035631,0.457243,-0.429921,0.018902,0.902669
0.184009,-0.186826,0.801720,-0.702788,0.676216,0.220954
-0.672663,-0.137502,0.551682,0.886582,-0.087881,0.454148
0.131929,0.156640,0.795254,-0.694453,-0.656184,0.295226
-0.086980,0.223568,0.784462,0.392779,-0.607544,0.690373
-0.234359,0.274265,0.731800,0.647456,-0.757802,-0.080856
0.029605,0.139671,0.752306,0.409168,-0.251518,0.877109
-0.516910,0.050487,0.810981,0.277785,0.940846,-0.194020
-0.558131,0.525481,0.247765,0.030127,0.342061,-0.939195
0.105186,-0.229964,0.721445,0.540800,0.756995,-0.366735
0.113075,-0.240801,0.411484,0.568510,0.776477,-0.271810
-0.169908,-0.286635,-0.280452,0.401562,0.912101,0.082579
-0.508698,-0.335060,0.858224,-0.079297,-0.875475,0.476714
0.703620,-0.058204,0.139660,0.295771,-0.127370,0.946729
-0.329605,0.198879,0.472111,0.848236,-0.332178,0.412497
-0.562128,-0.461726,0.752712,-0.694098,-0.487668,-0.529536
-0.186764,0.144798,0.850431,0.021577,0.999262,-0.031792
0.305295,0.019666,0.651900,-0.639434,0.321223,0.698527
0.088979,0.150667,0.509421,-0.194269,-0.094700,-0.976367
-0.049702,-0.364770,0.883462,-0.204882,0.829201,0.520047
-0.491572,0.037588,0.810715,0.343067,0.295473,-0.891628
-0.084495,-0.315394,0.902312,-0.368705,-0.644298,-0.670028
-0.027499,-0.306460,0.876434,-0.080600,0.832664,0.547881
0.471529,0.453003,0.257510,-0.145762,-0.649388,0.746357
-0.316208,0.423822,0.565504,0.893299,-0.447963,0.036684
-0.627552,-0.060055,0.732487,-0.533701,0.803885,-0.262549
-0.113615,0.120004,0.361679,-0.438041,0.595865,0.673101
-0.106105,-0.192271,-0.822694,0.986253,-0.152088,0.064603
-0.344895,0.487894,-0.230460,-0.373165,0.432384,0.820848
-0.185521,-0.034362,-0.994721,-0.035539,0.162221,0.986114
-0.305781,0.469973,0.034523,0.151120,-0.417054,0.896230
0.564560,0.520195,0.278453,0.603862,0.249445,-0.757052
0.595084,0.022838,0.168412,0.473839,0.680981,-0.558338
0.525986,0.585959,0.285419,0.372342,0.305095,-0.876515
0.652458,0.235833,0.106535,-0.578276,0.807746,-0.114644
-0.494597,0.111704,0.844699,0.039985,-0.945664,0.322677
-0.205889,0.570100,0.544123,-0.266205,-0.783895,0.560930
0.014857,-0.190473,0.845464,0.320577,0.331866,0.887184
0.049865,0.266812,0.773702,0.276308,0.945839,-0.170418
-0.035980,-0.480440,0.563271,-0.078518,-0.951663,0.296939
-0.654943,-0.044565,0.648933,-0.015469,-0.373012,0.927697
0.140519,0.612339,0.136771,0.874542,0.173989,-0.452664
0.167099,-0.147653,0.726911,0.385518,-0.679632,-0.624080
-0.149486,-0.071157,0.900407,-0.368700,0.726021,0.580478
-0.320367,0.490960,0.397912,0.545138,-0.186629,0.817309
-0.725986,0.580937,0.085545,-0.016555,0.210608,0.977430
-0.688222,0.012265,0.712293,0.331561,-0.271220,0.903608
-0.566126,0.710827,0.439642,0.075487,-0.719299,0.690587
-0.003025,-0.246881,0.834813,-0.699317,0.630007,0.337710
-0.424527,0.612128,0.170145,-0.491296,0.797205,0.350844
-0.282064,0.142208,0.921163,-0.570304,0.814340,0.107720
-0.532307,-0.035472,0.871015,-0.463990,0.515001,-0.720755
0.911994,0.341140,0.154059,0.447927,-0.613003,0.650837
-0.103890,-0.088972,0.506720,-0.300830,0.132329,0.944452
-0.385467,0.351819,0.559960,0.735242,0.229468,-0.637780
-0.571637,-0.361334,0.753446,0.865016,-0.257071,0.430884
0.577148,-0.380683,0.449153,0.090493,0.273770,0.957529
-0.215127,-0.042609,0.439720,0.928172,0.304571,0.213852
-0.714749,-0.115880,0.789741,-0.124243,0.900959,0.415736
-0.533279,0.089290,0.646418,-0.155452,0.237921,0.958764
-0.524149,-0.040283,0.740264,0.625332,0.438193,0.645714
-0.100324,0.369846,0.334395,-0.374067,-0.145054,0.915987
-0.647110,-0.047314,0.709435,-0.056590,0.725974,0.685390
-0.534521,-0.122488,0.766439,-0.736229,-0.674643,-0.053141
-0.580119,0.131053,0.641374,0.141025,-0.178134,0.973848
-0.582604,0.143371,0.642858,0.166507,-0.263311,0.950233
-0.569206,-0.233823,0.699831,-0.430405,0.787728,-0.440724
-0.149270,-0.080196,0.203380,0.371247,-0.918682,-0.134905
0.491896,0.238317,0.226150,-0.350835,0.250223,0.902388
0.252026,-0.359907,0.698347,0.166925,0.598163,-0.783796
0.566018,0.431381,0.283045,0.186266,0.787861,-0.587010
-0.496651,0.648076,0.252075,-0.322309,0.126791,-0.938105
0.083090,-0.215373,0.823990,0.751235,0.652700,-0.098122
-0.260778,0.283623,0.004350,-0.022047,-0.479566,0.877229
-0.206753,0.156006,0.875372,0.789723,-0.437978,0.429550
0.143274,0.306090,0.748963,0.998768,0.028340,-0.040737
-0.045867,-0.136286,0.868063,0.888747,0.174760,-0.423778
0.501729,0.093360,0.272019,-0.080866,0.498945,0.862853
-0.330200,0.530292,0.407470,0.958532,0.078337,0.274005
0.007941,-0.355942,-0.173144,0.702398,0.122444,-0.701173
-0.083414,-0.497780,0.599956,-0.736672,0.632664,-0.238854
0.113885,0.247093,0.779777,-0.507810,-0.859147,-0.063204
-0.613074,-0.005921,0.696020,0.425862,0.520963,0.739756
-0.161858,-0.417794,0.826442,-0.349548,0.890373,-0.291636
-0.497245,-0.104726,0.628302,0.726387,0.625604,0.284572
-0.153539,-0.162561,0.959191,-0.348455,0.656624,-0.668897
-0.401513,-0.253225,0.874169,0.054442,-0.987958,-0.144828
-0.137926,0.896595,0.364803,0.446424,0.770948,0.454252
-0.467801,-0.146542,0.697019,0.912926,0.353170,-0.204541
0.178391,-0.188570,0.855975,-0.772023,0.389915,-0.501944
-0.176121,-0.199408,0.945729,-0.205095,0.955832,-0.210525
-0.162615,0.064073,0.860379,0.825372,-0.286153,0.486701
0.029228,-0.333897,0.699581,0.884894,0.255641,0.389371
-0.467585,-0.698668,0.585838,0.044478,0.303694,0.951731
0.142788,0.465797,0.435566,0.050127,0.761449,0.646284
0.029822,-0.364295,0.590851,0.589002,0.010309,-0.808066
0.236683,0.272627,0.729504,-0.206942,0.632473,-0.746427
0.276770,-0.343096,0.693599,0.272065,-0.399753,-0.875316
0.574878,0.203214,0.545076,-0.631129,0.435826,0.641663
-0.405240,-0.177310,0.380030,0.580057,-0.700299,0.416071
0.208050,0.499842,0.057137,0.751095,0.506695,-0.423221
-0.236466,-0.037534,-0.114375,0.567138,0.823453,0.016719
-0.194382,-0.031666,-0.047235,0.925535,0.378337,0.015679
-0.043274,-0.171125,-0.984757,0.071304,0.280394,0.957233
1.000000,0.231445,0.153154,0.643685,0.627035,0.438745
-0.301782,-0.652516,0.652275,0.110372,-0.044220,0.992906
-0.421934,0.497833,0.396319,0.372450,0.149766,-0.915888
0.322853,-0.307147,0.549886,-0.144732,0.036174,0.988809
-0.189357,-0.084584,0.678856,0.949068,-0.260853,0.176707
0.448244,-0.386815,0.561600,0.660511,-0.068817,-0.747656
-0.403187,-0.397441,0.678591,0.450508,-0.158691,0.878556
-0.723879,-0.004811,0.709685,-0.162403,-0.065250,0.984565
-0.273096,-0.454853,0.774076,0.383519,-0.321476,-0.865775
0.220422,-0.530661,0.603439,-0.484825,0.499753,0.717769
-0.024365,-0.127934,-0.282764,0.321339,0.946766,0.019389
-0.448730,-0.409812,0.663348,0.994262,0.077226,0.074022
0.508590,0.174932,0.258884,0.375952,0.491368,0.785632
-0.303025,0.499947,0.686290,-0.162426,-0.983481,-0.079893
0.547326,0.498044,0.280452,-0.652566,0.013289,0.757615
-0.199081,-0.042557,0.291385,0.990035,-0.130291,-0.053433
-0.589248,-0.130841,0.771437,-0.582403,0.335151,-0.740595
0.290114,0.115617,0.622914,-0.389759,0.456358,0.799891
0.394814,-0.339977,0.406908,-0.126137,-0.715847,0.686770
-0.304376,-0.292239,0.718290,-0.712738,0.616922,0.333786
-0.634468,0.534627,0.244407,-0.209423,-0.295198,0.932202
0.681091,0.271040,0.121715,0.833891,-0.529102,0.157085
0.129822,0.127670,0.688195,0.957270,-0.205916,-0.203057
-0.609725,-0.150983,0.698035,-0.396572,0.889786,0.225857
0.121934,0.231815,0.680480,0.725964,0.418102,-0.546047
0.314046,-0.098858,-0.349170,0.400276,-0.588875,-0.702144
-0.422798,-0.083263,0.842185,-0.011891,-0.433855,0.900904
-0.383684,-0.298107,0.830050,0.958538,0.054830,-0.279640
0.311238,-0.287376,0.521822,0.872712,0.367033,0.321964
-0.565856,-0.089607,0.498723,0.875732,0.478494,-0.064319
-0.194868,-0.044248,0.342688,0.820334,0.532389,-0.208838
-0.540897,-0.001057,0.895987,-0.259632,0.769060,0.584070
0.151918,-0.152728,0.699909,0.543333,0.005276,0.839500
-0.163587,-0.136868,0.906669,-0.351744,-0.539887,-0.764721
0.387790,0.258776,0.497302,-0.488603,0.337179,0.804722
-0.170826,0.443434,0.717510,0.822463,-0.187313,0.537093
-0.200919,-0.028759,0.446935,0.372463,0.902422,0.216579
-0.442302,-0.507771,0.615090,-0.359321,0.656046,0.663695
-0.629713,-0.228801,0.708811,0.047997,-0.992714,0.110524
-0.418639,0.062910,0.373689,0.551104,0.781038,0.293707
0.562129,0.076021,0.192416,-0.476887,-0.358861,0.802370
-0.192761,-0.094047,0.965563,-0.278085,-0.958318,-0.065533
-0.352404,-0.494132,0.802126,-0.481670,0.536302,-0.693090
-0.033117,-0.087967,0.927128,-0.309258,0.935052,-0.173310
-0.097299,-0.139036,0.955631,0.131224,0.867931,0.479037
-0.220799,-0.343519,0.838686,0.793621,0.003437,0.608403
-0.543274,-0.169327,0.568112,0.821871,0.404655,-0.400978
-0.574284,-0.345950,0.501550,-0.326777,-0.290011,-0.899506
0.521069,0.592937,0.057590,0.964804,-0.084826,-0.248912
-0.533225,-0.497357,0.757288,0.732041,0.319026,0.601946
0.038736,0.539914,0.375048,0.107676,0.667374,-0.736897
-0.334360,-0.064918,0.971904,0.305487,-0.929834,-0.205151
0.178552,-0.187143,0.813198,0.905840,0.272655,0.324213
0.049703,-0.273736,0.884914,-0.606239,0.721980,0.333495
0.382388,-0.400243,0.385012,0.960159,-0.252221,0.120327
-0.460292,-0.107158,0.904967,-0.917312,0.274926,0.288019
-0.435494,-0.775322,0.600331,0.507336,-0.163524,0.846091
0.466775,-0.345897,0.411843,-0.611814,0.159644,0.774724
-0.239924,0.012106,0.920616,0.990204,0.138912,0.014145
0.788331,0.333475,0.167756,0.021480,-0.548525,0.835858
-0.143382,-0.473461,0.794801,0.070490,-0.875945,0.477234
-0.263209,-0.100444,0.631347,0.147446,0.987385,-0.057718
-0.272609,0.349598,0.755773,0.288204,-0.849987,0.440977
-0.224473,-0.144956,0.922615,0.973926,-0.225432,-0.025461
-0.222420,0.286794,0.559304,-0.147081,-0.960240,0.237292
0.948677,0.289861,0.135553,0.774827,0.598908,-0.202365
0.365370,0.067562,0.014766,-0.297019,-0.499468,0.813825
0.109563,0.047209,0.342985,0.321596,0.042448,0.945925
0.570124,0.355625,0.174128,-0.580330,-0.749753,-0.317942
0.561372,0.410235,0.214265,0.052945,0.399284,0.915297
-0.435926,0.714898,0.443250,-0.181629,-0.155229,0.971038
0.053161,-0.314390,0.728489,-0.675259,-0.235878,0.698847
0.434036,0.429531,0.262242,-0.093845,-0.747364,0.657754
-0.530146,-0.059790,0.635970,-0.451094,-0.883615,0.125451
-0.528741,-0.251216,0.786602,0.098093,0.981600,0.163829
-0.330362,-0.320258,0.584198,0.874663,-0.436092,-0.211631
-0.170178,-0.177839,-0.977808,-0.590133,-0.166748,0.789898
0.446137,0.030979,0.194696,0.212584,0.175005,-0.961344
0.308104,-0.103669,0.654665,0.108468,-0.581518,0.806270
-0.196488,0.018186,0.433332,-0.169990,-0.973580,0.152465
-0.376823,0.531878,0.032367,0.027850,0.511285,-0.858960
0.253377,-0.375978,0.407860,-0.440833,-0.896780,-0.038097
-0.700378,0.071844,0.716963,-0.499507,0.732365,-0.462747
0.385683,-0.304398,0.531957,0.485562,0.467110,-0.738943
-0.966558,-0.339712,0.456384,0.313088,0.083166,0.946076
0.282766,-0.069888,0.659709,-0.001055,-0.381931,0.924190
0.268557,-0.102664,0.760833,-0.675928,0.195069,0.710682
0.679957,-0.353034,-0.182858,0.347813,-0.601047,0.719561
0.471961,-0.383273,0.586838,-0.662802,0.374718,0.648290
-0.248460,0.311800,0.612778,-0.584927,0.789617,-0.185379
0.120260,0.217488,0.709685,0.013402,-0.950171,0.311441
-0.168990,-0.102876,-0.134803,-0.077085,0.996695,-0.025640
-0.467153,-0.182914,0.770906,-0.347705,0.688058,0.636928
-0.120259,-0.145538,0.553666,-0.092715,0.371762,0.923686
0.468557,-0.047314,0.158214,0.274736,0.934455,0.226526
0.053647,0.018715,0.725568,-0.250118,-0.392431,0.885121
-0.288330,-0.692430,0.709998,0.813855,-0.145802,0.562478
-0.149109,-0.252855,0.819149,0.588626,0.324945,-0.740223
0.783955,0.011578,0.177126,-0.743103,0.668450,0.031167
-0.585846,-0.163248,0.780339,0.417732,-0.465832,-0.780065
0.351918,-0.138612,0.482497,0.099171,-0.028705,-0.994656
0.407563,-0.033305,0.661255,0.786770,-0.609945,-0.094656
-0.184981,0.222193,0.900657,0.823753,-0.552997,-0.125002
-0.119665,-0.005868,0.866860,-0.480350,-0.621263,-0.619109
-0.378498,0.640199,-0.242814,0.309922,-0.418909,-0.853501
0.049217,0.073536,0.759615,-0.169426,-0.825616,0.538194
-0.138303,-0.449830,0.510296,0.755047,0.650740,0.080260
0.040086,-0.327395,0.716198,0.970722,0.157838,-0.181068
0.445705,-0.310002,0.563630,-0.304595,0.736478,0.604005
-0.098649,0.410182,0.759021,0.613846,-0.368275,0.698259
-0.412480,-0.399609,0.523836,-0.510135,-0.858410,-0.053791
-0.781470,-0.782776,0.594537,0.167452,0.210767,-0.963087
-0.018638,0.341933,0.821523,-0.283809,0.654640,-0.700641
-0.250135,0.416103,0.128103,-0.530981,0.397835,-0.748189
0.031820,0.170015,0.769719,0.473285,-0.874928,0.102478
0.182226,-0.269507,0.519135,0.714064,0.087666,-0.694569
-0.111400,-0.215532,-0.979151,-0.159677,0.266368,-0.950553
-0.817504,-0.421601,0.488790,-0.180597,0.618791,0.764515
-0.077795,-0.080144,-0.522759,0.872637,0.484112,-0.064345
0.281956,-0.328505,0.689507,-0.275081,0.324445,0.905023
-0.250783,0.039543,0.876824,-0.198620,0.944618,-0.261242
-0.259211,-0.114242,0.435816,-0.617399,-0.352063,-0.703470
-0.214478,-0.098329,0.952632,-0.522673,0.791241,0.317414
0.562021,-0.395908,0.451449,0.252417,0.226468,0.940743
-0.409508,-0.097695,0.854866,0.762508,-0.133278,0.633103
0.323447,0.160763,0.593334,0.901770,-0.432038,-0.012394
-0.202593,0.455699,0.741935,-0.312855,0.944604,0.099224
-0.129605,-0.626506,0.663129,0.304411,0.770299,0.560333
-0.381199,-0.100285,0.857755,-0.083239,-0.916279,0.391797
-0.236791,0.187989,0.697004,-0.521510,0.146921,0.840501
-0.044192,0.197875,0.730972,0.518057,0.838267,-0.170075
-0.240141,-0.402358,0.542812,-0.716821,0.035372,-0.696359
-0.019233,0.323430,0.814198,0.218593,-0.643044,0.733970
0.228039,-0.251427,0.691303,0.931089,-0.315308,-0.183448
-0.467477,-0.595475,0.583636,-0.254050,0.531762,0.807891
-0.700594,-0.540442,0.608733,-0.238513,0.786914,0.569102
0.013723,0.194069,0.765643,-0.099886,-0.988321,-0.115083
0.033441,-0.135441,-0.983898,0.233796,-0.270038,-0.934034
0.139709,0.364718,0.273830,0.331257,-0.099558,-0.938273
-0.078444,-0.292080,0.357884,-0.096477,0.428983,0.898146
0.111778,0.696924,0.400458,0.095638,0.849159,0.519406
-0.287034,0.442853,0.683213,0.220694,-0.096897,0.970518
-0.403889,-0.260256,0.840420,-0.111305,-0.953933,0.278610
0.173366,0.312751,0.548606,0.621811,-0.471392,-0.625413
-0.472609,-0.248044,0.838764,-0.724116,0.424016,0.543937
-0.247055,0.093995,0.356072,-0.227302,-0.272720,0.934857
-0.026472,-0.262370,0.846136,-0.400108,0.914125,-0.065493
-0.247704,-0.068566,0.974075,0.027020,-0.140897,0.989655
0.376499,0.267869,0.224994,-0.028092,0.101131,0.994476
-0.778606,-0.139194,0.756819,0.776034,0.589471,-0.224266
0.165154,-0.262899,0.673328,0.751795,-0.271147,-0.601068
-0.017612,-0.114876,0.349919,-0.004225,0.308510,0.951212
-0.070179,0.274688,0.872623,0.937145,-0.172063,-0.303569
-0.190167,-0.504705,0.639734,0.640355,0.471089,0.606647
-0.137331,0.050751,0.785165,-0.729054,0.569512,0.379654
-0.340788,0.023208,0.847604,-0.618173,0.692139,-0.372567
0.102215,0.194915,0.683713,0.534373,0.838932,0.103142
0.436413,-0.096902,0.157636,0.139266,0.789815,0.597325
-0.139276,-0.120744,-0.692225,0.981093,-0.122776,-0.149609
-0.519773,-0.245348,0.782119,-0.661763,-0.645639,0.381077
-0.126201,-0.133115,-0.776044,0.810862,-0.581047,0.069905
0.063965,-0.080672,0.352668,-0.290796,-0.223467,-0.930323
-0.306375,0.330620,0.125589,0.312421,-0.234887,0.920446
-0.529551,0.049905,0.809778,0.444946,0.849189,-0.284432
-0.192706,-0.109431,0.728395,0.952648,-0.006231,-0.304011
-0.672069,-0.144163,0.755054,-0.612973,0.066120,0.787332
-0.102971,-0.228219,0.570845,-0.578843,-0.726725,0.369881
0.061102,0.263428,0.726021,-0.478211,-0.207699,0.853332
-0.663371,-0.189204,0.712965,0.926886,0.371261,-0.055207
-0.677039,-0.301385,0.476156,0.696502,-0.669522,-0.258119
-0.252890,0.215849,0.703188,0.028869,0.791211,0.610861
-0.095137,0.259410,0.783463,0.324122,0.945812,0.019608
-0.585305,-0.108955,0.714324,-0.548009,-0.818068,-0.174500
-0.482982,-0.055138,0.837921,-0.109527,0.513133,0.851292
-0.488114,-0.069676,0.740233,0.259031,-0.803910,-0.535380
-0.700108,0.743234,0.259493,0.243525,-0.584803,0.773758
-0.352620,0.601343,0.423650,0.845668,0.026701,0.533040
-0.274230,-0.125238,0.898751,0.535032,-0.625456,-0.567931
0.172609,-0.150824,0.733955,-0.647134,0.754324,-0.110513
-0.423338,-0.117414,0.732549,0.149963,-0.987410,-0.050323
-0.191896,-0.085060,-0.463521,0.830818,0.554440,0.048351
0.201297,-0.300116,0.674187,0.593565,0.678872,0.432220
0.396219,-0.367255,0.530677,-0.719737,0.606489,0.337861
-0.001999,-0.116674,0.905404,-0.151301,-0.043285,0.987540
-0.159157,0.185822,0.734111,-0.459373,0.872529,0.166343
-0.167045,0.035843,0.907638,0.896215,0.331937,0.294306
-0.932469,-0.281824,0.451527,0.153560,0.097613,0.983306
-0.131928,0.377088,-0.193494,0.096089,0.236706,0.966818
-0.164344,-0.334373,0.894722,0.746158,-0.553136,-0.370525
-0.415289,-0.049852,0.849931,0.890780,0.272808,-0.363437
-0.357212,0.267763,0.614231,0.025078,0.957869,-0.286107
-0.266990,0.075175,0.857146,-0.288071,0.762493,-0.579327
0.241599,-0.080302,0.767298,-0.675928,0.195069,0.710682
-0.445273,-0.053658,0.885305,-0.373717,-0.854328,0.361191
0.252675,0.162032,0.626334,0.178776,0.866522,-0.466025
-0.455159,0.375450,0.048391,-0.671488,-0.090374,-0.735484
-0.502053,0.128410,0.899985,0.581319,0.113986,-0.805652
-0.505835,-0.114083,0.745793,-0.535215,0.807647,0.247490
0.148838,-0.032512,0.638251,0.851035,-0.284043,0.441655
-0.163155,-0.039543,0.885742,-0.049672,0.025953,0.998428
-0.115721,-0.224254,-0.980431,-0.159677,0.266368,-0.950553
0.288979,0.112128,0.595865,-0.667188,0.742415,-0.060672
0.025338,-0.295728,0.883243,0.470177,-0.716065,-0.515931
-0.569368,-0.128304,0.634924,0.625632,0.486566,0.609785
-0.575905,-0.040706,0.669376,0.772699,-0.609122,-0.178622
0.459535,0.306936,0.130836,0.446144,0.203337,-0.871556
-0.433171,-0.044988,0.788991,0.967940,0.245577,0.052769
0.145705,0.453320,0.382763,-0.702839,0.056219,0.709124
-0.158725,0.051755,0.857599,-0.404226,0.905086,0.131984
-0.549216,-0.462677,0.735938,-0.445062,-0.860590,-0.247599
-0.179416,-0.397917,0.492476,0.579858,0.549732,-0.601298
-0.148568,0.360753,0.747527,0.745706,-0.549856,0.376271
-0.103403,0.180694,0.752665,0.089344,-0.992479,0.083688
0.380713,0.041182,0.160775,-0.520450,0.536221,-0.664529
-0.098325,-0.174244,-0.859833,0.659420,0.744795,-0.102202
0.070502,-0.063491,0.912276,-0.434552,-0.676059,-0.595071
0.176769,0.089184,0.722211,-0.615017,0.178079,-0.768142
-0.420583,0.443593,0.200459,0.848104,0.432630,-0.305862
-0.447758,-0.257084,0.903890,-0.488760,0.815460,0.310062
-0.399082,-0.192377,0.748854,-0.406677,-0.199169,-0.891597
0.264776,-0.365457,0.680387,0.493388,0.165410,-0.853936
0.350244,-0.145697,0.728270,0.754313,-0.263346,-0.601383
0.341870,0.312910,0.593756,0.723858,0.207011,-0.658162
-0.525176,0.694597,0.409719,-0.153168,0.976839,-0.149416
-0.168179,0.442166,0.595521,0.793429,0.605786,0.059098
-0.457590,0.049799,0.858786,0.334657,-0.478681,-0.811708
-0.007671,-0.280291,0.869156,0.538154,-0.719911,-0.438313
-0.407617,0.041394,0.376188,0.299882,0.931604,0.205391
-0.254781,0.375608,0.539438,-0.665283,0.139275,-0.733485
-0.692112,0.032142,0.671656,0.001307,-0.993914,0.110148
-0.439492,-0.275904,0.908981,0.256807,-0.745982,-0.614460
-0.317072,0.053817,0.872623,0.738180,0.669706,0.081138
-0.309130,-0.165679,0.988521,0.748706,0.170348,0.640641
-0.005510,-0.049852,0.812464,-0.363549,-0.821289,0.439677
-0.166937,-0.026644,0.400536,0.435343,-0.850913,0.293979
0.122367,0.681170,0.402910,0.210251,0.802837,0.557895
-0.373149,-0.300116,0.720368,-0.353135,0.933853,-0.056690
0.242787,0.362074,0.558195,0.289462,0.904235,-0.313960
-0.560399,-0.088126,0.686493,0.793744,-0.288848,-0.535291
-0.609076,-0.526961,0.766939,0.384667,0.284778,0.878028
0.085521,-0.015489,0.162852,0.222614,-0.868933,0.442039
0.456294,0.208818,0.127541,0.468653,0.758826,-0.452269
-0.001728,-0.064337,0.845745,-0.644440,-0.077712,-0.760696
-0.480551,0.363714,0.216842,0.116589,0.062593,-0.991206
-0.342626,0.040019,0.917680,0.815001,-0.579321,0.012717
-0.562506,0.588338,0.091777,0.075984,-0.522800,0.849062
0.292652,-0.075703,0.772437,0.888672,-0.037302,-0.457024
0.177850,-0.409653,0.742591,-0.638179,0.079533,0.765769
0.496921,-0.336170,0.426820,-0.204338,0.662665,0.720501
0.309779,-0.205804,0.479123,-0.052524,-0.564025,0.824086
-0.182225,0.375397,0.725943,0.986760,-0.107270,-0.121648
0.807456,0.204430,0.191120,-0.367794,0.733790,0.571209
-0.169530,-0.228378,0.940341,0.353947,-0.879881,0.317066
0.221394,-0.098541,0.756241,0.778220,0.101153,-0.619791
-0.225716,-0.527120,0.774030,-0.001121,0.402367,0.915478
0.322474,-0.096532,0.636205,0.785429,-0.508958,-0.352227
-0.211994,-0.103140,-0.998048,-0.218793,0.239169,0.946006
-0.055321,0.296574,0.684400,-0.091648,0.980077,0.176207
0.488439,0.489797,0.135599,0.918820,0.244689,-0.309673
0.177526,-0.538750,0.766330,0.953061,-0.250148,-0.170592
0.297677,-0.178949,0.528974,-0.319760,-0.326956,-0.889299
-0.180983,0.149609,0.882447,0.822261,0.069156,0.564894
0.379795,-0.220660,-0.181781,-0.471127,-0.333799,0.816467
0.412642,-0.333791,0.562287,0.554555,0.021264,-0.831875
0.071367,-0.091774,0.724850,0.496964,0.375969,-0.782096
-0.361858,0.017974,0.870577,0.730935,-0.579322,-0.360722
-0.757104,0.615458,0.086795,-0.058701,0.482671,0.873832
-0.276337,0.062381,0.885711,0.242673,-0.898434,-0.365959
-0.137547,-0.090664,-0.300724,0.236799,-0.966491,-0.099103
-0.535494,-0.146754,0.735267,0.027270,0.985707,0.166249
0.072393,0.092937,0.758927,-0.596398,0.075588,0.799122
-0.185035,-0.112286,0.955521,0.733770,0.675184,0.075546
-0.071258,-0.121960,0.911027,0.810025,-0.290122,0.509597
-0.063641,-0.134384,0.862519,0.903829,0.259555,0.340184
0.351378,-0.207919,0.712559,-0.505165,0.862477,-0.030672
0.335062,0.127723,0.635580,-0.193724,-0.448297,0.872640
0.201189,-0.306248,0.700971,0.976850,-0.196434,0.084722
-0.327660,-0.384489,0.692381,0.756990,0.214886,0.617082
0.342518,-0.510679,0.409828,-0.703830,0.585307,-0.402541
-0.286061,-0.249788,0.716869,0.757354,-0.585497,-0.289150
-0.370665,0.001163,0.900251,0.397876,0.901725,-0.169077
0.156726,-0.174085,0.735517,-0.134670,-0.888426,-0.438820
0.572339,-0.001374,0.140332,-0.423629,0.244615,-0.872182
-0.266072,0.256397,0.695598,-0.042028,0.632905,0.773088
-0.855159,-0.293561,0.432317,-0.220599,-0.373871,0.900864
0.021880,-0.110700,0.908840,0.678388,0.609700,-0.409946
0.300378,0.543085,0.183483,0.272358,0.233367,-0.933467
-0.306428,-0.076654,0.879448,-0.147013,-0.548463,0.823150
-0.454889,-0.311324,0.930080,0.250264,-0.957900,-0.140699
-0.058239,-0.429848,0.598332,-0.488765,0.852906,-0.183468
0.488763,-0.175407,-0.168021,-0.357764,-0.469946,0.806942
-0.209076,-0.603140,0.647699,0.025119,-0.169588,0.985195
-0.432847,-0.083104,0.866548,0.995090,-0.088200,0.044898
-0.842193,-0.100603,0.657226,0.004946,-0.119236,0.992854
-0.454673,-0.681222,0.593412,0.105085,0.139596,0.984617
-0.438735,0.444439,0.537330,0.604930,-0.172831,0.777296
0.181524,-0.376348,0.675436,-0.673245,-0.046851,0.737933
-0.416802,-0.320575,0.873810,0.817218,-0.574335,-0.047892
-0.338520,-0.114929,0.530146,-0.311820,0.851705,0.421150
-0.181523,0.294301,0.707764,-0.117910,-0.462324,0.878836
-0.130362,0.464898,-0.210345,0.366765,-0.094796,-0.925471
-0.781091,-0.120427,0.742685,0.485717,-0.034704,0.873427
0.524365,0.305139,0.231522,0.057799,0.262792,0.963120
-0.105132,0.173821,0.739124,0.199258,0.976273,0.084774
-0.149973,0.257348,0.705187,0.718461,-0.373330,0.586890
-0.365424,0.254652,0.610529,-0.393397,-0.848139,0.354824
-0.088600,-0.236625,0.904858,-0.626523,0.285245,-0.725331
-0.032036,-0.348488,0.886492,-0.496608,0.661316,0.562177
-0.018260,0.239956,0.359102,0.712582,-0.532168,-0.457190
0.347542,0.318514,0.546216,0.028288,-0.912114,0.408960
-0.415505,-0.299165,0.883103,-0.741470,0.612042,-0.275003
-0.269368,-0.004123,0.937139,0.992874,0.002164,-0.119147
0.550297,0.044671,0.275189,-0.066729,-0.130231,0.989236
0.735981,0.269137,0.235411,-0.115796,-0.793833,0.597009
0.146191,0.017922,0.261461,-0.119695,0.273821,0.954303
0.022312,-0.157274,0.776466,0.913558,-0.402730,-0.056738
-0.381632,0.606418,0.598348,-0.641959,0.402521,0.652583
-0.165208,-0.209822,0.821804,0.156131,-0.653418,0.740721
-0.146678,0.252749,0.793755,0.890475,-0.176504,-0.419405
-0.262399,-0.351607,0.808341,0.764546,-0.420021,0.488929
0.170502,0.083475,0.649839,0.968871,0.028410,-0.245932
-0.448190,0.666949,0.417309,-0.680864,0.671257,0.292982
0.403836,-0.274159,0.441735,-0.592938,-0.529027,-0.607088
0.154511,0.447029,0.372580,0.401618,-0.625155,-0.669242
0.000054,-0.190368,0.517558,0.023232,0.472048,0.881266
-0.333495,-0.128568,0.682604,-0.191841,0.981370,-0.010459
-0.485683,0.092356,0.674764,0.655113,-0.754764,0.034048
-0.473311,-0.870903,0.596458,0.432697,-0.191802,0.880900
-0.392005,0.504864,0.399567,0.343185,0.407983,-0.846034
-0.055970,0.291394,0.810996,-0.478882,0.678258,-0.557350
-0.247596,-0.051226,0.941059,0.274689,0.429930,-0.860062
0.056672,-0.359695,0.732440,0.620853,0.707075,0.338507
-0.270881,0.054610,0.857552,0.226596,0.745356,0.626976
-0.797460,-0.344206,0.478951,-0.252449,0.699614,0.668439
-0.269854,-0.254123,0.570236,0.793672,-0.502673,-0.342643
-0.068071,-0.458659,0.545982,-0.497865,0.852481,-0.159394
0.688060,0.288433,0.227056,-0.437080,-0.887819,0.144009
0.186818,0.011736,0.536721,0.960567,-0.220851,-0.168928
-0.369800,0.298002,0.598832,-0.598888,0.566535,-0.566013
-0.256564,0.091246,0.875825,-0.586634,0.625666,0.514201
0.415343,0.042980,0.701642,-0.072422,0.844498,0.530639
-0.502701,0.100391,0.640125,-0.280374,-0.953709,0.108767
-0.413614,-0.077606,0.582699,-0.172766,0.969399,-0.174405
0.124095,0.191849,0.780573,0.799836,0.559797,-0.216542
0.027174,-0.093519,0.723148,-0.309458,-0.273989,-0.910585
0.325068,-0.496247,0.401285,0.759329,-0.478561,0.440907
-0.761156,-0.246088,0.457274,0.193069,0.483155,0.853982
0.312209,0.564179,0.406470,0.156286,-0.614369,0.773385
-0.043706,-0.189997,-0.983196,0.112717,0.233059,0.965908
0.217504,0.200941,0.485636,0.389224,0.045101,-0.920038
0.197353,-0.340505,0.670063,0.852348,-0.032676,-0.521952
-0.180119,-0.333686,0.807232,-0.018773,-0.834856,0.550149
-0.090383,-0.276856,0.794332,-0.667674,0.744430,0.005874
-0.507995,-0.346585,0.843559,0.932983,0.110318,0.342597
-0.350297,0.442694,0.692834,0.336348,-0.234679,0.912028
0.182064,-0.417318,0.750275,0.691847,-0.650618,-0.313119
0.297029,0.004758,0.022138,0.113152,0.509277,-0.853132
-0.186386,0.335959,0.716276,0.931041,-0.298551,0.209834
0.312858,0.348858,0.143783,-0.093675,-0.609773,0.787021
-0.391842,0.321157,0.770937,-0.608638,0.762226,-0.220389
0.209076,-0.228431,0.669907,0.798434,-0.328277,-0.504714
-0.086818,0.265437,0.842731,0.793946,0.534915,-0.288992
0.322474,-0.230704,0.716073,-0.685067,0.703686,-0.188439
-0.685737,-0.190897,0.812558,0.684213,0.710314,0.165248
-0.017396,-0.151300,-0.985351,0.187273,-0.309630,-0.932233
-0.198757,0.042504,0.874841,0.265476,-0.788395,0.554938
0.162399,-0.052442,0.835235,-0.679036,-0.711645,0.180199
-0.158833,0.147125,0.331865,0.585465,-0.282838,0.759758
-0.117828,-0.130471,-0.637314,0.976755,-0.209107,0.047153
0.187628,0.121009,0.477655,0.040103,-0.822626,0.567167
0.451810,0.330778,0.220824,-0.218050,0.389840,0.894695
0.057753,-0.244079,0.662411,0.371511,0.597044,-0.710998
0.264290,0.209400,0.519479,0.410422,-0.819316,0.400343
0.148785,-0.168005,0.861988,0.403298,-0.751418,-0.522228
0.491626,-0.068989,0.471986,-0.656398,0.337604,0.674659
0.189249,-0.175037,0.460913,-0.374813,-0.436046,0.818156
-0.533928,0.051227,0.704813,0.480839,-0.335793,-0.809961
0.434630,-0.066875,0.154622,0.122821,-0.884764,-0.449564
0.131227,0.135917,0.778231,0.585275,0.690016,-0.425830
-0.350135,0.039385,0.841263,0.345129,0.440415,-0.828807
-0.314911,0.290812,0.681855,-0.702201,0.385404,-0.598646
0.156672,0.019824,0.682667,0.148825,-0.334787,0.930467
-0.156402,-0.038327,0.353105,0.788891,-0.294667,-0.539280
0.196435,-0.231233,0.566097,-0.007893,-0.148875,0.988824
-0.375040,-0.101713,0.844886,0.196601,0.644101,-0.739244
-0.772393,-0.006661,0.661568,-0.175168,0.792974,-0.583531
-0.039870,-0.250793,0.837249,0.689168,0.655944,-0.307871
0.305403,0.062381,0.646356,0.659956,-0.433891,-0.613349
-0.188115,0.039914,0.787508,-0.324673,0.821744,-0.468321
-0.249487,0.463259,0.687258,0.932661,0.355886,0.059058
-0.446461,-0.015119,0.840014,0.443501,-0.716018,-0.539096
-0.034576,0.212201,0.118904,0.323130,-0.067607,-0.943936
-0.548730,0.710827,-0.130227,0.791591,0.587534,0.167890
0.168018,0.096268,0.701830,0.145796,-0.549006,0.823004
-0.436196,0.059844,0.855959,-0.092043,-0.995206,0.033063
-0.307833,0.181804,0.364475,-0.200949,-0.337941,0.919465
0.577580,-0.283886,-0.170380,0.124410,-0.225547,0.966256
-0.977201,-0.376136,0.451511,0.428449,0.014224,0.903454
0.256024,-0.048583,0.493179,-0.162475,-0.959704,-0.229283
0.007780,0.336065,-0.033976,-0.166255,-0.422047,0.891199
0.103296,0.210986,0.437315,0.456587,-0.410149,-0.789498
-0.432253,-0.504070,0.577810,0.902917,-0.412206,0.121769
-0.467693,-0.273736,0.756304,-0.380578,0.734356,-0.562033
-0.283738,-0.207285,0.983039,0.746313,0.641291,0.178220
-0.211723,-0.039226,0.885242,-0.207367,0.245462,0.946967
-0.038628,-0.143370,0.354261,-0.233044,-0.252606,0.939085
-0.216856,0.311060,0.534081,0.781677,0.467800,0.412484
-0.209292,-0.196447,0.260430,0.997940,-0.003606,-0.064051
0.080822,0.074117,0.749979,-0.295097,0.855284,-0.425919
-0.078930,-0.135969,-0.981181,0.185195,0.308261,0.933101
-0.239006,0.349598,0.206066,0.776557,-0.073722,0.625719
0.876553,0.277490,0.161681,-0.487295,0.523666,-0.698797
-0.375742,0.329774,0.545248,0.269332,0.952372,-0.142996
0.037980,-0.006555,0.260134,-0.142422,-0.133860,0.980713
0.293571,-0.389194,0.402019,0.487591,0.840689,0.235579
-0.504646,-0.293244,0.897986,0.064072,-0.679156,0.731193
-0.109670,-0.070892,0.883212,-0.481871,0.816369,-0.318343
-0.327174,-0.151459,0.824646,0.520070,0.328697,-0.788344
0.503296,0.176200,0.536065,0.585697,-0.288563,-0.757423
0.104106,-0.086593,0.121528,0.082162,0.840024,-0.536292
-0.506861,-0.279869,0.505876,0.513807,-0.288556,0.807922
-0.362668,0.286371,0.222761,0.142835,-0.233097,0.961906
-0.852944,-0.248625,0.459383,-0.430331,0.328796,0.840660
-0.163965,0.072003,0.882197,0.694425,0.005097,-0.719547
0.115127,0.047050,0.472564,-0.052642,-0.475788,0.877983
-0.480875,0.064443,0.885476,0.832336,-0.316389,0.455099
-0.366666,0.348224,0.779542,0.582993,-0.811113,0.047061
-0.148190,-0.113554,0.946713,0.431888,0.886884,0.164041
-0.489735,0.549535,0.406486,0.353522,0.486854,-0.798746
0.076337,0.084638,0.471174,0.395714,0.131942,-0.908846
-0.656132,-0.003489,0.658444,0.069169,-0.940348,0.333109
-0.062885,0.215479,0.821429,0.901803,0.320758,-0.289596
-0.458400,0.125291,0.884617,0.362298,0.653216,0.664868
-0.516208,-0.353510,0.840998,0.844444,0.078346,0.529883
-0.045651,-0.218069,0.851586,0.549424,0.393030,-0.737333
-0.325175,0.042609,0.909090,-0.225932,0.788902,-0.571480
0.304214,0.137978,0.644732,0.606058,0.043802,0.794214
-0.719503,0.721770,0.256276,0.426053,-0.547956,0.719877
0.594868,0.175143,0.161774,-0.043186,0.749075,0.661076
-0.150837,0.151935,0.768813,0.466868,0.880574,-0.081390
-0.597353,0.658385,0.207362,-0.224340,-0.718187,0.658695
0.190006,0.253701,0.375751,-0.294166,0.844891,-0.446796
0.125661,-0.051755,0.733486,-0.263905,0.530083,0.805833
-0.197460,0.309949,0.356931,-0.660500,-0.139336,-0.737784
-0.012587,-0.166472,0.374251,0.395400,0.907274,0.143222
-0.156294,0.188412,0.891474,0.193251,0.434096,-0.879895
-0.391248,0.538909,0.565082,-0.020854,-0.540042,0.841380
-0.501242,-0.286900,0.789694,-0.109612,0.860127,0.498163
-0.428309,-0.018027,0.624929,-0.327817,0.524386,-0.785847
-0.377418,0.013956,0.855741,-0.934983,-0.078067,-0.345994
-0.432414,0.773631,0.437315,0.319529,0.317890,0.892663
-0.511291,0.102665,0.639047,-0.008375,-0.710498,0.703649
0.169746,-0.198245,0.534378,-0.377333,0.140836,0.915306
-0.244624,0.058839,0.888850,0.607576,-0.757286,-0.239518
0.646731,0.354145,0.239800,-0.313974,0.178881,0.932428
-0.038087,-0.317086,-0.981134,-0.002862,0.043514,0.999049
-0.101999,0.034521,0.717135,-0.012454,0.344178,0.938822
-0.200270,-0.094840,0.962252,-0.278085,-0.958318,-0.065533
0.043382,0.187619,0.429584,-0.622480,0.399308,0.673106
0.229119,-0.071844,-0.189012,0.314669,-0.070524,-0.946578
-0.415235,-0.270564,0.912963,0.639374,-0.631889,-0.438084
-0.125499,-0.552336,0.414998,-0.406284,0.901022,-0.151961
-0.775581,0.541711,0.042941,0.850171,-0.039202,-0.525044
-0.566666,0.740061,0.446592,0.022026,-0.595143,0.803318
0.407618,-0.013111,0.673593,0.562614,0.164254,-0.810238
0.556834,-0.106999,0.484043,0.364040,0.367123,-0.855976
0.779471,-0.002326,0.194899,-0.347782,-0.154062,-0.924831
0.271583,0.124075,0.649058,0.392302,-0.096119,0.914801
0.296164,0.227797,-0.172988,-0.637774,-0.120645,0.760716
0.342247,-0.282882,0.448622,0.433184,-0.199337,-0.878986
0.170935,0.436033,0.145626,0.648218,-0.009668,-0.761393
0.034738,0.454483,-0.321120,-0.483842,-0.845045,0.227586
-0.188763,-0.190050,0.954506,0.297703,-0.831845,0.468408
0.543004,0.263058,0.512092,0.704208,0.679861,-0.204646
-0.061750,-0.287111,0.873982,-0.155442,-0.982833,-0.099383
-0.360778,0.669117,0.418527,0.036063,-0.287870,0.956990
-0.085198,0.167900,0.770562,0.423595,-0.870302,-0.251281
0.144895,0.038116,0.681605,0.386761,0.361679,-0.848295
-0.202593,0.099863,0.899735,0.981772,-0.108095,0.156330
-0.478444,0.481973,0.386199,-0.708466,-0.009696,0.705678
-0.129444,-0.201364,0.875278,0.885741,-0.132111,-0.444982
-0.361372,0.301385,0.785477,-0.149025,-0.623868,0.767190
-0.421502,0.454483,0.221699,0.903354,0.423151,0.069964
-0.543598,-0.135811,0.704453,-0.221080,0.606863,0.763440
0.285954,0.331677,0.565738,0.524848,0.850498,0.034465
-0.194813,-0.073535,0.473798,-0.438154,0.862967,0.251612
-0.486062,-0.250158,0.422322,-0.334877,0.404925,-0.850819
0.780065,-0.034362,0.209564,-0.645371,0.490197,0.585836
-0.319719,0.696870,0.079408,-0.666053,-0.007163,-0.745870
-0.894760,-0.299799,0.445998,0.082725,-0.408699,0.908913
0.140087,-0.236519,0.833704,0.371855,-0.909611,-0.185287
-0.459860,0.034786,0.797456,0.174922,0.898498,-0.402622
0.052134,-0.283516,0.730129,0.057300,0.004473,0.998347
0.083361,0.062223,0.473001,-0.035734,-0.625947,0.779046
0.313344,0.533041,0.418293,0.890939,-0.358174,-0.279176
-0.661966,-0.134859,0.793817,-0.238259,0.966851,0.091829
-0.320583,-0.044090,0.955256,-0.527988,0.842047,-0.110388
0.173798,-0.210245,0.872576,-0.731935,0.359272,0.578960
-0.160292,0.209611,0.891723,-0.676235,0.594819,-0.434623
0.072123,-0.432966,0.736079,-0.110254,0.345301,0.931993
-0.252295,0.390199,0.117015,0.507900,-0.233421,0.829188
0.108428,0.287111,0.255948,-0.229244,-0.115898,0.966444
-0.263857,0.545359,0.560819,-0.264627,0.821475,-0.505126
-0.006645,-0.051173,0.935921,0.161900,0.795877,0.583410
-0.276877,0.328294,0.713215,0.917122,0.086035,-0.389211
-0.518584,-0.481920,0.749807,0.794854,0.473038,0.380057
-0.166451,-0.065342,-0.328445,0.914899,-0.402851,-0.025900
-0.446893,0.572849,0.241424,0.376185,0.273473,0.885267
0.078499,-0.061271,0.896174,-0.590778,0.804408,-0.062521
0.073690,0.008670,0.867235,-0.559260,0.543977,0.625554
-0.062885,-0.145855,0.948743,-0.393628,0.853155,0.342321
0.737979,-0.024159,0.187481,-0.175105,0.061432,0.982631
-0.208428,0.086435,0.868906,-0.650477,-0.431353,-0.625152
-0.376066,0.593360,0.127353,0.159818,0.245702,-0.956080
-0.549865,0.072902,0.648230,-0.130524,0.092974,0.987076
-0.351594,0.207338,0.539157,-0.463865,-0.829990,0.309751
-0.142464,0.030133,0.768157,0.838103,-0.512253,0.187563
-0.014532,-0.101871,0.852726,0.873340,-0.456189,-0.170790
0.418693,0.052760,0.686602,0.109871,0.993909,0.008614
-0.563803,-0.273578,0.519463,0.113414,-0.338069,0.934263
-0.620745,0.677628,0.197211,0.076746,-0.328940,0.941227
-0.167801,-0.809262,0.588462,-0.124962,-0.796288,0.591870
0.470448,0.813756,0.166897,0.682371,-0.137987,0.717864
