-0.718255,0.472749,0.304395,-0.305699,-0.274867,0.911590
0.074992,0.655408,0.791227,-0.170915,-0.743971,0.645984
-0.310517,0.353112,0.635091,0.050247,-0.973695,0.222247
-0.176996,0.333777,0.684721,0.483763,0.353757,-0.800519
0.594654,0.334441,0.626757,-0.266062,-0.286608,0.920363
0.351108,-0.430151,0.307530,0.131263,-0.880793,0.454944
0.331552,0.042720,0.340265,-0.171492,0.471937,0.864793
-0.151107,-0.042235,0.471400,-0.706803,-0.246563,-0.663051
0.267043,-0.246284,0.791877,0.096195,0.560516,0.822537
0.012664,0.113474,-0.975014,-0.458557,-0.466519,0.756363
0.690820,0.229124,0.681894,0.742745,-0.425598,-0.516911
0.201126,0.404351,0.715750,0.464062,0.885066,-0.036119
0.135774,0.494079,0.676306,-0.021117,0.545834,0.837627
-0.293351,0.381693,0.107562,0.816505,0.485119,-0.313015
-0.222934,0.800726,0.681797,0.939539,-0.142922,-0.311190
0.037497,-0.595649,0.621266,0.722860,0.332429,0.605776
0.215336,-0.040544,0.802453,-0.442344,-0.876516,-0.189869
0.223709,-0.623142,0.651921,0.245911,-0.585818,-0.772234
0.087796,0.324048,0.929543,0.606485,0.794124,0.039290
0.684066,0.271420,0.740460,-0.569569,0.080268,-0.818015
-0.248540,-0.183746,0.898822,0.524847,-0.609354,0.594326
-0.070277,-0.224411,0.262513,-0.114647,0.054542,0.991908
0.045376,0.149125,-0.092990,0.557073,0.818825,0.138549
0.327965,0.144291,0.880968,0.922133,-0.109325,-0.371106
0.060711,0.764834,0.717927,0.908373,0.083507,-0.409737
-0.069292,0.261450,0.933523,0.795527,-0.594566,0.116736
0.004854,0.245257,0.925010,0.035313,0.610948,0.790883
-0.357368,-0.216375,0.603639,0.697830,0.013054,-0.716144
-0.293845,-0.176798,0.613289,0.394075,-0.082648,-0.915355
-0.275976,0.560544,0.580814,-0.692965,-0.251329,-0.675747
0.236792,0.283988,0.909658,0.733520,-0.596653,0.325505
0.761873,0.392387,0.646966,0.056392,0.397337,0.915938
0.588323,-0.184230,0.565819,-0.423093,-0.042794,0.905075
0.371509,-0.336495,0.543660,-0.595387,0.101152,0.797046
0.013227,0.197402,0.946536,-0.424596,-0.084479,-0.901433
-0.652619,0.763928,0.578897,0.042283,0.352994,0.934670
-0.414983,0.233173,0.609845,-0.318932,0.583699,-0.746711
-0.078015,0.251058,0.724913,-0.585781,-0.125292,-0.800726
0.544988,-0.270453,0.570352,-0.311582,0.394025,0.864674
0.182625,0.698852,0.680286,0.184976,-0.719488,0.669419
0.233275,0.147251,0.763025,0.766663,0.641293,-0.031151
-0.187056,-0.261027,-0.200406,0.931775,-0.326677,0.158360
0.152727,0.201631,0.503241,0.014102,0.028851,0.999484
-0.128245,0.072689,0.924588,0.114946,-0.486718,0.865964
0.425256,-0.446949,0.479214,-0.539625,0.112628,-0.834338
0.248681,-0.559033,0.645374,-0.679022,0.114655,0.725110
0.447978,-0.103927,0.542653,-0.275644,0.073707,0.958430
0.176012,-0.762538,0.461685,-0.048741,0.259820,0.964426
0.252692,-0.530816,0.518398,-0.433899,-0.662090,0.611038
0.216461,-0.411722,0.624304,-0.039797,0.223085,0.973986
0.151813,0.175771,0.940964,-0.094572,-0.924665,0.368851
0.464299,0.683928,0.568142,0.569140,0.221438,-0.791861
0.349844,0.180544,0.900707,0.494763,-0.866029,0.072130
-0.272529,0.758913,0.557648,0.871610,-0.489787,0.020106
0.365601,-0.156797,0.533718,-0.657737,0.100997,0.746446
0.172846,0.202840,-0.970092,0.583154,0.357637,-0.729402
0.430462,-0.068882,0.754220,0.766536,-0.150834,0.624237
0.132536,0.414441,0.719893,0.041799,-0.120397,0.991845
0.067536,0.096798,0.333409,-0.187590,0.286692,0.939477
-0.450439,0.605801,0.604468,-0.475311,0.311155,-0.822959
0.709322,-0.085558,0.592072,-0.312681,-0.407649,0.857935
0.124376,-0.434743,0.700739,-0.443466,-0.719128,-0.534970
0.141190,0.187432,0.947657,0.129606,0.574120,0.808448
0.392613,0.689970,0.558574,0.252730,-0.028195,-0.967126
0.163419,-0.034320,0.027845,0.851579,0.454211,0.261734
0.315090,-0.235770,0.379124,-0.271628,0.817471,0.507897
-0.198664,-0.364290,0.737276,0.007460,0.674873,0.737896
0.115230,0.421814,0.473901,-0.622563,0.420803,-0.659803
-0.628280,0.348761,0.029827,-0.050851,-0.998706,-0.000726
-0.004010,0.098853,-0.688912,-0.681387,0.731370,-0.028456
-0.025747,0.053415,0.869938,0.031060,0.994885,0.096117
-0.054659,-0.395226,0.717456,-0.035770,0.686006,0.726716
0.495744,-0.403384,0.598067,-0.728076,0.535133,-0.428413
-0.330496,0.192810,0.541045,0.164900,-0.876053,0.453143
0.140344,0.300242,0.420405,0.187640,-0.628004,0.755250
-0.013787,-0.260060,0.848152,0.897205,0.010427,0.441492
-0.206330,0.173414,0.579628,0.618496,0.456262,0.639756
0.615760,0.038792,0.672472,0.422436,0.691378,-0.586126
-0.035808,0.123867,-0.302624,0.678159,-0.679074,-0.280995
0.068661,-0.950393,0.440322,-0.060106,-0.698116,0.713457
0.171158,0.214260,0.144261,0.280121,0.507489,-0.814854
0.024131,-0.318247,0.778345,0.793606,0.290644,-0.534524
-0.293211,0.120786,0.599058,0.394461,0.392049,-0.831083
0.110728,0.678732,0.474746,-0.588699,-0.177291,-0.788671
0.036370,0.624713,0.697864,-0.286610,0.505323,0.813943
0.114739,-0.184834,0.846121,0.683891,0.729517,0.009881
0.362224,-0.495347,0.447827,-0.716578,0.567485,-0.405558
-0.033766,0.502780,0.239786,0.107154,0.581757,0.806273
0.190995,0.024472,0.835594,0.678685,0.644086,-0.352901
0.236934,-0.149365,0.781399,-0.050578,-0.792323,0.608001
0.094337,0.362477,0.816798,-0.466625,0.405974,-0.785778
-0.741469,0.874442,0.592381,0.059100,0.886352,0.459225
-0.057192,-0.072265,-0.234343,0.875244,-0.480868,-0.052097
0.240802,-0.640423,0.650524,0.089828,0.077015,0.992975
0.317763,0.197281,0.910227,0.660992,0.604750,-0.444259
0.332396,-0.237401,0.797969,0.906199,-0.267902,-0.327158
-0.213857,-0.223987,0.619219,-0.448269,0.214090,0.867883
0.061836,0.686889,0.349606,0.116108,-0.011085,0.993175
0.853185,-0.236556,0.593453,-0.181008,0.163074,0.969868
-0.111430,-0.443323,0.736252,-0.459079,-0.608477,-0.647304
0.062540,0.015166,0.832751,0.171847,-0.450442,0.876111
0.297503,-0.358368,0.474795,-0.581097,-0.256881,0.772229
0.130426,0.718369,0.780473,-0.535825,0.825382,0.177866
0.926769,-0.307674,0.595630,0.553564,-0.276425,-0.785593
0.241083,-0.618066,0.652473,0.246024,0.358392,0.900571
-0.169960,0.700786,0.693380,0.350052,0.403228,-0.845500
0.406825,-0.129728,0.317375,0.558572,0.770608,0.306855
0.005417,0.924593,0.735684,-0.679712,0.071605,0.729975
-0.169679,0.642357,0.706425,0.312906,-0.851189,0.421387
-0.726134,0.592629,0.609601,0.548258,0.658749,0.515231
0.041787,-0.670755,0.647973,0.298493,0.756340,0.582110
0.166796,0.545499,0.763610,0.064646,-0.371612,0.926135
0.662119,-0.335891,0.582666,-0.477506,0.153019,0.865201
0.538305,0.319396,0.607229,-0.625152,0.741796,-0.242741
0.323955,0.505317,0.548193,0.419941,0.061448,0.905469
0.284770,-0.308036,0.609520,-0.603381,0.660886,0.446275
-0.847695,-0.144894,0.589522,-0.174373,-0.111505,0.978346
0.390363,-0.476857,0.472846,0.953801,-0.058055,0.294776
-0.554274,0.757825,0.579563,0.590932,0.347722,0.727934
-0.201899,0.655348,0.710129,0.091252,0.167795,0.981590
0.614493,0.606587,0.663683,0.994282,-0.083458,-0.066624
-0.802109,0.646707,0.635481,0.387663,-0.304214,0.870156
0.114878,-0.355831,0.646381,-0.359960,0.669662,0.649601
-0.424200,0.752085,0.562440,-0.467895,0.861263,0.198244
-0.100597,-0.161934,0.481553,0.827121,0.040351,-0.560573
0.400000,-0.034924,0.823573,-0.474972,0.107247,0.873441
0.315019,0.461692,0.527723,-0.706193,-0.021182,0.707703
0.012100,-0.125499,0.848526,0.070224,0.362717,0.929250
-0.396061,0.115106,0.242970,0.682107,0.726294,0.085018
0.018362,0.019517,0.803850,-0.579554,0.705612,-0.407711
0.392263,-0.057945,0.626334,-0.214891,0.942683,-0.255286
0.586423,0.684593,0.654699,0.394320,-0.685040,0.612562
0.332819,0.173353,0.889611,-0.659629,0.433635,0.613881
-0.557861,0.300604,0.343449,0.318264,0.865984,0.385720
0.146888,0.524230,0.765088,-0.003749,-0.339070,0.940754
0.009498,0.648701,0.498172,-0.603987,-0.091569,-0.791717
0.544497,0.575347,0.649029,0.771547,0.623808,-0.124814
-0.089975,0.010272,0.782309,0.648505,0.749493,-0.133046
-0.043124,0.153716,-0.989424,0.389971,0.268697,-0.880752
0.498700,0.702901,0.565251,0.520144,0.462009,-0.718330
0.009850,-0.192689,0.859134,0.034742,0.727347,0.685390
-0.325781,0.695469,0.540444,-0.560924,0.590079,-0.580664
-0.156736,0.111662,0.924767,-0.578942,-0.273941,-0.767973
0.226874,0.445136,0.682495,-0.136628,-0.089548,0.986567
0.729161,0.183988,0.648201,-0.559701,0.721001,-0.408524
-0.197255,0.461632,0.941483,-0.097964,0.801967,0.589281
-0.322123,0.811300,0.555195,-0.711831,-0.196645,0.674260
-0.066829,0.815287,0.709285,-0.819993,0.535521,-0.202062
0.108479,-0.190876,0.827878,0.140625,0.985482,0.095130
-0.966445,0.586526,0.595289,0.195226,-0.967058,-0.163356
0.426733,0.205136,0.881683,0.178812,0.938026,0.296874
0.093352,0.230453,0.876777,0.016861,-0.612291,0.790453
0.026522,-0.281511,0.500739,0.300140,0.919013,-0.255599
0.189027,0.509487,0.762879,0.116010,-0.478086,0.870618
0.302357,-0.033112,0.633385,0.539634,0.532474,-0.652125
-0.246992,0.654079,0.672049,0.831464,0.534555,-0.151389
0.811819,0.168883,0.335830,-0.167183,0.386188,0.907143
0.422794,0.369728,0.628934,-0.202684,0.095312,-0.974595
0.005417,0.164834,0.912258,0.328434,0.712784,0.619734
0.193739,-0.683746,0.660710,-0.202438,0.145772,0.968385
0.395217,0.095770,0.865438,-0.171322,0.385253,0.906768
-0.510727,0.305378,0.541760,0.348465,0.587921,0.730015
-0.077523,-0.152266,0.857802,-0.323320,-0.077131,-0.943141
0.158354,-0.229245,0.822500,0.085202,0.987377,0.133518
0.015196,0.166586,0.144229,0.751454,-0.597119,0.280651
-0.444179,0.326888,0.303046,-0.241895,-0.399776,0.884118
-0.165388,-0.338187,0.724556,0.734399,0.279236,0.618615
-0.159550,0.420665,0.909284,0.956964,0.281835,0.069200
-0.236863,-0.211721,0.714840,-0.789023,0.376730,-0.485301
0.073444,0.167614,0.498855,0.374261,-0.014250,-0.927214
-0.408513,0.449124,0.596491,0.216232,-0.399064,0.891062
-0.059726,0.704472,0.705483,-0.135249,-0.518104,0.844557
0.556878,0.408157,0.626692,0.634775,0.117724,-0.763677
-0.048118,-0.245680,0.716384,-0.081809,0.534378,0.841278
0.063736,-0.167674,0.808708,0.426235,0.071360,-0.901793
-0.160886,-0.558067,0.475770,0.364701,0.120027,0.923356
0.252762,0.240363,0.784453,0.031105,-0.216709,0.975741
-0.701372,0.531662,0.298530,-0.397208,-0.151454,0.905145
0.620753,-0.076314,0.752482,-0.500354,0.506410,-0.702278
0.088429,0.363686,0.718740,-0.503014,0.548253,-0.668128
-0.065846,0.072931,-0.016067,0.041450,-0.164137,0.985566
0.185931,-0.567371,0.678986,-0.211326,-0.648057,0.731685
0.801830,0.183082,0.728779,0.559765,-0.030687,0.828083
-0.283010,0.720484,0.563594,-0.671313,-0.037795,0.740210
0.197187,0.026103,0.681196,0.379664,0.925076,-0.009489
0.379530,-0.555468,0.541760,0.312983,0.621186,-0.718449
0.943581,0.224472,0.608334,0.626126,0.062000,0.777253
0.403800,0.187674,0.891626,0.870129,0.226874,0.437496
0.120578,-0.596314,0.635432,0.110812,0.671960,0.732250
-0.726697,0.590876,0.613062,0.807656,0.262143,0.528178
-0.042772,0.975650,0.731850,0.568226,0.132296,-0.812168
0.168273,0.208883,0.934709,0.897040,0.130159,0.422348
-0.065846,0.196737,0.951556,-0.305621,-0.223242,-0.925613
0.195216,0.469668,0.742149,-0.447513,0.894261,0.005374
-0.526768,0.290453,0.535326,-0.340743,0.021456,0.939912
-0.171931,0.605197,0.698920,0.776993,0.396276,-0.489129
0.336054,-0.045438,0.797515,-0.257278,-0.166753,0.951841
0.341681,0.071239,0.761904,-0.111114,-0.885563,-0.451034
-0.077031,0.669245,0.805377,0.091152,-0.782043,0.616523
0.099895,0.050212,-0.987800,-0.043038,-0.658341,0.751489
-0.261835,-0.134924,0.625343,-0.675311,0.647323,-0.353450
-0.199718,0.773837,0.703322,0.407528,0.276168,0.870432
0.048188,0.042961,0.881309,0.890066,-0.454780,-0.030933
0.199508,0.312025,0.674080,-0.217652,0.164034,-0.962144
0.030462,0.128762,0.868346,0.707292,0.187200,0.681685
0.205276,-0.244773,0.852344,-0.014519,0.869176,0.494290
0.082027,0.455892,0.730452,0.759604,0.553285,-0.341874
0.309884,0.094743,0.638583,-0.351726,0.603261,-0.715797
0.504398,0.668761,0.570043,0.403635,0.406832,-0.819492
0.080550,-0.405136,0.675266,-0.806111,-0.395842,0.439880
0.232852,0.458187,0.435188,0.842575,-0.197887,0.500907
-0.243404,-0.235650,0.757794,0.723731,-0.309418,0.616826
-0.355329,0.542236,0.628186,0.840996,0.472070,-0.264340
-0.050580,-0.116797,0.828852,0.912935,0.003304,0.408092
0.940627,0.201511,0.611778,0.620840,-0.037705,0.783030
-0.490186,0.820122,0.571668,-0.754846,0.588363,0.289890
0.419839,0.421390,0.705499,-0.765334,0.469922,-0.439816
-0.035103,-0.721450,0.461100,0.296969,0.029393,-0.954434
-0.788814,0.689669,0.266900,-0.123977,0.904717,0.407574
0.262329,0.112930,0.882317,-0.660354,-0.450558,0.600775
-0.166373,0.016193,0.662448,-0.381617,0.707801,-0.594463
-0.001617,-0.051480,-0.080660,0.837094,-0.083926,0.540583
0.079284,0.177765,0.678824,0.744414,-0.655762,0.125797
0.369257,0.636375,0.631452,0.767465,-0.037688,-0.639982
-0.227294,-0.205800,0.617919,-0.642959,0.124817,0.755661
0.264439,-0.371360,0.543855,-0.427537,0.456410,0.780322
0.616041,0.529003,0.696044,0.585526,0.423590,-0.691180
0.395921,-0.267795,0.544976,0.725333,-0.122872,-0.677344
0.687372,0.089487,0.661798,-0.322149,0.940611,0.107099
0.722336,0.170393,0.692779,0.755049,-0.413554,-0.508797
0.276891,-0.028097,0.768938,0.689830,0.626309,0.363143
0.056209,-0.299577,0.558168,0.641237,0.698071,-0.318611
-0.320507,0.469245,0.797661,0.867483,-0.258629,0.424951
-0.237777,0.845681,0.553505,-0.367740,0.468749,-0.803145
-0.020260,0.137825,-0.749411,-0.054484,0.987387,0.148657
0.140626,0.077583,-0.989457,0.025335,-0.619178,0.784842
0.333592,0.159155,0.893461,-0.662236,0.583946,-0.469522
0.590010,-0.526888,0.557209,-0.498920,0.574937,0.648480
-0.053676,-0.726586,0.460109,-0.246843,-0.228602,0.941706
-0.293493,0.881330,0.555844,-0.330031,-0.382829,0.862856
0.027577,0.170091,-0.672196,-0.926285,0.340569,-0.161271
0.388744,0.252629,0.891820,-0.660827,0.264691,-0.702315
0.276470,0.173596,0.658338,0.124366,0.623405,-0.771945
-0.131622,0.486224,0.885939,-0.258285,-0.222059,-0.940202
-0.014631,-0.575347,0.631159,0.405198,0.330133,0.852541
0.440804,0.078792,0.629405,-0.704029,-0.673261,-0.225970
-0.115089,0.706647,0.793047,0.872105,0.204223,-0.444664
-0.014702,0.196979,0.495996,0.338866,0.149507,-0.928880
-0.021597,0.109124,-0.752173,-0.212939,0.975621,0.053115
-0.379036,0.580846,0.131996,0.932925,0.084947,0.349908
0.321140,0.053898,0.790155,-0.667844,0.509114,0.542943
-0.221173,0.758490,0.354415,-0.151427,0.368771,0.917103
0.020331,-0.279275,0.766355,0.978770,-0.153087,0.136288
-0.436862,0.853354,0.526326,-0.661673,-0.748426,-0.045253
0.390153,0.090514,0.899764,-0.721854,0.255321,0.643225
0.343791,-0.715106,0.656795,-0.519220,0.199598,-0.831006
-0.476047,0.623505,0.606775,0.154479,-0.369990,0.916102
0.311503,-0.439939,0.451239,0.716992,0.687477,-0.115316
0.729442,-0.236314,0.604906,0.703972,-0.045974,-0.708738
-0.102637,0.562841,0.223378,0.107154,0.581757,0.806273
0.533380,0.233233,0.500967,0.191041,0.527825,-0.827589
0.304961,0.639033,0.808740,0.867007,-0.448782,0.216549
0.213507,0.093837,0.630526,-0.457494,-0.862821,0.215031
0.450862,0.135347,0.861717,-0.002693,-0.394776,0.918774
0.656279,-0.385498,0.591098,-0.413357,0.050392,0.909173
-0.182412,0.759879,0.700041,0.112633,0.453741,0.883987
-0.100949,-0.146345,0.847860,0.862210,0.181369,0.472968
0.112347,0.021813,0.684120,0.404123,0.697114,-0.592213
0.257827,0.184713,0.894030,0.457414,0.681596,-0.571139
-0.028843,0.133172,-0.841524,0.918132,-0.384170,0.097198
-0.519943,0.529185,0.306864,0.084720,0.142169,-0.986210
0.515021,0.028882,0.347348,0.090428,-0.483042,-0.870915
0.213368,-0.720906,0.647080,-0.224494,0.117537,-0.967361
-0.095320,0.284351,0.405524,-0.502598,0.008692,-0.864477
0.009568,0.400847,0.649728,-0.085775,-0.460942,0.883275
-0.222792,0.259879,0.770790,0.817568,0.459687,0.346799
0.127893,-0.257704,0.769247,0.538666,-0.827161,0.160139
0.545903,-0.419879,0.407067,0.424517,-0.285555,0.859211
-0.097712,0.137704,0.939956,0.898455,-0.411505,0.153110
0.469997,-0.112024,0.830250,-0.737603,0.068571,0.671744
-0.230671,-0.118610,0.628316,0.913593,0.405056,0.035745
0.070982,0.174623,0.941435,0.314249,0.466601,-0.826760
0.391698,0.200363,0.898335,0.863491,0.104105,0.493503
0.406825,-0.168278,0.331200,0.492740,0.760960,0.422074
-0.317621,-0.064471,0.552904,0.462692,-0.871140,-0.164410
0.463384,0.554200,0.643295,-0.813517,0.478963,-0.329824
-0.135349,0.955952,0.705288,0.697918,0.295849,-0.652214
-0.036228,0.198309,-0.960816,-0.611633,0.707921,0.353204
-0.064438,-0.445680,0.468004,-0.357243,0.344418,-0.868190
-0.003727,0.983142,0.733377,-0.564044,0.040273,0.824762
-0.027929,-0.179396,0.851482,-0.018082,0.885772,0.463769
-0.227998,0.793838,0.351247,-0.278469,0.116212,0.953389
0.236792,-0.964834,0.626870,-0.673485,-0.551650,0.492036
0.658813,0.034924,0.731671,0.840642,0.232847,0.488982
-0.116074,-0.132145,0.691853,0.388241,0.696878,0.603017
0.421387,0.489124,0.648477,0.866745,-0.059351,-0.495208
0.234894,0.317402,0.421932,0.033787,0.560483,-0.827476
-0.039957,-0.000120,0.906588,0.824950,0.006776,0.565165
0.120647,-0.601873,0.607700,0.345649,-0.911766,0.221834
-0.063594,0.075771,0.750678,-0.749305,-0.051376,0.660230
-0.794301,0.549064,0.615271,0.243092,-0.361286,-0.900210
0.736759,0.304109,0.662075,-0.734567,0.457119,0.501451
0.327471,0.226284,0.657997,0.179385,0.425381,-0.887058
0.245094,-0.009305,0.840744,-0.116503,-0.755934,0.644197
-0.013435,0.565680,0.766826,-0.463206,0.476071,-0.747527
-0.097431,-0.340906,0.712274,-0.441916,-0.100354,-0.891425
-0.128947,0.304229,0.528178,0.871214,-0.483120,-0.087070
0.186354,-0.319214,-0.070230,0.847668,0.528177,0.049870
0.525924,-0.101087,0.548843,-0.328820,0.673156,0.662374
-0.181145,-0.103202,-0.483795,0.820121,-0.570471,0.044315
0.005981,0.180665,0.866039,0.332760,0.460303,-0.823038
-0.077946,-0.109909,0.845179,0.404549,0.154427,0.901384
0.647344,0.767311,0.622192,0.639502,0.738708,-0.212948
-0.016110,-0.103323,0.833807,-0.716439,0.208009,-0.665919
-0.627999,0.493535,0.303599,-0.133127,-0.390333,0.910998
-0.003940,-0.133172,0.650329,-0.554840,0.334915,-0.761567
-0.260921,0.801450,0.545902,-0.282181,-0.049583,-0.958079
-0.297291,0.514321,0.647535,0.842540,0.538411,-0.015489
0.350898,0.125016,0.888279,-0.579090,-0.214904,0.786429
-0.079562,0.038430,0.858809,-0.051285,0.608060,0.792233
0.156315,-0.251662,0.843408,0.333331,0.941424,0.051112
0.529089,0.380242,0.639964,0.311698,-0.155934,0.937299
0.165600,0.306103,0.912745,0.127023,-0.794597,0.593700
0.130355,0.433777,0.727220,-0.286335,-0.818556,0.497974
0.042914,0.094320,0.868654,0.613066,0.497385,0.613806
-0.076117,0.227614,0.953115,0.139843,-0.548531,-0.824353
-0.575238,-0.131843,0.601641,0.072151,0.012499,0.997315
-0.050157,-0.020000,0.656730,-0.060746,0.331818,0.941386
-0.219134,0.747735,0.702916,0.072018,-0.442365,0.893939
0.213368,0.520544,0.761336,0.029718,-0.802954,0.595299
-0.014983,0.119215,0.878255,-0.721950,-0.486666,-0.491879
0.354908,0.378006,0.625668,0.147341,-0.266158,-0.952602
-0.384311,0.324411,0.613939,-0.418386,0.395511,0.817634
0.372072,0.192145,0.919308,0.169372,-0.778380,0.604514
-0.025747,0.766103,-0.052798,0.899243,0.039471,0.435665
-0.323180,0.383505,0.407246,-0.221742,-0.174708,0.959327
0.090258,0.136496,-0.972837,-0.072350,0.340042,-0.937623
0.648048,0.145922,0.344407,0.000123,-0.092674,0.995696
-0.102356,0.880000,0.352417,0.874920,0.479747,0.066020
0.649386,0.216375,0.719698,-0.308352,0.870358,-0.383922
0.704186,0.669064,0.599789,0.398210,0.337731,-0.852858
0.035878,-0.567130,0.627991,0.411837,-0.192145,-0.890770
-0.196622,-0.245317,0.722606,-0.021989,0.290626,0.956584
0.668589,-0.150997,0.716075,-0.348539,-0.010400,0.937236
0.405346,0.109184,0.644919,0.743662,0.666843,-0.047829
0.265002,0.145680,0.893819,0.683887,0.648010,-0.335232
-0.195355,-0.599698,0.446609,0.477245,0.519817,-0.708539
-0.184170,0.393716,0.952937,0.293404,-0.471100,-0.831853
0.119803,0.070755,-0.987166,0.025335,-0.619178,0.784842
-0.353639,0.782599,0.574056,-0.559831,0.825830,0.067781
0.056561,0.248581,0.696093,0.032356,0.596572,-0.801907
0.103202,0.023867,0.331313,0.022395,0.306923,0.951471
-0.045303,-0.347311,0.711250,-0.341623,-0.230577,-0.911114
-0.097572,0.127735,-0.992543,-0.369817,-0.376943,0.849205
0.068590,-0.005136,0.883292,0.724487,0.650392,0.228271
0.336546,0.166949,0.911218,0.280166,0.888039,-0.364545
0.137813,0.354501,0.435156,0.556770,-0.509166,0.656321
0.003940,0.072205,-0.555552,0.999010,-0.021541,0.038918
0.745481,0.437946,0.643408,0.258664,-0.194259,-0.946233
0.517131,0.523928,0.661604,0.136505,0.052129,0.989267
-0.166796,-0.149123,0.752059,-0.668905,0.610256,-0.424446
-0.177487,-0.301449,0.724182,0.710011,0.466041,0.527911
-0.347941,-0.001933,0.503517,0.245776,-0.279078,0.928283
0.088710,0.482900,0.475591,0.211065,-0.273815,0.938337
-0.336617,0.407976,0.585818,-0.195222,0.460630,-0.865857
0.012171,-0.083263,0.820275,0.565489,0.789921,0.237166
0.285403,0.060786,0.854862,-0.394301,-0.229831,0.889778
-0.967569,0.568580,0.587800,0.195226,-0.967058,-0.163356
0.204222,-0.376193,0.618504,-0.137527,-0.004798,0.990486
0.756315,-0.137099,0.586143,0.217082,0.326121,-0.920065
0.300317,0.300363,0.685078,-0.026454,-0.585297,0.810387
0.373620,-0.031782,0.813468,0.523734,0.066362,-0.849293
0.021175,0.650695,0.705711,0.506164,0.310307,-0.804679
0.187268,-0.547431,0.510665,-0.706885,0.543945,-0.452148
0.674710,-0.260483,0.584421,-0.585507,0.250523,0.770986
-0.192683,0.735529,0.707725,0.251718,-0.008618,-0.967762
-0.301582,-0.210936,0.591601,0.915011,-0.350330,0.200058
0.054170,-0.664955,0.605491,0.689318,-0.724445,-0.004485
-0.549772,0.502901,0.389213,-0.628183,0.217057,0.747176
0.240029,0.225801,0.509561,-0.015712,-0.224358,0.974380
0.740415,0.017160,0.703273,0.629194,-0.294355,-0.719354
0.267183,0.014079,0.745350,0.310044,-0.783551,0.538443
-0.404221,0.304411,0.383803,0.750027,0.262255,-0.607191
0.289695,0.200001,0.828284,0.903294,0.280114,-0.324955
0.408513,0.249547,0.886492,0.457413,0.425357,-0.780926
0.527120,-0.567553,0.468865,-0.110824,0.420423,0.900534
-0.039534,0.186043,0.963350,-0.588638,0.793526,0.154343
0.070277,-0.104713,-0.314629,0.816698,-0.450139,0.361081
-0.157790,0.894865,0.560085,0.815273,0.525553,0.243152
-0.015054,0.045922,-0.441426,0.995252,-0.094138,0.024741
-0.495534,0.542961,0.606515,-0.647571,0.337122,-0.683375
0.575098,-0.062054,0.548453,0.537825,-0.704347,-0.463291
-0.194864,-0.324592,0.730290,-0.665311,-0.250515,-0.703281
-0.064580,0.257825,0.869353,0.868851,0.079321,0.488679
0.292578,-0.106284,0.803298,0.287853,-0.386676,0.876141
0.500950,0.539819,0.678532,0.953908,-0.288846,-0.081407
-0.103270,0.124169,0.927642,0.033549,-0.725289,0.687626
0.151461,-0.320967,0.613663,0.286165,0.757933,-0.586214
0.302638,-0.194743,0.796621,0.596554,0.447772,-0.666051
-0.093633,0.518792,0.414979,0.774460,-0.630896,-0.046705
-0.092437,0.160847,0.487483,-0.521996,0.770229,0.366426
0.212382,0.179819,0.773325,0.497292,0.867212,-0.025361
0.024622,0.685379,0.471318,0.168184,0.577396,0.798955
0.492790,-0.569124,0.554252,-0.129357,-0.903664,0.408238
0.560323,-0.415468,0.567493,-0.463659,0.184180,0.866659
-0.231163,0.292266,0.718398,0.039199,0.401869,0.914858
-0.314809,0.468701,0.800341,0.867483,-0.258629,0.424951
-0.096306,-0.072265,0.887499,0.645075,0.250656,-0.721837
0.092087,-0.545498,0.513541,-0.703021,-0.675597,0.222102
0.161731,0.455409,0.743400,0.647404,0.012176,-0.762050
-0.078298,0.166103,0.934628,0.158643,0.202093,0.966432
-0.067042,0.489124,0.659280,-0.077173,-0.413222,0.907354
0.632572,-0.338428,0.585785,0.303420,-0.183832,-0.934956
0.792545,0.308580,0.713833,-0.448686,0.684690,0.574352
0.264581,0.337886,0.503274,-0.340838,0.426560,-0.837780
-0.063171,0.471662,0.662790,0.072162,0.332741,-0.940253
0.160956,-0.506586,0.635546,-0.143094,-0.157777,0.977052
0.132326,0.290030,0.921209,0.022539,0.817143,0.575994
0.092931,0.367009,0.463423,-0.701150,0.393227,-0.594779
0.060359,0.759578,0.752612,0.081660,0.650211,0.755353
0.562223,-0.576374,0.572740,-0.456106,0.743189,0.489528
0.115091,0.231299,0.901876,-0.083899,0.759404,0.645187
0.155119,-0.628641,0.644968,-0.212931,0.688608,0.693166
-0.237425,0.182659,0.702900,0.613285,0.572544,-0.544128
0.026099,0.153294,0.665015,0.747686,0.649275,-0.139311
0.612101,0.448520,0.634928,0.912149,0.288422,-0.291199
0.011750,-0.098127,0.769783,0.821332,-0.274566,-0.500027
0.640451,0.406889,0.634490,-0.584193,-0.356651,0.729053
-0.304255,0.172326,0.677800,-0.751035,-0.062814,0.657268
0.152234,0.659457,0.781756,0.954558,0.134176,-0.266114
0.077031,-0.653595,0.647713,0.327429,-0.549603,-0.768587
0.258741,0.118973,0.879295,-0.530358,-0.497314,0.686585
-0.547590,0.350695,0.193583,-0.289649,-0.751202,-0.593127
0.036018,-0.094743,0.838047,-0.470955,-0.867131,-0.162129
0.519312,0.008581,0.663715,0.855976,0.105116,-0.506216
0.435527,0.452568,0.614589,0.891238,-0.130273,-0.434424
-0.399086,-0.240967,0.597482,0.940239,0.198195,-0.276891
0.287724,0.167915,0.772253,0.861024,0.296145,-0.413444
-0.443404,0.069427,0.298757,0.801998,0.533651,-0.268357
0.009850,-0.582477,0.461181,-0.130326,0.147953,-0.980370
0.021458,-0.086828,-0.355227,0.933123,0.359325,-0.012893
0.064017,-0.400483,0.669970,0.959895,0.250602,0.125700
0.125291,-0.326526,0.630509,0.531209,0.700549,0.476495
0.380374,-0.190997,0.361465,0.654404,0.675559,0.339668
0.019768,0.287554,0.704654,0.141104,-0.725065,0.674070
-0.283714,0.326949,0.612363,0.250714,0.953614,0.166619
0.775520,0.774502,0.609926,-0.644562,0.227701,0.729858
0.642422,0.007492,0.345902,-0.211769,0.361051,0.908183
-0.271122,-0.195046,0.767151,-0.582862,0.135141,-0.801254
0.526206,0.003746,0.714954,0.866747,-0.495080,-0.060371
0.174323,0.675952,0.796751,0.605395,0.647436,-0.462951
0.150123,-0.622659,0.643555,-0.175276,0.619042,0.765549
-0.080477,-0.648943,0.461279,-0.040062,-0.450461,0.891897
-0.044741,-0.223928,0.701730,-0.443049,0.313800,-0.839784
0.068519,0.202658,-0.307968,0.956185,0.096930,-0.276252
0.067042,-0.042356,0.650150,0.623044,0.079725,0.778113
-0.039324,-0.020060,0.874746,0.172877,0.253708,0.951707
-0.646569,0.547009,0.308878,0.095137,0.162862,0.982051
-0.027083,0.108399,0.278759,0.854712,-0.510746,-0.092766
-0.154836,0.382538,0.904021,0.963231,0.221226,-0.152465
0.731411,-0.301994,0.592982,-0.386976,0.032958,0.921500
0.013508,0.073776,-0.323987,0.801852,0.573220,-0.168677
-0.135701,0.569547,0.228479,0.107154,0.581757,0.806273
-0.280760,0.328641,0.788547,0.688276,0.723506,-0.053062
-0.340837,0.744532,0.613679,0.947794,-0.215467,-0.235074
0.696097,-0.280120,0.589262,0.491723,-0.189378,-0.849909
0.254029,-0.777341,0.671530,0.409031,-0.529598,-0.743115
0.110024,0.657704,0.467062,-0.455964,-0.006424,-0.889975
-0.108053,0.286828,0.872082,0.745833,0.126470,0.654017
0.367641,-0.486163,0.441296,0.641947,-0.509744,-0.572770
-0.143861,0.646526,0.710438,-0.470823,0.481496,-0.739248
-0.373055,-0.001812,0.573032,-0.221061,0.937687,0.268097
-0.295322,0.710937,0.693900,0.964859,-0.196080,-0.174929
-0.266689,0.279093,0.715393,0.866389,-0.164830,0.471382
-0.390713,0.611058,0.129185,0.932925,0.084947,0.349908
-0.105522,0.649970,0.800601,0.091152,-0.782043,0.616523
0.585650,0.513475,0.628024,-0.484533,0.307355,0.819000
-0.400069,0.523082,0.590578,0.323870,0.652452,0.685139
0.402463,-0.165800,0.805800,0.844393,0.526723,-0.097793
0.308267,0.045740,0.715734,-0.593917,-0.759667,0.264894
0.037847,0.228943,0.793811,0.022289,-0.304708,0.952185
-0.136476,0.186405,0.652636,-0.061170,0.959351,0.275507
0.338869,0.176677,0.911234,0.186643,0.935579,-0.299762
0.385509,0.400182,0.631841,0.291327,0.720199,-0.629636
-0.034751,0.274864,0.947819,0.847012,-0.149997,0.509973
0.166094,0.064229,0.324604,0.185030,-0.149167,-0.971346
0.681604,0.009426,0.345333,0.072159,0.209273,0.975191
0.240873,0.324230,0.830444,0.775369,0.007221,-0.631467
0.581358,0.379819,0.598213,0.837406,0.483329,-0.255231
0.397890,0.276375,0.868508,0.751647,0.405972,-0.519821
-0.586844,0.511178,0.312875,0.134851,-0.682731,-0.718118
0.746536,0.094804,0.706848,0.202396,0.488525,-0.848751
-0.186352,0.942115,0.352498,0.212701,-0.382877,-0.898979
-0.073936,0.340605,0.933832,0.582541,-0.575365,-0.574108
-0.087373,0.394925,0.850670,0.074197,-0.990247,0.117927
-0.207457,0.775952,0.718073,-0.280932,-0.750960,0.597610
-0.271472,0.167795,0.677459,0.967234,0.116097,-0.225787
-0.053182,-0.143927,0.804500,0.885132,0.192634,0.423596
0.137672,0.090091,0.901698,-0.625065,-0.721934,0.296827
0.043687,-0.146767,0.265551,0.246318,0.460957,0.852553
0.108126,0.266949,0.927171,0.499965,-0.175860,-0.848002
0.125080,-0.419094,0.701941,-0.624447,-0.503862,-0.596816
0.326557,0.097583,0.884283,-0.689114,-0.370064,0.623037
0.313471,0.358731,0.503404,0.442145,-0.687126,0.576512
0.025397,0.402296,0.849159,-0.258973,-0.960843,-0.098555
0.136055,0.627614,0.469174,-0.241958,0.010983,0.970224
0.081956,0.497463,0.774202,-0.385351,0.768791,0.510358
-0.044039,0.870695,0.698449,0.979320,0.064400,-0.191792
0.292297,-0.563021,0.536074,0.619751,-0.225738,0.751633
0.264368,0.195650,0.152319,-0.445814,-0.258471,0.856996
0.659727,-0.241450,0.578345,-0.484422,0.280275,0.828722
0.188885,-0.034138,0.881634,-0.109152,0.156830,0.981575
0.091946,-0.121389,0.713135,-0.234741,-0.167808,0.957464
-0.124868,0.643566,0.790496,0.403870,0.786983,-0.466419
0.049736,0.072387,0.882642,0.743508,-0.507820,-0.435103
-0.071544,-0.680846,0.445797,-0.637823,0.138396,0.757647
0.509181,0.633958,0.558606,-0.439677,-0.440787,0.782554
0.380584,-0.223565,0.807571,-0.659908,0.350614,0.664523
0.484771,0.579880,0.632686,0.960859,0.171982,0.217193
0.231165,0.253595,0.841833,0.938437,0.039583,-0.343176
-0.248821,-0.074321,0.938023,-0.834300,0.456649,-0.308893
0.239325,0.015469,0.841540,0.506563,0.472064,-0.721491
-0.040310,-0.018912,0.896515,0.470298,0.291760,-0.832884
0.125501,-0.357160,0.684542,-0.175576,0.808008,0.562402
-0.390292,0.667976,0.604955,0.332309,-0.942397,0.038207
0.517764,-0.199275,0.560296,-0.313161,0.307865,0.898415
0.250158,0.239637,0.784745,0.031105,-0.216709,0.975741
0.281322,0.335347,0.570872,-0.601702,0.797858,0.037106
-0.080829,0.850634,0.686313,-0.277852,0.844446,0.457940
-0.044882,-0.135045,0.883584,0.326925,-0.372790,0.868417
-0.128526,0.419336,0.861750,0.296496,0.878172,-0.375371
0.258037,-0.705015,0.664934,0.143424,-0.336278,-0.930777
0.132184,0.444109,0.495882,0.774309,0.117929,-0.621722
-0.071192,-0.581269,0.464382,-0.169586,-0.250184,-0.953231
-0.463384,-0.057885,0.581902,0.425181,-0.731984,-0.532372
-0.023004,-0.316676,0.334140,0.149743,0.893136,-0.424129
-0.217728,-0.350755,0.731265,-0.608818,0.106512,-0.786128
-0.728105,0.547916,0.616571,-0.098729,0.019282,0.994928
-0.065494,0.131964,-0.110503,0.204145,0.970568,-0.127756
-0.214703,0.063928,0.363984,0.955750,0.172443,-0.238338
-0.160323,0.463082,0.937731,0.065665,0.909448,0.410600
-0.077523,0.076133,0.640046,0.923642,0.143025,0.355570
-0.525431,0.501692,0.604988,-0.529938,0.108322,-0.841090
0.117903,0.296858,0.704849,0.315127,-0.448315,0.836486
0.307492,0.183747,0.893136,-0.015135,-0.999116,-0.039230
0.159479,-0.681752,0.651629,0.237471,-0.164115,-0.957431
0.052690,0.053051,0.620973,-0.240450,0.870309,-0.429821
0.627014,0.388460,0.622728,0.498163,0.106938,-0.860464
-0.336898,0.590997,0.594509,0.307119,0.036421,0.950974
-0.136124,0.977341,0.702721,0.612434,0.313033,-0.725903
0.635457,0.035347,0.727220,0.950206,0.169860,0.261258
0.059234,0.030937,0.657688,-0.639312,0.338477,0.690444
-0.561590,0.699699,0.561027,0.671938,-0.143749,0.726523
0.246079,-0.580906,0.639704,-0.415682,0.240471,0.877144
-0.082377,0.847795,0.733848,0.153547,-0.959332,0.236865
0.002042,0.106285,-0.654260,-0.321590,0.945073,0.058455
0.328317,-0.714864,0.658062,-0.405486,0.103530,-0.908219
0.604433,-0.005015,0.341028,0.017864,0.414609,0.909824
-0.108476,-0.110030,0.494387,-0.430850,-0.404308,0.806786
0.565742,0.769124,0.692275,-0.430143,-0.667091,0.608249
0.068519,-0.219697,0.830363,-0.350901,0.508177,0.786527
0.448822,0.112629,0.909154,-0.021125,-0.887330,0.460651
0.403659,0.648943,0.548713,-0.014479,-0.314301,0.949213
0.340979,-0.469124,0.391163,0.055488,0.828222,0.557646
0.311080,-0.469728,0.592267,0.947633,-0.159224,-0.276838
0.034120,0.194320,0.691512,0.686951,-0.134481,0.714152
-0.327119,0.643867,0.588677,-0.541693,-0.205562,-0.815054
-0.667533,0.662297,0.310162,-0.179184,0.393101,-0.901867
0.078931,0.192991,0.895330,0.746086,-0.593125,0.302586
-0.254731,0.150272,0.431614,0.428808,0.872337,0.234844
-0.089552,-0.557704,0.465291,-0.086793,0.112915,0.989807
-0.710799,0.596677,0.602226,0.217333,0.793986,0.567760
-0.600210,0.690876,0.304411,0.405623,0.864838,0.295847
0.301865,0.152024,0.885452,-0.137726,-0.868314,0.476511
0.423498,0.133717,0.903485,0.741772,-0.107795,-0.661932
0.235457,-0.222296,0.359727,-0.140773,0.334284,0.931900
-0.263172,0.287372,0.634944,0.902257,0.191451,0.386366
-0.072459,-0.156616,0.856259,0.401854,0.271342,0.874578
-0.002321,0.632085,0.502851,-0.574063,0.026567,-0.818380
0.686108,0.212508,0.331281,0.386154,0.112805,0.915511
-0.369328,0.107674,0.578036,0.714694,0.381574,-0.586186
-0.183327,0.824170,0.536577,-0.570379,0.387186,-0.724400
0.380584,0.427674,0.587361,-0.044309,0.284023,0.957793
0.499896,-0.213353,0.573877,0.361986,-0.378098,-0.852061
0.275272,0.118611,0.747283,0.723537,0.624471,0.294160
0.604785,0.431662,0.620128,-0.313133,-0.505173,0.804206
-0.423356,0.225076,0.604793,0.458834,-0.454464,0.763501
0.595710,-0.235408,0.571505,0.377759,-0.180296,-0.908180
-0.168906,0.604230,0.510779,-0.527751,0.046297,-0.848137
-0.153077,0.254925,0.921631,-0.069898,-0.862401,0.501377
0.691383,0.660906,0.596832,0.387114,0.520704,-0.760927
-0.600773,0.629125,0.305775,-0.033854,-0.100198,0.994391
0.087796,0.153112,0.508180,-0.848336,0.495096,-0.187632
-0.024762,0.269607,-0.987929,0.286444,-0.313313,-0.905420
-0.693562,0.656496,0.606401,0.224919,-0.283809,0.932129
-0.020260,0.626345,0.690569,0.411791,-0.694790,-0.589657
-0.241223,-0.100725,0.630363,0.961940,0.261252,0.080122
0.387128,0.186224,0.886735,-0.575685,-0.240443,-0.781520
-0.144565,-0.041329,0.877199,0.797326,0.582315,-0.158685
-0.004712,0.093958,-0.645634,-0.357859,0.933775,-0.001217
0.292509,0.409487,0.526846,-0.580121,-0.001213,0.814529
0.272037,0.246707,-0.246349,-0.547757,0.830753,0.099052
0.409217,0.093595,0.900268,0.694738,-0.224817,-0.683225
0.248752,0.030634,0.655901,0.075915,0.939260,0.334705
-0.556594,0.606405,0.300788,-0.019858,0.278964,0.960096
-0.189658,0.414261,0.693542,0.919165,0.354167,-0.172344
0.053536,-0.160423,0.835578,-0.058232,-0.757693,0.650008
0.141330,-0.591118,0.498042,0.872401,-0.416077,-0.256508
-0.476467,0.849607,0.526505,0.859349,0.476674,0.185204
0.573971,0.408580,0.626968,0.407097,-0.102116,-0.907659
0.094479,-0.467674,0.538738,-0.612121,0.615625,-0.496300
0.137038,-0.286767,0.664577,-0.740440,-0.185369,-0.646055
0.060430,0.490816,0.472147,0.308550,-0.271877,0.911526
-0.205487,0.834562,0.783722,-0.072952,0.615942,0.784407
0.638551,0.747795,0.701941,-0.572903,-0.526605,0.628068
0.753290,0.744351,0.621233,-0.285332,0.781670,-0.554596
0.019698,-0.652749,0.651645,0.117260,0.668788,0.734148
0.166796,0.666949,0.807457,0.989254,0.139173,0.044809
0.591771,0.017946,0.339583,0.097546,0.438635,0.893356
0.312557,-0.524109,0.545496,0.609516,0.521926,-0.596728
0.095252,0.227734,0.679750,-0.744868,0.553920,-0.371946
-0.113541,-0.479456,0.468817,0.154013,-0.392310,0.906848
-0.196060,0.259759,0.643116,-0.630127,-0.711724,-0.310465
0.025256,-0.025377,0.752872,0.064946,0.146319,0.987103
0.761802,0.276798,0.708667,0.731864,-0.485714,-0.477971
-0.441506,0.317281,0.611827,-0.214812,-0.139201,0.966684
0.173621,-0.773293,0.460028,-0.008578,0.214079,0.976779
0.261204,0.268036,0.922915,0.661034,0.541679,-0.519247
-0.605839,0.827130,0.578800,-0.310270,0.640594,-0.702405
0.075344,-0.380846,0.640306,-0.222250,0.579209,0.784297
-0.120928,0.625499,0.369491,0.160769,0.128512,0.978590
0.177771,0.020786,0.810738,-0.650762,-0.271469,0.709094
0.366445,0.496193,0.596832,0.776572,0.482390,-0.405261
0.237496,-0.362236,0.436293,-0.424272,0.188377,-0.885724
0.378051,-0.305982,0.546633,-0.715474,0.411769,0.564396
-0.432079,0.716073,0.552254,-0.658609,-0.735867,-0.157268
0.089835,0.545015,0.655349,0.420424,-0.018729,0.907134
-0.857826,-0.147190,0.592251,-0.174373,-0.111505,0.978346
0.642984,0.476073,0.637316,0.948292,0.268818,-0.168760
0.440239,0.196012,0.655706,-0.703421,0.542677,0.459021
0.078088,0.679457,-0.056827,0.899243,0.039471,0.435665
-0.548011,0.557765,0.609114,0.268454,0.051249,0.961928
0.596694,-0.367915,0.401316,0.464697,-0.351978,0.812508
0.106016,-0.288459,0.772919,0.446789,-0.664905,0.598566
0.030814,-0.137764,0.569588,0.859927,0.435054,0.266932
0.353570,-0.198006,0.794753,-0.053878,0.140222,0.988653
0.198664,-0.575830,0.506474,0.195422,0.810810,-0.551722
-0.172775,0.482659,0.896629,-0.379324,0.530783,-0.757881
0.107212,0.294381,-0.974104,0.299181,-0.332148,-0.894521
0.111362,-0.261752,0.479717,-0.182901,0.974450,-0.130363
0.077525,0.375288,0.814881,0.569476,-0.296016,0.766858
0.330004,0.258852,0.390025,0.826515,0.015933,0.562689
-0.020189,-0.612326,0.639672,0.720650,0.568422,0.396938
-0.308194,0.356979,0.802339,0.768080,0.082549,0.635010
-0.157369,0.421390,0.892113,0.010682,-0.025815,0.999610
-0.646992,0.597764,0.607294,0.336334,0.243124,0.909819
0.065003,0.118852,0.868963,0.025023,0.354783,0.934614
0.351179,0.208460,0.924832,-0.049710,-0.967836,0.246624
0.389940,0.116133,0.645813,0.593007,0.782749,-0.188806
-0.249315,-0.100000,0.632849,0.793159,0.608893,-0.012146
0.714528,0.259638,0.733490,0.768407,0.015122,0.639782
0.128878,0.180544,0.571034,0.400144,-0.180417,-0.898518
0.233134,-0.332145,0.344668,0.309675,0.540398,-0.782350
0.340556,-0.245680,0.673836,-0.531526,0.209830,0.820641
0.164546,0.489608,0.748599,0.286529,0.662888,-0.691723
0.590575,-0.076193,0.760994,-0.205155,0.221297,-0.953383
0.136055,0.109789,0.899716,-0.808670,-0.431982,0.399304
-0.550405,0.542901,0.606596,-0.219530,-0.273758,-0.936410
0.476540,-0.244532,0.301812,0.912399,0.237897,0.333067
-0.163490,0.639336,0.769442,-0.236211,-0.353135,0.905262
0.333311,0.007010,0.709398,0.013562,0.987713,0.155689
0.075696,0.107069,-0.737471,-0.205869,-0.967346,-0.147849
0.272247,-0.227250,0.592771,-0.592144,0.096916,0.799983
0.224621,-0.018912,0.817805,0.820690,0.023561,-0.570888
0.465074,-0.499395,0.462822,-0.421046,-0.469775,-0.775907
0.437566,-0.111057,0.830331,0.841386,-0.027352,-0.539742
0.063174,-0.966465,0.437836,0.124533,0.570629,-0.811710
-0.649032,0.623505,0.304898,0.029482,-0.119493,0.992397
-0.298066,0.491903,0.619235,-0.521733,-0.817003,0.245562
0.281955,0.167856,0.888458,0.708002,-0.677314,-0.199950
0.188112,-0.369607,0.694923,-0.625483,0.279768,0.728355
0.034401,0.017946,0.879750,-0.017367,0.986110,0.165181
0.345621,-0.283203,0.799318,-0.629321,0.536673,0.562083
0.674781,0.086647,0.344797,0.138434,0.081230,-0.987035
0.245585,0.631964,0.352417,-0.077632,-0.025126,0.996665
-0.009989,0.001329,0.784729,0.235165,0.967749,0.090328
0.171721,0.021330,0.762002,0.194550,0.914001,0.356023
-0.113330,0.759336,0.714808,-0.125708,0.611439,-0.781243
0.476822,0.090514,0.660336,-0.105740,-0.699591,0.706677
-0.005346,-0.598127,0.463326,0.077672,-0.021276,0.996752
0.189447,-0.490091,0.644481,-0.080628,0.775186,0.626567
0.026099,0.392871,0.848282,-0.258973,-0.960843,-0.098555
0.513121,0.575891,0.688539,0.802889,0.091497,-0.589065
0.149984,-0.238852,0.789912,0.896870,-0.402083,-0.184266
0.186564,-0.191662,0.628121,-0.296774,-0.596730,0.745546
0.707282,0.727070,0.609991,0.514901,0.563888,-0.645684
0.051847,0.224230,0.832962,0.785359,0.565160,-0.252595
-0.204782,-0.285680,0.730436,0.027298,0.278062,0.960175
0.711009,0.741692,0.608821,0.730758,0.278847,-0.623087
0.447487,0.649607,0.564113,0.465025,0.353889,-0.811489
-0.021737,0.380484,0.841020,0.165862,-0.794201,0.584581
0.791066,0.330997,0.706035,0.699386,-0.609155,-0.373884
-0.192543,0.421088,0.886541,0.131962,0.980546,-0.145315
0.667112,0.661934,0.606433,0.378893,0.532302,-0.757030
0.189379,0.248157,0.665308,-0.654302,0.184755,0.733317
0.346606,0.183807,0.877118,-0.600246,0.684285,-0.414075
0.604222,0.078792,0.663293,0.027587,-0.869357,0.493414
0.055786,0.214623,-0.959402,-0.071667,0.973016,0.219327
0.118397,0.120303,0.892714,0.889114,0.307735,-0.338785
0.158213,-0.112930,0.346194,-0.102685,0.127804,0.986469
0.160254,-0.056132,0.801641,-0.544154,0.063678,0.836565
0.532466,0.251723,0.674161,-0.658204,0.284928,0.696838
-0.207526,-0.348943,0.734969,-0.006678,0.439143,0.898392
0.149490,-0.237281,0.849501,0.618473,0.588327,-0.520925
-0.190785,-0.264773,0.841768,-0.626477,-0.047401,0.777997
0.230532,0.146345,0.879230,-0.235165,0.008320,0.971920
-0.024410,0.740907,0.717992,-0.024631,-0.350316,0.936308
0.394865,0.205499,0.774332,0.089189,-0.496943,0.863188
0.175237,0.417825,0.818959,-0.463759,-0.321721,0.825483
0.630322,0.484592,0.638925,0.905305,0.188551,-0.380620
0.277595,0.383203,0.693835,0.121985,-0.885776,0.447795
-0.187547,0.399577,0.888718,-0.253419,-0.278637,-0.926359
0.184945,-0.296797,0.588644,0.328923,0.709461,0.623278
-0.021245,0.654139,0.738299,0.862697,-0.092507,-0.497188
0.124586,-0.586345,0.642515,0.035966,0.426052,0.903983
-0.391346,-0.020665,0.564763,-0.277952,0.958908,-0.056899
0.175098,-0.221571,0.803087,-0.681516,0.568870,0.460352
-0.163558,0.419940,0.855999,-0.268851,-0.929822,0.251298
0.405488,-0.227129,0.342767,0.670205,0.105708,0.734610
-0.067886,-0.140785,0.834490,0.786928,0.039726,0.615765
0.215197,0.176012,0.749785,0.831281,0.551364,0.070488
-0.232290,-0.079093,0.179563,-0.362845,0.794861,0.486353
0.216742,-0.527009,0.636748,-0.269757,-0.090971,0.958622
0.205418,-0.711843,0.656827,0.399371,0.469078,0.787699
-0.107210,0.170030,0.914776,0.048833,0.530754,0.846118
-0.474076,0.566466,0.309788,0.189912,0.247419,0.950114
-0.435104,0.597281,0.588693,-0.656496,0.149253,-0.739416
0.085825,0.319215,0.932743,0.011003,-0.689356,0.724339
0.170383,-0.644712,0.653854,-0.518558,0.456714,0.722849
0.647063,0.166586,0.341110,0.296528,0.061086,0.953068
0.065988,-0.301390,0.786338,0.118085,0.682849,0.720953
0.021175,0.021632,0.868199,0.383276,0.907580,0.171457
-0.002110,-0.114380,0.756299,0.365676,-0.439175,-0.820614
0.235948,0.205076,0.900691,0.287945,0.555333,-0.780188
0.662611,0.747493,0.610154,-0.672486,-0.561018,0.482723
0.309744,0.044653,-0.404532,0.531842,0.794204,-0.293912
-0.307492,0.490574,0.513460,0.475494,0.364009,-0.800876
0.438833,0.035408,0.623426,0.920191,0.359677,0.154536
0.338656,-0.415407,0.539859,0.120957,-0.265576,-0.956472
-0.178825,0.807432,0.694615,0.941445,0.136222,-0.308423
0.736617,-0.300242,0.589700,-0.386976,0.032958,0.921500
0.073021,0.203747,-0.947348,0.155314,0.901869,0.403125
-0.053253,0.335347,0.729933,0.806087,0.349900,0.477277
0.634049,0.692810,0.599496,-0.419198,-0.474308,0.774148
0.022793,-0.533354,0.578101,0.842143,0.305775,0.444181
-0.551882,0.118791,0.511949,-0.300383,0.673760,-0.675143
0.319663,0.512387,0.711835,0.785103,-0.598048,0.161097
0.291172,0.076194,0.754269,0.543485,0.834233,-0.093168
-0.463032,-0.000543,0.490764,-0.406435,-0.427525,-0.807486
0.388042,-0.541692,0.517537,-0.939458,0.276349,-0.202609
-0.109249,0.789064,0.361043,0.806283,0.046084,0.589733
0.093283,0.002296,0.452733,0.878553,0.477183,-0.021002
0.554134,0.009547,0.720023,-0.757120,-0.459382,-0.464476
-0.652127,0.729668,0.584794,-0.423997,-0.615699,-0.664185
0.382413,-0.206707,0.341223,-0.479552,-0.695707,-0.534810
0.723603,-0.219517,0.590042,0.742041,-0.132517,-0.657126
0.423919,-0.530272,0.472894,0.549502,0.643401,0.532994
-0.281464,0.407070,0.581009,-0.056299,-0.720537,0.691127
-0.283362,0.199456,0.908294,-0.283385,0.868034,0.407688
-0.022793,0.159577,-0.029404,-0.797477,-0.542579,-0.263890
0.511573,-0.373595,0.413695,0.298900,-0.292587,0.908323
0.498067,0.065861,0.761563,0.737985,-0.282335,0.612915
0.321000,0.040182,0.633385,0.217207,0.316493,-0.923392
0.360324,-0.575347,0.645049,0.148615,0.195844,0.969308
-0.045445,0.117099,0.251677,0.569864,-0.798790,0.192846
-0.787126,0.734200,0.595061,-0.303011,0.530802,0.791475
0.368485,0.141934,0.642450,-0.175621,0.840903,-0.511898
-0.375870,0.320061,0.789928,-0.129246,-0.631236,0.764746
0.179037,0.123625,-0.977760,0.081725,-0.548087,0.832419
-0.524516,0.381934,0.615758,-0.613660,-0.343988,-0.710699
-0.356947,-0.136918,0.605053,-0.769539,0.116014,0.627973
0.545903,0.119699,0.664414,-0.082866,-0.749567,0.656721
-0.171017,-0.479698,0.473317,0.731268,0.461202,0.502534
-0.288849,0.463868,0.804825,0.810945,-0.134608,0.569429
-0.007667,0.664834,0.683698,-0.317780,-0.247788,-0.915214
-0.239113,0.757281,0.569231,0.996468,-0.055484,0.063027
0.396061,0.512085,0.596296,0.796631,-0.214654,-0.565069
-0.101793,0.339516,0.696532,0.339425,0.850898,-0.400953
-0.087441,0.808339,0.714239,0.327438,-0.023524,0.944580
-0.045164,-0.747130,0.461815,0.478729,0.187743,-0.857654
0.199649,0.353173,0.435334,-0.490093,0.537637,-0.686116
0.026662,0.482840,0.674957,0.314465,-0.398834,0.861419
0.120297,0.215227,0.401040,0.064440,-0.742067,0.667221
0.110095,0.299033,-0.970222,-0.313601,0.453670,0.834169
0.098981,0.207191,0.883162,0.884026,0.393095,-0.252931
0.162927,0.093898,0.895833,0.932742,-0.214419,0.289855
0.270770,0.181934,0.869077,-0.778954,0.601297,0.177966
0.043405,0.566466,0.332906,-0.143408,-0.603648,0.784247
0.089835,-0.475226,0.642775,-0.352235,0.261051,0.898768
0.229336,-0.240181,0.843214,-0.027951,0.884074,0.466509
-0.287864,0.753293,0.549687,0.026923,-0.303431,0.952473
0.270349,0.412750,0.510698,-0.442978,-0.307166,0.842270
-0.141049,-0.189909,0.643977,0.745736,0.505692,-0.433767
-0.460289,0.251602,0.605637,0.437101,-0.201584,0.876531
0.093633,-0.336918,0.789051,0.311887,-0.933277,0.178104
0.009637,0.174321,0.937129,-0.229881,0.747000,-0.623815
-0.379809,-0.219214,0.602388,0.714932,0.000974,-0.699194
0.028281,-0.344048,0.677443,0.383889,0.709296,0.591210
0.590294,0.592689,0.569166,0.906072,0.226961,-0.357103
0.600423,0.609728,0.578117,-0.675085,-0.107366,0.729885
-0.046780,0.078429,0.734644,0.708175,-0.678332,-0.195842
-0.014702,0.265680,0.913703,-0.262692,0.500755,0.824765
0.079775,-0.130695,0.233222,0.082727,0.966748,0.241983
-0.055363,-0.186163,0.241313,0.399267,0.080021,0.913336
0.001337,0.195711,0.451093,0.534373,-0.396273,0.746601
0.022935,0.080665,-0.596101,0.800692,-0.595638,-0.064099
-0.924869,0.647009,0.299830,-0.227772,0.970703,0.076528
-0.148928,0.326405,0.806482,0.369962,0.438345,-0.819135
-0.010410,0.146525,-0.356169,0.834142,0.549039,-0.052567
0.170596,-0.204653,0.766908,-0.640901,0.599709,-0.479160
-0.052549,0.556194,0.498189,0.432871,-0.644268,0.630509
-0.221173,-0.092205,0.631468,0.919551,0.383456,-0.085947
-0.469011,0.727493,0.591422,-0.265160,0.892240,0.365509
0.540626,0.541330,0.634343,-0.082271,-0.795196,0.600745
-0.151600,0.647312,0.693802,-0.624712,-0.497180,0.602119
0.349702,-0.339819,0.547819,0.455569,0.117903,-0.882358
0.284770,-0.593474,0.529364,-0.355575,0.729001,-0.584914
0.198101,0.459034,0.492194,0.821089,-0.049904,-0.568615
-0.114455,0.179638,0.461928,-0.083055,0.861048,-0.501696
0.477103,-0.076858,0.594347,0.297789,-0.846058,0.442162
-0.801969,0.550454,0.611534,0.130199,-0.317903,0.939141
0.404854,-0.414441,0.326651,-0.327293,0.907047,-0.264849
-0.030391,0.631360,0.698887,-0.608310,0.122767,0.784147
0.555682,0.017825,0.697506,0.088577,0.995773,-0.024279
0.036932,0.030272,0.394444,-0.352145,-0.148862,0.924031
-0.747169,0.620665,0.611486,0.939276,0.335801,0.070703
0.189166,-0.240000,0.853529,0.252396,0.790443,0.558118
-0.046780,0.128338,0.616392,0.809779,-0.107797,0.576747
0.511714,-0.056918,0.726765,-0.235795,0.500376,0.833081
0.191560,0.456677,0.749785,-0.679283,-0.370641,-0.633404
0.182766,-0.317462,0.614313,-0.405976,-0.836054,0.369050
0.205839,-0.305377,0.523727,0.100130,-0.141675,0.984836
0.549561,0.665740,0.573633,0.469839,0.492096,-0.732866
0.128386,-0.442779,0.688311,0.789810,-0.604836,-0.101846
0.014423,0.082477,-0.375924,0.727672,0.661367,0.181898
0.106579,-0.632689,0.645277,-0.021543,0.329909,0.943767
0.285193,0.266405,0.848867,-0.371587,0.703741,0.605534
0.688499,0.768520,0.610852,0.830670,0.434571,-0.348046
-0.209568,0.409607,0.927723,0.067346,0.713175,0.697744
0.033768,0.225801,0.918951,0.215864,0.039480,0.975625
0.506298,0.614985,0.583235,-0.129347,0.624520,0.770224
0.345339,-0.463867,0.303046,0.131263,-0.880793,0.454944
-0.263454,0.121027,0.674097,0.595620,0.312680,-0.739911
0.348577,-0.105136,0.724360,0.604614,0.539170,-0.586291
0.854943,0.369547,0.664219,0.087124,0.854750,0.511676
0.387478,-0.156858,0.801820,0.892688,0.436882,0.110645
0.228703,0.218067,0.622728,-0.170086,0.682638,0.710687
