0.210161,0.022761,0.618096,0.735998,0.097205,-0.669969
-0.236836,0.176433,0.578127,0.283799,0.751947,0.595007
0.650369,-0.367038,0.810161,0.706829,-0.138480,-0.693697
0.204698,0.454868,0.639495,-0.642864,0.154622,0.750212
0.186509,-0.435318,0.410892,0.719955,0.558720,-0.411699
0.172296,-0.379664,0.855656,0.030604,-0.613151,0.789373
0.533542,-0.302691,0.240370,-0.276768,0.665138,-0.693535
0.239593,0.659100,0.547679,-0.436843,0.747156,0.500925
0.026250,-0.076475,0.874894,0.098851,-0.888473,0.448157
0.175161,0.161149,0.881429,0.985428,0.157969,-0.063072
-0.671104,0.114853,0.513656,-0.290646,0.025123,0.956501
0.013628,0.063519,0.475403,-0.048344,-0.303636,0.951561
-0.031819,-0.064735,0.183743,0.591458,0.763707,0.258706
0.498861,0.014344,0.879596,-0.446545,-0.102670,0.888851
-0.050485,-0.464835,0.700889,0.806713,0.279462,0.520688
0.604126,-0.355686,0.799724,-0.452020,0.824581,0.340213
-0.024554,0.370085,0.461089,0.281067,0.600234,-0.748813
0.166357,-0.002492,0.465725,0.923619,-0.265836,0.276150
-0.069046,-0.650126,0.571972,0.380038,0.017702,0.924801
0.635043,-0.489700,0.763657,0.299248,0.492143,-0.817463
0.108023,0.777550,0.543410,-0.495879,0.662486,-0.561441
-0.288381,0.680973,0.485892,0.170751,-0.397982,0.901363
-0.229622,-0.207220,0.530667,-0.440670,0.871273,-0.216084
0.241927,0.168236,0.636181,0.443605,0.117538,-0.888481
0.245214,0.090487,0.285472,-0.227495,0.661655,-0.714464
0.267804,-0.439251,0.835606,0.834810,0.453651,0.311917
0.073872,-0.347933,0.007393,-0.841641,0.373226,0.390310
0.514026,-0.060803,0.686431,-0.656324,0.563750,-0.501422
-0.749324,0.246262,0.551804,0.018020,0.867820,0.496551
-0.153896,0.059199,0.392662,0.377642,-0.095894,0.920973
-0.439730,0.144702,0.512674,-0.291138,0.614356,-0.733352
-0.020257,0.283809,0.325533,0.843776,0.080564,0.530615
-0.052448,-0.002657,0.837034,-0.389342,0.661149,-0.641323
0.138835,0.362720,0.309097,-0.394766,-0.249292,0.884315
0.145145,-0.357236,0.685055,-0.241130,-0.627560,-0.740287
0.206554,0.016946,0.615005,0.870157,0.012264,-0.492621
-0.289547,0.888693,0.568672,0.575602,0.771291,-0.271648
0.206714,0.007366,0.848755,0.544452,0.537085,-0.644292
-0.712362,-0.450325,0.646462,0.982799,-0.068394,0.171546
0.049742,0.735796,0.564547,-0.414118,0.429643,-0.802442
0.479345,-0.201794,0.272612,0.222855,-0.163965,0.960964
0.592671,-0.370361,0.791539,-0.360366,-0.009132,0.932766
-0.313093,-0.060029,0.700312,-0.344890,0.680736,-0.646258
0.211275,-0.209657,-0.505877,0.424199,0.905511,0.010238
0.462799,-0.171058,0.627761,0.079434,0.529439,-0.844621
0.753089,-0.188670,0.453611,0.804374,-0.402535,0.436977
-0.541762,0.225440,0.370596,0.915443,0.092234,0.391735
0.109774,-0.024531,0.888121,0.807643,-0.589338,-0.019834
0.299358,-0.177372,-0.767626,0.891248,-0.452883,0.023940
-0.635945,0.718242,0.383587,0.837962,0.372928,0.398427
-0.177653,-0.055432,0.816827,-0.215951,-0.976132,0.023057
0.234660,-0.486154,0.841303,0.367820,0.691801,0.621386
-0.378957,-0.759829,0.626700,-0.561725,-0.655876,-0.504273
0.254547,0.392790,0.631991,0.938052,-0.242635,-0.247362
-0.534020,0.355190,0.441982,-0.404067,0.285442,0.869053
0.290290,-0.314762,0.932922,0.529201,0.835797,-0.146250
0.047091,-0.065178,0.558693,0.535728,0.745515,-0.396487
0.129873,-0.160814,0.927108,0.778117,0.208096,-0.592646
-0.209577,-0.391404,0.225427,-0.433915,0.898940,0.060206
0.120062,-0.276829,0.898677,0.172298,-0.257696,0.950740
0.310070,0.428509,0.429671,0.160400,-0.296863,0.941352
0.148592,-0.161312,0.132053,-0.323047,0.921549,0.215379
-0.246539,0.036383,0.206045,0.139602,-0.716984,0.682968
0.599353,-0.145476,0.634335,0.314179,0.167604,-0.934452
0.193508,-0.728485,-0.991841,-0.240397,0.049083,0.969433
-0.542557,-0.299147,0.584426,0.716891,-0.661288,0.220828
-0.565413,0.051557,0.725417,0.637386,0.769001,0.048743
-0.120698,0.355910,0.339964,0.101653,-0.603284,0.791021
0.292941,-0.079244,0.337803,-0.794205,0.560576,-0.234508
0.507556,0.260274,0.371329,-0.268714,-0.586864,0.763795
-0.007053,-0.212537,0.554423,-0.392939,0.514256,-0.762325
-0.199024,0.960904,0.596370,-0.779151,0.566096,-0.269181
-0.021265,-0.512072,0.753574,0.453101,0.889164,-0.063929
-0.161743,-0.425185,0.642769,-0.326063,0.902323,0.281951
0.127804,-0.159984,-0.505536,0.451053,0.892352,0.016082
-0.500079,0.318364,0.544510,-0.394268,-0.756498,-0.521789
0.287427,0.507864,0.358966,0.354013,-0.580329,0.733412
0.325715,0.174383,0.606978,-0.609646,-0.791137,-0.049337
-0.227449,0.891462,0.567506,0.064857,-0.841338,0.536604
-0.130774,0.563353,0.359045,-0.148304,-0.042697,0.988020
0.118576,-0.446450,0.525246,-0.197716,0.489193,0.849470
0.191917,-0.453759,0.817560,-0.496165,0.752933,0.432333
-0.197857,-0.755067,0.559138,-0.460830,-0.885572,-0.058296
0.201039,0.620335,0.455510,0.019830,-0.686088,0.727248
0.052448,-0.401816,0.652839,-0.355869,0.357435,0.863480
-0.614626,0.295106,0.552826,0.004363,-0.508931,0.860796
0.122978,-0.512016,0.580707,0.970563,-0.205964,-0.124845
-0.107122,0.818253,0.529397,0.873347,-0.044370,0.485074
0.060719,-0.516170,0.818503,0.830792,0.182855,0.525689
0.197540,-0.043137,0.844865,0.792684,0.394529,-0.464756
0.119638,-0.575035,0.819878,-0.726470,-0.557562,-0.401704
0.163494,0.576365,0.443959,-0.164508,-0.398963,0.902090
0.170917,-0.336526,0.892037,-0.886348,0.436695,-0.153896
0.091744,0.172279,0.659073,0.772599,-0.625181,0.110632
0.064008,-0.741222,0.752185,-0.348171,-0.917174,0.193827
-0.446571,0.127036,0.513459,-0.194903,0.815215,-0.545378
0.244154,-0.151622,0.941854,-0.347757,-0.280361,-0.894686
0.158615,0.603888,0.535212,-0.364177,0.613369,-0.700824
0.362518,-0.004153,0.738893,0.301092,0.880120,0.367060
0.586201,-0.354081,0.792914,-0.301150,0.577097,0.759123
0.477859,-0.277938,0.669026,-0.306395,-0.302134,0.902683
-0.454155,0.080408,0.391562,0.058490,-0.990812,0.121946
0.405102,-0.338685,0.773440,0.657153,0.659741,-0.364543
0.087978,-0.672278,0.771489,0.779914,-0.364759,0.508611
0.155698,-0.855188,-0.991278,-0.240397,0.049083,0.969433
-0.094290,-0.246649,0.806992,0.041137,0.950772,0.307149
-0.487883,-0.047291,0.688958,-0.690394,0.383929,-0.613152
0.608104,-0.240226,0.444928,0.497928,0.405473,-0.766590
0.133797,-0.274116,0.675142,-0.027396,-0.484618,0.874297
0.148380,-0.186676,-0.528755,-0.712842,-0.656617,-0.246396
-0.723711,-0.400875,0.649526,0.696826,0.711323,0.091939
0.190911,0.032673,0.870560,0.672399,-0.650733,0.352741
0.068622,-0.107708,0.920914,0.908937,0.389244,0.149409
0.400753,-0.172167,0.625993,0.051622,0.489526,-0.870459
0.282441,-0.061744,0.660776,-0.342880,0.171775,0.923540
-0.178660,0.324011,0.542467,0.491572,0.760657,0.423979
0.113114,-0.094528,0.710972,-0.444556,0.126034,-0.886840
0.037970,0.421476,0.335315,-0.519015,0.274241,-0.809577
-0.403777,-0.019713,0.674579,0.837332,-0.025234,0.546111
-0.522619,-0.091205,0.387463,-0.540305,0.541313,-0.644244
0.100917,-0.178204,0.946765,0.832746,0.550734,-0.056790
0.215517,-0.323346,0.887951,-0.695647,0.315349,0.645469
-0.393701,-0.170562,0.547430,-0.314658,-0.948048,0.046846
0.571725,-0.139937,0.637936,0.668806,0.739652,0.074927
0.146471,-0.332760,0.771960,0.724445,-0.524266,-0.447576
-0.109614,-0.233082,0.848414,0.242505,-0.907265,-0.343602
-0.056583,0.109980,0.655577,-0.147483,-0.586771,0.796209
0.211063,-0.219292,-0.530916,-0.732279,-0.653322,-0.192189
-0.037863,-0.692157,0.366811,-0.202788,-0.502275,0.840593
-0.175373,-0.326115,0.178452,0.086575,0.783743,0.615022
0.235668,-0.392623,0.780407,0.922553,-0.067492,-0.379922
0.227554,-0.144479,0.875903,0.775073,0.397301,0.491339
-0.209843,-0.655831,0.717324,0.524780,0.748353,0.405677
0.115448,0.000334,0.432002,0.895376,0.234053,-0.378842
0.166304,-0.574592,0.768398,0.950149,0.072526,-0.303242
0.228243,0.195759,0.605969,0.483328,-0.833509,0.267688
0.860370,0.006147,0.671920,-0.299095,-0.677510,0.671954
-0.486186,-0.033669,0.697405,-0.125752,-0.961647,0.243764
0.213607,-0.235629,0.812846,0.896167,0.105235,0.431057
-0.074403,0.683632,0.529240,0.678661,0.595563,-0.429795
0.144349,-0.029792,0.755486,0.898084,0.408319,-0.163463
0.441375,-0.331265,0.764941,0.480555,-0.404240,0.778240
0.048894,0.526249,0.528755,-0.031797,-0.301084,0.953067
0.100811,-0.367150,0.295477,-0.270788,0.390241,0.879992
-0.259638,0.030679,0.301488,0.677648,0.397038,0.618995
0.234502,0.632241,0.449237,0.015174,-0.507471,0.861535
0.175108,-0.086387,0.660461,-0.566769,-0.182179,-0.803482
-0.884075,-0.108039,0.421382,0.442385,0.236264,0.865145
0.226440,-0.489588,0.705341,-0.384844,-0.388048,-0.837445
0.515512,-0.256174,0.434203,-0.463211,0.430905,-0.774439
-0.017818,0.161370,0.656048,-0.234067,-0.529691,0.815255
0.789575,-0.157160,0.444169,0.322169,-0.914442,0.244954
0.188312,-0.203565,-0.394103,0.855121,-0.508680,0.100062
0.923265,-0.030234,0.447456,0.170622,-0.309147,0.935583
-0.447261,0.225995,0.530798,-0.533766,0.033541,-0.844967
0.045766,-0.255564,0.698675,-0.600416,0.054464,-0.797831
0.045766,0.570107,0.658314,-0.475272,0.563666,-0.675571
-0.001325,-0.143204,0.898244,0.145959,0.686353,0.712472
-0.007637,0.064239,0.712059,0.414440,0.887799,-0.200130
-0.072599,-0.158155,0.780603,0.482936,0.176097,0.857766
0.299092,-0.291283,0.544405,0.714512,0.119149,0.689403
0.641565,-0.614741,0.338563,-0.187790,0.553535,0.811377
-0.531209,0.397941,0.446709,-0.140205,0.416793,0.898124
0.206661,0.564404,0.358128,0.420878,0.519456,-0.743658
-0.126849,-0.640380,0.681939,-0.708580,-0.503616,-0.494253
0.142494,-0.163362,0.506689,0.975854,-0.046906,0.213327
0.194198,-0.204229,-0.402799,-0.196994,-0.973155,0.119007
0.152729,-0.233856,0.991697,0.397339,0.752999,0.524513
0.024766,-0.723834,0.574041,-0.313259,0.165856,-0.935072
0.091532,0.139884,0.456152,0.787434,-0.081855,-0.610940
-0.317602,-0.351921,0.007039,-0.488301,0.794914,-0.360104
0.208040,0.104553,0.911995,0.789546,-0.438125,0.429726
0.668134,-0.104108,0.624002,-0.008352,-0.993183,0.116267
-0.435277,-0.086166,0.695297,-0.079522,0.960375,0.267127
-0.454102,-0.038764,0.751530,0.890699,0.215470,0.400286
0.264942,0.054824,0.658261,-0.512129,0.115653,-0.851087
0.381344,-0.294329,0.775116,0.545863,0.378832,-0.747342
-0.226124,0.886035,0.579371,0.285992,-0.847125,0.447870
-0.104100,-0.876343,0.362332,-0.640906,-0.049278,-0.766036
-0.144826,0.031178,0.790033,0.765243,0.564924,0.308649
0.303389,0.293056,0.318867,-0.524239,-0.436792,0.731017
-0.305616,-0.118673,0.694327,-0.267398,0.599449,-0.754427
0.232804,-0.353305,0.834572,0.927179,0.341518,0.153964
0.394442,0.065346,0.723138,0.392790,0.853826,0.341609
0.035637,-0.033336,0.857987,-0.368876,0.575430,0.729939
-0.441109,-0.127643,-0.067988,-0.383155,-0.721642,-0.576563
-0.435382,-0.159873,0.358691,-0.582178,0.107633,-0.805906
0.002015,0.332984,0.459425,-0.304737,-0.416150,0.856711
0.225169,0.099679,0.867587,0.865926,0.005133,-0.500146
0.185183,-0.141820,0.628782,-0.870305,0.487550,0.069751
0.194039,-0.002879,0.842403,-0.608836,0.783502,-0.124270
-0.248819,0.000886,0.804346,-0.760303,0.649407,0.014467
-0.120221,0.508973,0.539546,-0.054164,0.712419,0.699661
0.618232,-0.186067,0.638277,0.892741,-0.281016,-0.352197
-0.198600,-0.271514,0.757240,-0.756545,0.294786,-0.583731
0.133425,0.095415,0.505811,0.113413,0.124963,0.985658
0.112849,-0.284417,0.668109,0.895126,0.146058,0.421208
0.659013,-0.132461,0.461246,-0.061491,0.036017,0.997458
0.066500,-0.689666,0.815452,0.919035,-0.303793,-0.251168
0.311237,-0.163362,-0.790897,-0.705529,0.669906,0.231204
-0.007584,0.565512,0.518737,0.785413,0.153625,-0.599605
-0.092221,-0.097962,0.631729,0.601653,0.782774,0.158993
-0.380920,-0.008473,0.695794,-0.388622,0.621723,0.680025
-0.157077,0.127810,0.474787,0.100301,-0.099445,0.989975
-0.194941,-0.394174,0.516354,0.760232,-0.637890,-0.123057
0.128547,-0.223225,0.510382,-0.224221,-0.827869,0.514157
0.095031,0.332928,0.698675,0.623952,0.248949,-0.740749
0.064379,-0.217521,0.894237,0.148841,0.938356,0.311983
0.128335,-0.098514,0.506270,0.995515,-0.030206,-0.089656
0.031446,0.172113,0.440515,0.854648,0.460556,-0.239717
-0.562974,0.016005,0.347638,-0.619668,0.109248,-0.777223
-0.321261,-0.196643,0.560932,0.471356,0.865068,-0.171701
-0.294003,-0.280817,0.448477,-0.134613,0.990313,-0.034040
0.628520,-0.347933,0.805735,-0.631032,-0.653406,0.418162
0.169485,-0.142540,-0.063260,0.990010,0.086396,-0.111430
-0.995016,-0.198637,0.426515,0.594131,-0.123990,0.794755
0.078645,0.066287,0.708157,0.331211,0.872153,0.360067
0.257889,0.242830,0.583326,0.122773,-0.694848,0.708599
0.168055,-0.168512,0.573557,0.752626,0.657214,-0.040300
0.180304,-0.756949,-0.991566,-0.240397,0.049083,0.969433
-0.410194,0.249974,0.527708,-0.704369,-0.061356,-0.707178
0.075833,-0.282644,0.683864,0.902772,-0.308527,0.299688
0.210851,0.039982,0.279016,-0.473259,0.335787,-0.814415
0.107282,-0.089046,0.881770,0.298944,0.266216,-0.916385
0.042689,-0.031730,0.808878,-0.336373,-0.338336,0.878852
0.058281,-0.190275,0.719891,-0.135623,0.586606,0.798436
0.236782,-0.003156,0.842312,-0.137473,-0.930054,0.340736
0.219229,-0.204064,-0.580537,0.820889,0.563969,-0.089885
0.129873,0.295437,0.305430,-0.475816,0.163579,0.864200
-0.862068,-0.159541,0.421945,0.057084,0.098536,0.993495
0.205918,-0.148244,0.753312,0.637770,0.480315,0.602119
-0.241555,0.157216,0.488040,-0.459925,0.051175,-0.886482
-0.223419,0.924965,0.594707,-0.612208,0.724161,-0.317478
0.112054,-0.554933,0.822052,0.638743,0.618549,0.457607
0.164077,-0.034943,0.845350,0.953690,-0.151800,-0.259675
-0.043167,-0.371414,0.686326,0.540406,-0.158866,0.826270
0.006310,-0.293942,0.636142,-0.438997,0.817690,-0.372376
-0.492337,-0.601561,0.613526,0.837176,0.545913,0.033404
0.213767,-0.466606,0.532592,-0.677980,0.203733,-0.706283
-0.498542,-0.713977,0.641341,-0.180922,-0.518646,-0.835628
-0.268706,0.073929,0.491746,0.680575,0.163013,0.714314
-0.029697,0.099791,0.725941,0.374721,0.868819,-0.323632
-0.052076,0.596081,0.508483,-0.008669,-0.714973,0.699098
0.137668,-0.131962,0.514101,0.957181,0.215841,-0.192919
0.144085,-0.535108,-0.980356,-0.228668,-0.023889,0.973211
-0.494140,-0.241887,0.579908,-0.324677,-0.098864,-0.940644
-0.410564,0.318198,0.529698,0.885391,0.071965,0.459243
-0.601263,-0.428342,0.644995,0.631000,-0.755605,-0.175782
0.196214,-0.198027,-0.048527,0.772168,-0.626533,-0.105893
0.210744,-0.521762,0.416104,0.828228,0.506188,0.240441
0.379754,-0.258222,0.869054,-0.344697,0.936333,0.066813
0.135705,-0.507254,0.583208,0.981022,-0.164070,-0.103329
0.379647,-0.444400,-0.984062,0.336503,0.038562,-0.940892
-0.325873,-0.088048,0.702237,-0.409322,0.622084,-0.667433
0.514238,-0.086110,0.449027,-0.118051,0.471092,0.874149
-0.215146,-0.336747,0.186323,-0.099827,0.796726,0.596039
0.371692,-0.317476,0.647588,-0.246988,-0.604256,0.757543
-0.056212,-0.526193,0.697942,0.112628,0.770372,0.627568
-0.063107,-0.402147,0.637517,0.401983,-0.701442,-0.588549
-0.418625,0.126205,0.512883,0.172306,-0.472251,0.864459
0.467783,-0.354855,0.778102,0.154261,0.979193,-0.131854
-0.674497,-0.333702,0.609859,0.027438,0.371845,0.927889
-0.576339,-0.011961,0.735462,-0.742794,-0.380749,-0.550715
-0.265366,-0.686565,0.650744,-0.367800,-0.463722,0.806030
0.301214,0.378780,0.419601,-0.373009,0.623429,-0.687168
0.035478,-0.614021,0.711994,0.285325,0.423391,0.859843
0.168425,0.577584,0.663434,0.644920,0.612027,0.457714
0.431511,-0.240447,0.881704,-0.154649,-0.891794,-0.425192
-0.019887,-0.239560,0.646147,0.976575,0.040127,0.211405
0.054303,-0.474139,0.827893,0.698909,0.331937,0.633517
0.505064,-0.081515,0.442676,0.267755,0.296895,0.916603
0.267699,-0.194206,-0.777592,-0.708752,0.702715,0.062141
0.133001,-0.177981,0.679359,-0.088372,0.815427,-0.572074
-0.172296,-0.446062,0.649277,-0.195776,0.752274,0.629091
-0.729808,-0.378226,0.632947,0.774092,0.575242,0.264345
-0.062841,-0.132960,0.438014,0.635378,0.517965,0.572719
0.411465,-0.386476,-0.966186,-0.646098,-0.170730,0.743915
-0.009969,0.725053,0.569248,0.333365,-0.524451,0.783466
0.141698,-0.300088,0.332905,0.883816,-0.121845,0.451689
-0.361935,0.285803,0.608051,0.737920,0.305262,-0.601904
-0.143289,0.449109,0.474944,-0.757947,-0.589572,0.279144
0.326828,0.178204,0.589992,-0.081862,0.996509,0.016360
-0.266267,0.060140,0.216469,-0.315383,-0.911300,-0.264701
-0.072493,-0.476797,0.721122,0.570208,0.608485,0.551914
-0.530943,-0.438641,0.634571,0.763779,0.054815,0.643146
-0.540807,-0.220068,0.171446,0.431084,0.134630,0.892212
0.120114,-0.183076,0.938344,0.616265,0.654986,0.437276
0.259745,-0.103943,0.871031,-0.062637,-0.272891,0.960004
0.559049,-0.369088,0.780892,-0.063539,-0.838369,0.541387
0.229358,0.229152,0.665241,-0.574236,-0.052342,-0.817015
0.405049,-0.401926,-0.977946,0.640209,0.227238,-0.733822
0.184070,0.552554,0.651949,0.942247,0.325215,-0.080042
-0.207828,0.669400,0.500154,0.807942,0.421112,-0.412182
-0.305246,0.656442,0.493278,0.170751,-0.397982,0.901363
0.221775,0.282923,0.643018,-0.213503,-0.373787,0.902607
0.121069,-0.064514,0.964012,0.805521,-0.444690,0.391647
-0.203372,-0.527189,0.661064,-0.198014,0.613100,0.764787
0.496844,-0.338077,0.783694,-0.397398,0.851458,0.342189
-0.157767,0.883819,0.544628,0.924915,-0.182074,0.333738
-0.175373,-0.525695,0.572090,-0.521818,-0.332568,-0.785560
-0.164130,0.182081,0.716551,-0.604355,-0.753080,0.260049
0.166622,-0.228264,0.224602,0.989046,-0.095309,-0.112716
0.243888,-0.378669,0.816840,0.939078,0.017239,0.343273
-0.579255,0.030679,0.351829,-0.680620,0.215755,-0.700147
-0.596437,-0.133901,0.180325,-0.446844,-0.253135,-0.858052
-0.172721,0.643483,0.489166,0.753211,0.476629,-0.453320
-0.418306,-0.261601,0.312633,-0.695532,0.295536,-0.654900
0.270669,-0.271347,0.547980,0.751219,0.579160,0.316613
0.412949,-0.116678,-0.948978,-0.591442,0.526373,-0.610842
-0.058176,0.854858,0.589796,0.373449,-0.645080,0.666640
0.218221,-0.567892,0.713199,0.079920,0.498161,0.863394
-0.058970,-0.207165,0.805813,-0.583684,0.692905,-0.423314
0.174789,-0.071823,0.885568,0.423969,0.174240,0.888758
-0.599088,0.332374,0.567048,-0.383614,0.272795,-0.882283
0.153099,-0.506811,0.707083,0.059101,0.620276,0.782154
0.090100,0.301751,0.693450,-0.586164,-0.580180,0.565511
0.020946,-0.060416,0.274864,-0.108160,-0.518422,0.848257
-0.396140,-0.156219,0.720690,-0.521359,-0.234736,-0.820417
0.182426,0.064348,0.382107,0.054176,-0.175691,0.982954
0.807498,-0.123491,0.634400,-0.185498,-0.670473,0.718370
0.037015,0.823957,0.596330,0.838475,-0.412922,0.355604
-0.178236,0.000166,0.550534,0.646317,0.559546,-0.518828
-0.136129,0.150571,0.699605,0.590049,0.796667,0.131008
0.684361,-0.075810,0.641734,0.032408,-0.134882,0.990332
0.063000,-0.287518,0.660304,0.210717,-0.596000,-0.774844
-0.172721,0.885038,0.547928,0.924036,-0.171612,0.341623
0.053243,-0.011628,0.473451,0.549594,0.546805,-0.631626
0.034894,-0.113300,0.877605,0.250180,0.261709,0.932158
-0.238056,-0.557591,0.694223,0.134968,-0.858238,-0.495187
0.210691,0.147083,0.894564,0.977752,-0.044894,0.204905
0.355730,-0.574315,0.314833,0.263322,0.583024,0.768599
-0.513549,-0.220510,0.582043,0.478880,0.147449,0.865409
-0.360874,-0.110476,0.699592,-0.363445,-0.926837,-0.094236
-0.353980,-0.158211,0.685239,0.519855,-0.777647,0.353575
0.013364,-0.478458,0.784126,-0.341423,-0.600191,0.723326
-0.566792,-0.322516,0.570269,0.464331,-0.516423,0.719517
-0.305085,0.052885,0.642559,-0.628086,-0.529103,0.570577
-0.089357,0.712427,0.351960,0.852653,-0.114037,-0.509881
0.077478,-0.220124,0.905486,-0.102396,-0.924580,0.366969
-0.039666,0.887253,0.596056,0.200619,-0.952252,0.230149
0.240812,-0.205282,-0.760292,0.755858,-0.652794,0.050382
0.171819,-0.149462,-0.984756,-0.102691,-0.100184,0.989655
0.271358,-0.090264,-0.917928,0.466221,0.883553,-0.044417
0.080023,-0.167405,0.717088,0.355589,0.231712,0.905465
-0.039666,-0.057370,0.813893,0.190792,-0.436650,0.879168
0.253699,-0.627311,0.721855,-0.311919,0.342167,0.886357
0.138463,-0.219625,-0.377327,0.170746,0.984559,0.038592
0.229358,-0.291339,0.858577,0.780402,-0.107844,-0.615908
-0.524103,-0.527356,0.625456,0.821319,0.488814,-0.294101
0.026357,-0.598127,0.715975,0.355179,0.561612,0.747289
0.313517,0.038321,0.341234,-0.422662,0.640533,-0.641151
-0.215836,-0.661701,0.579502,0.915088,-0.111768,0.387456
-0.040621,-0.344058,0.703023,0.940877,-0.285669,0.182053
0.186138,0.469211,0.512674,0.286069,-0.637752,0.715148
-0.263244,-0.272509,0.770218,0.782326,-0.048134,0.621007
0.182267,-0.221508,0.894866,0.134634,0.857708,0.496197
-0.440844,0.235132,0.387018,0.503760,0.863267,-0.031567
-0.068622,-0.576088,0.732293,0.456991,0.686005,0.566177
0.535876,-0.461292,0.750627,0.732472,0.611929,-0.298375
-0.305404,0.679424,0.486717,0.170751,-0.397982,0.901363
-0.675028,-0.416658,0.632528,0.449199,0.814602,0.366938
-0.081668,0.921088,0.538996,-0.358025,0.514845,0.778944
0.116880,-0.008417,0.882621,0.796600,-0.493836,0.348645
0.160895,-0.203621,0.654018,0.843528,-0.536901,0.014065
0.071431,-0.373960,0.804438,-0.550253,0.785492,-0.283239
0.255874,-0.314264,0.650286,-0.169372,-0.950044,0.262163
0.103145,-0.140602,-0.000268,-0.471793,-0.848206,-0.240745
0.219229,-0.145918,-0.472273,-0.632013,0.751709,0.188398
0.066342,0.208939,-0.072846,0.544414,0.225623,0.807904
0.658642,-0.012625,0.447862,-0.138321,0.235415,0.962002
-0.016652,0.633737,0.529947,-0.625976,-0.620138,0.472847
0.082728,-0.229704,0.164767,-0.030853,0.986105,0.163235
-0.060932,-0.448941,0.541432,0.807419,-0.069607,0.585858
0.096994,-0.111364,0.452236,0.928639,-0.044311,0.368329
0.317124,-0.135231,0.859022,0.028686,-0.938206,0.344885
0.633452,-0.191936,0.451987,0.338944,0.340210,-0.877140
-0.426845,-0.229094,0.559950,0.233736,0.706487,0.668015
0.104364,0.466774,0.660815,0.713981,0.339527,0.612334
0.394283,-0.222339,0.777382,0.193338,0.393155,-0.898916
-0.239858,0.912339,0.577839,-0.418983,0.854110,-0.308139
0.629686,-0.415050,0.816840,-0.423133,0.101829,0.900328
-0.347723,0.470208,0.369207,0.294426,-0.059489,0.953821
-0.448481,-0.049340,0.699998,-0.635453,-0.771030,0.041373
0.015273,0.536328,0.667088,0.687928,0.237674,-0.685760
0.022856,-0.551056,0.772681,0.258846,0.569025,0.780519
0.518959,-0.247313,0.423516,-0.498281,0.467200,-0.730370
-0.114705,-0.066730,0.809585,0.123893,0.981682,-0.144746
-0.258313,0.896168,0.565895,0.645456,0.734450,-0.209690
0.319510,-0.404862,0.627250,0.167341,0.207742,0.963764
0.492018,-0.348709,0.761641,-0.707753,-0.646964,0.283767
-0.611815,-0.433603,0.563853,0.637118,0.200213,0.744308
0.119319,0.047072,0.894316,0.947425,0.162961,-0.275371
-0.005727,-0.463395,0.680930,-0.243668,-0.969660,0.019627
0.666702,-0.220124,0.460761,-0.386831,-0.186394,0.903116
0.099008,0.128698,0.927854,-0.710315,-0.702317,0.046936
0.333298,-0.197530,0.810580,-0.067383,0.917864,0.391133
0.162115,0.341733,0.687072,0.822606,0.439716,0.360512
-0.374981,0.288627,0.514808,-0.602385,-0.142078,-0.785459
0.297767,-0.633402,0.733052,0.251497,-0.814543,-0.522751
0.360927,-0.298925,0.765543,0.599127,0.544296,-0.587187
0.117358,0.231255,0.492532,0.493863,0.168535,-0.853050
0.302169,-0.301805,0.543790,-0.633662,0.225007,-0.740165
-0.404518,0.285803,0.517296,0.747329,0.016206,0.664257
0.195630,-0.053659,0.216365,0.564175,-0.187102,-0.804176
0.246804,0.209049,0.901204,0.596957,-0.703352,0.385925
0.124940,-0.494959,0.160563,0.972466,-0.223538,0.065879
0.179561,-0.258832,-0.988999,-0.198245,-0.059141,0.978367
0.190433,-0.189665,0.432382,-0.716639,0.666703,-0.204782
0.252585,0.608208,0.380077,-0.128801,-0.766136,0.629640
0.041045,-0.665743,0.571369,0.494966,-0.115429,0.861211
0.385109,0.316758,0.396604,-0.609403,0.206489,-0.765500
0.418253,-0.315927,0.502027,0.770644,-0.418610,0.480493
0.453412,0.245543,0.344718,-0.014763,-0.525541,0.850640
0.262554,-0.292225,0.540005,0.849310,0.428429,0.308417
-0.699157,0.448722,0.587360,-0.790234,0.360237,-0.495742
0.163017,-0.021984,0.845153,-0.075546,0.906666,-0.415030
0.093281,-0.410677,0.665006,-0.379835,-0.398067,0.835026
-0.695073,-0.426791,0.630865,0.731013,0.510031,0.453309
0.243199,-0.006866,-0.347062,-0.567482,0.254965,-0.782916
0.219441,-0.198304,0.758917,-0.502605,-0.804180,-0.317307
-0.172350,-0.506257,0.746999,0.784503,0.609749,-0.112967
0.210585,-0.305405,0.882516,0.780337,-0.352449,0.516578
0.388397,-0.289289,0.513878,0.782991,-0.137647,0.606612
0.740627,-0.147191,0.465162,-0.270874,0.036340,0.961929
-0.226389,-0.291172,0.576778,-0.304078,0.548151,-0.779145
0.121811,-0.241831,0.873637,-0.100006,0.726676,-0.679662
-0.432996,0.124987,0.510827,0.172306,-0.472251,0.864459
0.120803,0.021543,0.743660,0.799229,0.567207,0.198766
-0.310177,0.184352,0.575023,-0.229496,-0.210345,0.950309
-0.008856,-0.101007,0.887322,0.619812,-0.673864,-0.402169
0.005038,-0.530788,0.704254,0.218336,0.684930,0.695126
0.082835,0.609482,0.666708,0.313193,0.891857,-0.326345
-0.374131,0.316148,0.597797,0.963722,0.040543,0.263812
0.171078,-0.523202,0.420269,0.950601,0.224910,-0.213948
-0.219388,0.634790,0.369404,0.534461,-0.470891,0.701863
-0.259321,-0.250137,0.786025,0.689445,-0.339108,0.640056
0.616375,-0.326780,0.795258,-0.723242,0.607910,0.327668
0.125258,0.430835,0.509177,-0.483113,0.682147,-0.548887
0.029644,-0.153505,0.648295,0.731029,0.617073,0.291235
0.197964,-0.267914,0.993950,-0.532664,-0.714735,-0.453236
0.185289,0.211430,0.589101,0.064062,-0.131925,0.989188
-0.677786,-0.311551,0.331989,-0.214158,-0.965572,0.147673
0.182372,-0.207829,0.891120,0.434896,-0.844330,0.313005
0.761045,-0.273451,0.445924,-0.653146,0.445136,-0.612580
0.030757,-0.113025,0.878483,0.250180,0.261709,0.932158
0.328153,-0.045630,0.760384,-0.070636,0.767757,0.636836
-0.591982,0.190442,0.511037,0.691666,0.673875,0.259791
-0.537202,-0.505870,0.617323,0.143508,0.116098,-0.982816
0.174895,-0.206279,-0.150885,0.219033,0.971963,-0.085511
0.044492,0.385204,0.687871,0.565165,0.435022,0.700960
-0.458981,0.290067,0.535317,0.619774,-0.001685,0.784778
-0.168903,-0.374848,0.189741,-0.513394,0.792292,0.329696
-0.043698,0.117013,0.736248,-0.519009,-0.848307,0.104908
0.715544,-0.135618,0.631153,0.014567,-0.689480,0.724159
0.321261,-0.125982,0.443396,0.327788,0.486854,-0.809647
0.601634,-0.333923,0.792914,-0.528869,0.607726,0.592425
0.200827,0.375071,0.331033,0.507703,0.438507,-0.741586
0.414489,-0.022371,0.702801,0.235813,-0.697898,0.676262
0.431140,0.096301,0.344194,0.545600,-0.537672,0.642829
0.380283,0.015728,0.722248,-0.417501,-0.718082,-0.556822
0.226282,-0.199800,-0.988999,-0.256296,-0.166336,0.952179
-0.201623,-0.418594,0.634990,-0.550109,-0.584102,-0.596829
0.041045,-0.189555,0.904125,0.753977,0.576461,-0.314978
0.149599,-0.200631,-0.484583,-0.730842,0.577295,0.364143
-0.204751,-0.045519,0.646213,0.403130,0.785649,0.469300
-0.402079,0.020103,0.722981,-0.608801,0.351407,-0.711248
-0.092273,-0.136671,0.150859,0.169302,-0.826220,0.537306
-0.763430,-0.339960,0.658497,0.923374,0.309979,0.226481
0.229145,0.108817,0.786340,0.812239,0.485598,0.323208
-0.446678,-0.444843,0.224942,0.885985,0.153587,0.437541
-0.445192,0.658213,0.418527,0.476373,-0.111495,0.872146
0.016227,-0.255620,0.880107,0.428443,0.511301,-0.744988
-0.194570,0.391462,0.344993,0.444082,0.546716,-0.709854
0.287320,-0.454202,-0.979937,-0.223459,0.010071,0.974661
0.019197,-0.238619,0.871646,-0.044364,0.985671,0.162743
0.048894,-0.237789,0.606035,0.198919,0.816125,-0.542560
0.362359,0.052997,0.712020,0.495132,-0.379925,0.781346
0.084425,0.044192,0.745231,0.571038,0.820280,0.032503
0.573844,-0.049064,-0.964130,0.292985,0.566625,-0.770127
0.292039,-0.466828,0.893347,0.904223,0.422841,0.059892
0.044440,0.082069,0.310223,0.432641,0.176685,0.884084
0.114759,0.393067,0.703364,0.249328,-0.446358,0.859418
0.192130,-0.180308,0.834546,0.624246,-0.755857,-0.197479
0.619240,-0.383929,0.803063,-0.039776,0.995977,0.080293
-0.094341,0.542198,0.523779,0.250462,0.810904,0.528869
-0.425147,0.245100,0.529214,-0.656622,0.103076,-0.747143
-0.610967,0.436594,0.432985,-0.079304,0.399049,0.913494
0.087978,0.424078,0.620492,0.923847,0.356791,-0.138591
0.042689,-0.812049,0.207145,0.184057,0.627919,0.756201
0.534337,-0.246207,0.267125,-0.397378,0.402613,-0.824617
-0.516041,-0.301416,0.592284,-0.261619,0.920785,0.289327
0.025560,-0.699080,0.737898,0.374519,0.785691,0.492367
-0.509200,0.349708,0.530340,0.058604,0.597698,0.799577
-0.627353,0.212814,0.515686,0.274627,0.522777,-0.807022
0.376677,0.614410,0.367741,-0.471208,0.739561,-0.480637
-0.487406,-0.146471,0.350755,0.313962,0.029339,0.948982
0.171183,-0.132074,-0.123488,-0.639086,0.757895,-0.131015
0.257039,-0.572489,-0.981849,-0.105562,-0.145257,0.983746
-0.375776,-0.079134,0.325703,0.961663,0.208828,-0.177750
-0.561861,-0.257835,0.364598,0.715259,-0.151065,0.682337
-0.447950,0.196978,0.527446,0.600614,-0.277168,0.749960
0.051174,-0.331376,0.676556,0.942553,-0.266027,-0.202048
0.314896,0.563020,0.381046,-0.416861,0.738576,-0.529841
-0.388980,-0.039926,0.703468,0.021369,-0.467056,0.883970
-0.431988,0.635785,0.403977,0.726472,0.013683,0.687060
-0.457497,-0.069885,0.725417,0.937391,0.208984,-0.278609
0.168532,-0.241444,0.644655,-0.717509,-0.637130,0.281505
0.214827,-0.129803,-0.550469,-0.807299,-0.581331,-0.101604
-0.230896,-0.644699,0.590765,-0.628492,0.096394,-0.771819
0.196214,0.578360,0.660069,0.738623,0.671158,-0.063110
0.318874,-0.017942,0.740386,0.324264,-0.938109,0.121676
-0.529618,-0.366043,0.614246,-0.027523,0.495675,0.868072
0.081402,0.437149,0.720676,0.234376,-0.887198,0.397427
-0.054251,0.172500,0.552577,0.670510,0.653725,0.350798
0.107333,-0.136338,0.806193,-0.449464,-0.210051,0.868252
0.554913,-0.283143,0.242255,-0.664990,0.539265,-0.516702
-0.338653,-0.023037,0.701910,0.807726,-0.199999,-0.554598
-0.247759,-0.275002,0.579948,-0.149729,0.159908,-0.975710
-0.016758,-0.129139,0.922302,0.525923,-0.847236,-0.074809
-0.552103,-0.112415,0.371395,0.879146,-0.009676,0.476454
-0.519542,-0.013733,0.707384,0.065600,-0.750005,0.658171
-0.185237,0.359952,0.538551,0.467082,0.149710,0.871448
0.359336,-0.508638,0.697955,-0.458972,0.444561,0.769227
-0.385481,0.462566,0.374917,0.281960,-0.108155,0.953311
0.506284,0.208939,0.360341,0.125198,-0.819499,0.559238
0.262608,0.509471,0.642978,0.323730,0.891430,0.317100
-0.481306,-0.704895,0.640333,-0.180922,-0.518646,-0.835628
-0.008008,-0.520213,0.679647,-0.397383,-0.915874,-0.057111
0.580422,-0.248588,-0.962480,0.476779,0.100774,-0.873228
-0.526860,-0.048011,0.357028,0.756072,0.410686,0.509600
0.467519,-0.081681,0.779530,-0.437927,0.814885,0.379712
0.188631,-0.157603,0.155678,0.818171,-0.573698,0.038306
-0.476056,-0.346605,0.349367,0.857746,-0.094935,0.505232
0.225751,0.046352,0.883603,-0.604241,0.500814,-0.619740
0.326616,0.621775,0.383338,-0.107647,0.886436,-0.450160
-0.801347,-0.178868,0.211585,0.215474,0.902585,0.372708
0.181683,-0.016280,0.619445,0.980237,0.117063,-0.159471
-0.205070,0.451158,0.343762,-0.038266,-0.544161,0.838108
0.541126,-0.087051,0.632580,-0.082610,-0.534045,0.841410
0.511215,-0.356740,-0.967535,-0.215948,0.154036,0.964178
-1.000000,-0.157659,0.441013,-0.413813,0.087726,-0.906125
-0.208941,0.073873,0.485198,-0.619737,0.228544,-0.750795
0.155062,-0.351034,0.630354,0.063388,0.588793,0.805795
0.148380,0.184851,0.650417,-0.304497,-0.010949,-0.952450
-0.038872,-0.136836,0.657358,-0.247442,-0.951742,-0.181547
-0.084372,-0.149241,0.309660,-0.297348,-0.696634,-0.652905
0.282282,0.496622,0.653206,0.631904,0.715069,0.298955
0.360874,-0.557258,0.709388,-0.313467,0.689960,0.652452
0.172562,0.082347,0.655996,-0.521417,0.247503,-0.816619
0.230896,-0.179588,-0.799580,-0.349935,-0.886484,-0.302806
0.512277,-0.312437,0.772746,-0.418717,0.741925,0.523663
-0.455534,0.273674,0.527865,0.652538,0.077788,0.753752
0.190222,-0.176319,-0.144795,0.159912,0.985136,-0.062732
0.157131,-0.239616,0.188143,0.903919,-0.420476,-0.078298
-0.228457,0.330547,0.548687,-0.666050,-0.457661,-0.589002
-0.054940,-0.477904,0.725784,-0.458826,-0.878748,-0.131454
-0.583338,-0.337578,0.598085,0.937898,0.308480,0.158707
-0.618444,0.441634,0.574447,0.889403,-0.282177,0.359637
0.232857,0.103999,0.773492,0.805719,0.476585,0.351688
0.483959,-0.481448,0.741015,-0.013623,-0.427295,0.904010
-0.309699,-0.683075,0.595361,0.805440,-0.162448,0.569980
0.122713,-0.196920,-0.215854,0.066402,0.989541,0.128060
0.333616,-0.416213,-0.979387,-0.110417,-0.110939,0.987674
0.214244,-0.423634,0.758196,0.919861,0.068144,-0.386280
-0.226918,0.299314,0.475900,0.230123,0.801344,0.552170
0.275760,0.378615,0.466484,-0.707328,-0.022012,-0.706543
-0.574853,0.268634,0.375637,-0.826850,-0.108315,-0.551893
-0.431511,-0.374182,0.308586,0.667555,-0.591309,0.452465
0.113592,0.095360,0.946241,0.991535,-0.039683,0.123628
-0.126002,-0.576254,0.307879,-0.107464,0.592746,0.798188
0.057009,0.473973,0.757267,0.049113,-0.824724,0.563398
-0.001910,-0.232749,0.848375,0.257672,-0.100179,0.961025
0.192395,-0.184183,-0.156110,0.229990,0.968847,-0.091869
-0.019516,0.078360,0.747903,-0.588525,-0.782533,0.203178
0.257465,-0.203954,0.877173,0.235496,0.807896,0.540227
0.234236,-0.488093,0.509072,-0.698315,0.704977,-0.123955
0.594581,-0.071215,0.635789,0.233227,0.160469,-0.959090
-0.301109,0.082181,0.047047,-0.668172,0.206370,-0.714813
-0.426314,-0.050337,0.738081,0.956613,0.183027,0.226698
0.083259,-0.220566,0.672457,-0.525551,0.850642,0.014298
0.216047,-0.210487,-0.662177,0.580046,-0.808242,0.101444
0.580846,-0.055321,0.447285,0.236519,-0.336105,-0.911643
0.726945,-0.091482,0.456950,-0.278464,0.239393,0.930134
0.287108,-0.677150,0.405837,0.998208,-0.046965,0.037075
-0.389723,-0.218849,0.698976,-0.274398,0.921062,-0.276316
-0.472504,-0.372466,0.349131,0.866103,-0.038497,0.498381
0.213024,-0.377394,0.815989,0.958862,-0.280060,0.046367
-0.428329,-0.599567,0.696737,0.638217,0.424195,0.642446
0.380972,-0.253793,0.527996,-0.664261,-0.080676,-0.743134
0.134750,-0.000719,0.898703,0.907195,-0.368769,0.202504
-0.015485,-0.301805,-0.055560,-0.554988,0.810823,-0.185885
0.060137,0.397221,0.719537,-0.228427,0.734213,-0.639338
0.091584,0.067284,0.929989,0.795544,0.605885,-0.003498
-0.611498,0.331267,0.557972,0.450316,0.564872,-0.691474
0.165667,0.273730,0.640150,0.829897,0.328583,0.450892
0.194623,-0.521485,0.713552,0.864320,-0.069719,-0.498087
0.850294,0.074318,0.663277,-0.893721,0.205156,0.398966
0.289230,-0.316479,0.874305,-0.234199,0.010929,0.972127
0.263297,0.460572,0.650522,-0.481976,0.876131,-0.009698
0.153577,-0.073319,0.949672,0.141935,-0.909919,0.389746
0.092804,-0.614299,0.840963,0.734075,0.366317,0.571792
-0.565042,0.056154,0.721973,0.562927,0.822916,-0.076960
0.262025,-0.292446,0.911877,0.126475,0.809248,0.573692
0.406215,-0.133237,0.784257,0.392653,-0.886630,-0.244357
0.166145,0.442519,0.705197,0.748011,0.436961,-0.499545
0.297662,-0.298758,0.547875,0.760835,0.105106,0.640378
-0.099857,0.724058,0.353427,0.852653,-0.114037,-0.509881
-0.279207,0.028132,0.302981,0.617324,0.439656,0.652391
-0.120539,-0.033282,0.833839,0.940085,-0.164300,0.298741
-0.469003,-0.315039,0.636574,0.645142,-0.757132,0.102682
0.559634,-0.153449,0.449852,-0.214192,-0.254591,0.943030
0.064539,-0.274171,0.699906,0.367605,0.675619,-0.639067
-0.551202,-0.279100,0.585002,-0.434416,-0.499677,-0.749404
0.089357,-0.242938,0.883970,0.884975,0.443513,-0.141831
0.093598,-0.288902,0.876086,0.761814,-0.528358,0.374803
0.193296,-0.144644,0.168054,0.708774,-0.705427,-0.003438
0.006522,-0.197086,0.864981,0.743381,-0.020584,0.668552
-0.094501,-0.465665,0.643829,0.211951,0.670664,0.710835
0.816992,-0.110033,0.464205,0.142890,0.688977,-0.710559
-0.509785,0.036438,0.340449,0.066019,-0.071060,0.995285
-0.518799,-0.058864,0.361180,0.948124,0.011057,0.317707
0.510155,-0.199744,0.853221,0.002929,0.981277,0.192577
-0.518959,0.056596,0.731127,-0.731533,-0.652097,-0.199067
-0.084372,0.030625,0.847484,-0.382835,0.729936,-0.566242
0.141432,-0.172610,0.952239,0.440496,-0.149476,0.885223
0.196797,-0.556816,0.657515,0.113682,0.826283,0.551664
-0.109986,0.774670,0.564324,0.655163,0.505873,-0.561119
-0.075887,-0.358233,0.706297,-0.051458,0.052907,0.997273
-0.108130,-0.225107,0.777447,0.110774,0.986350,0.121831
-0.511693,0.108318,0.529240,0.051433,0.086015,0.994965
0.106168,-0.021597,0.893006,0.876123,-0.460886,0.141397
0.111523,-0.393620,0.858655,0.214492,0.854719,0.472704
0.995334,-0.075090,0.470216,-0.370410,-0.173562,0.912509
-0.151031,-0.176044,0.783236,-0.251306,-0.270640,0.929300
-0.302700,-0.018771,0.705957,-0.460092,-0.401792,-0.791756
0.216365,-0.256340,-0.989563,0.275631,0.101692,-0.955869
0.175585,-0.370195,0.713159,0.992397,0.065312,-0.104322
0.228986,0.134013,0.884101,0.908683,-0.198658,0.367192
0.328260,0.021376,0.290475,-0.170911,-0.569838,0.803788
0.212971,-0.202845,-0.480392,-0.502246,0.864141,0.031758
-0.289919,0.665689,0.486979,0.170751,-0.397982,0.901363
-0.204486,-0.087771,0.363144,0.831732,0.545851,-0.101334
-0.137880,-0.388524,0.700915,-0.577651,-0.663326,-0.475729
-0.424511,0.247758,0.518488,0.767516,0.071256,0.637057
0.115341,-0.363273,0.506401,0.734496,0.079633,0.673924
0.089993,-0.104218,0.547365,0.685507,0.430244,0.587342
0.223790,-0.027799,0.777945,0.955729,-0.260644,0.136556
0.069258,-0.064679,0.883747,0.033745,-0.501632,0.864423
0.006417,-0.294883,0.379488,-0.168037,0.936783,0.306921
0.006682,0.298096,0.458548,0.261746,0.066734,-0.962827
-0.388185,0.228930,0.513119,0.610393,0.067687,0.789202
0.176009,0.307178,0.474669,-0.288522,0.881036,0.374874
-0.011455,-0.623602,0.785488,0.250742,0.805070,0.537579
0.234767,0.306292,0.320910,0.226135,0.481571,-0.846730
-0.491594,0.060029,0.354959,-0.409065,0.902019,-0.137944
0.023068,-0.098682,0.817783,0.873860,-0.189440,-0.447750
0.112797,-0.206114,0.546972,-0.314463,-0.221826,0.922988
-0.176274,-0.053051,0.624500,-0.626155,0.205286,0.752188
0.109826,0.341844,0.495845,0.608168,-0.434098,0.664598
-0.478814,-0.151510,0.354920,0.552669,0.125769,0.823856
0.138782,-0.121219,0.701137,-0.641415,0.398567,-0.655539
-0.509254,-0.053605,0.702120,0.958413,-0.227244,0.172640
-0.019621,-0.041366,0.826073,-0.456364,0.549687,-0.699697
-0.083417,0.691716,0.528192,0.504366,0.737451,-0.449200
0.183432,-0.235186,0.855460,0.927636,0.318250,-0.195471
-0.769211,0.295826,0.429737,0.452619,-0.330795,-0.828077
0.149016,-0.452319,0.564887,0.973434,0.079301,0.214796
0.267541,-0.174604,0.929819,-0.752575,0.592056,0.288273
-0.178289,-0.084948,0.696711,0.028657,-0.666026,0.745378
0.018349,0.051613,0.822118,-0.422075,0.143926,-0.895063
-0.631065,0.815429,0.392662,-0.599581,0.043364,0.799139
-0.645012,-0.465001,0.612321,0.953046,-0.167895,0.252021
0.306040,0.315705,0.427746,-0.122085,0.664944,-0.736848
-0.181312,-0.431886,0.736837,-0.694648,-0.639078,-0.330218
0.104312,0.516615,0.631689,0.237219,-0.940283,0.244121
-0.504852,0.224666,0.540607,-0.483548,0.140332,-0.863996
-0.727900,0.416991,0.604306,0.955933,-0.281270,-0.084138
0.168001,-0.668124,0.711143,0.167148,0.222272,0.960550
0.252054,-0.153393,-0.979256,0.555481,0.302056,-0.774728
-0.389776,-0.734410,0.631716,0.322707,-0.359119,0.875725
-0.469110,-0.241221,0.358325,-0.459871,0.223702,-0.859346
0.355996,-0.405747,0.631336,0.131656,0.175761,-0.975589
0.444451,0.283254,0.363223,0.114233,-0.701968,0.702988
-0.430716,-0.072266,0.737348,0.959758,0.181069,0.214657
0.044545,-0.132960,0.643450,-0.412894,-0.906284,-0.090381
-0.324867,0.201076,0.573923,0.313362,-0.468201,0.826191
-0.088721,-0.150569,0.790557,0.404557,0.162565,0.899948
0.157501,-0.224443,0.489978,0.862137,0.437184,-0.256104
0.203956,-0.224553,-0.529711,-0.732279,-0.653322,-0.192189
0.848545,-0.103554,0.465371,0.374815,-0.628961,0.681117
0.141008,-0.091317,0.825418,0.375523,0.005271,-0.926798
0.019197,0.427678,0.716001,0.508910,0.753834,-0.415625
0.224214,-0.247868,0.933983,0.338332,0.938447,0.069638
-0.110993,0.688781,0.352589,0.786031,-0.082407,-0.612670
0.245638,0.113966,0.866696,0.791115,0.219240,-0.571026
0.405261,-0.256617,0.846005,0.144969,-0.988679,-0.038698
-0.036962,0.116293,0.742403,-0.576103,-0.810918,0.102552
0.579520,-0.452652,0.761352,0.389818,0.546886,-0.740917
0.087183,-0.577084,0.381334,-0.384834,0.546071,0.744116
0.117782,-0.106877,0.947184,-0.253306,0.933306,0.254511
0.509890,-0.155997,0.451620,-0.299307,0.301807,-0.905168
0.632073,-0.088934,0.273830,-0.116046,-0.489595,0.864193
-0.459829,-0.063461,0.762963,0.870333,0.049493,0.489970
0.268389,-0.096133,-0.866906,0.254822,0.961106,0.106489
0.196426,-0.202679,-0.034527,0.897768,-0.429580,0.097327
-0.490746,0.063850,0.707214,0.605006,0.500444,0.619293
0.339343,-0.181969,0.829268,0.976856,0.074590,-0.200472
-0.030228,-0.125040,0.806376,-0.302692,0.332294,-0.893285
0.214510,0.050726,0.282735,-0.447264,0.343167,-0.825949
0.004614,0.498838,0.534282,0.057061,-0.372827,0.926145
0.312669,-0.305680,0.281111,-0.439412,-0.369872,-0.818603
0.212281,-0.053438,0.374629,-0.480602,0.242984,-0.842603
0.213926,-0.203012,-0.606676,-0.648617,-0.746155,-0.150166
-0.270192,-0.090320,0.495466,0.866479,0.248399,0.433026
0.240707,0.227101,0.638015,-0.131337,-0.084438,0.987735
0.287744,-0.183020,-0.796672,0.604480,0.795180,-0.047880
0.364693,-0.104663,0.453388,-0.267830,-0.180867,0.946337
0.301798,-0.275556,0.761772,0.564453,0.786016,-0.252132
0.015114,-0.245375,0.172559,-0.211714,0.759743,0.614790
-0.136289,0.933658,0.525612,-0.287503,0.220272,0.932106
-0.254919,0.160538,0.380182,0.815176,-0.146177,0.560465
-0.050909,0.759885,0.580930,-0.528212,0.498840,-0.687133
-0.347616,0.530347,0.371277,-0.303663,0.400038,-0.864730
-0.025137,-0.032562,0.563591,-0.478409,-0.601470,0.639811
0.038713,-0.116457,-0.402759,0.625371,0.748424,0.220845
0.375352,-0.609979,0.310132,-0.083002,-0.437901,-0.895183
-0.147956,-0.646251,0.688906,0.464725,0.835333,0.293681
-0.104629,0.612195,0.503376,-0.281606,-0.422975,0.861272
-0.174789,-0.031896,0.385433,0.422388,0.631277,-0.650445
-0.296814,-0.485602,0.532029,-0.603527,-0.593904,-0.532008
0.107070,-0.062021,0.376842,-0.097672,0.600263,-0.793816
-0.412950,0.295493,0.518030,0.730521,0.044683,0.681427
-0.008751,0.686511,0.555838,0.277326,0.676037,-0.682689
0.225327,-0.395004,0.804477,0.300374,0.859648,-0.413256
-0.047674,-0.057370,0.822943,-0.139421,0.545355,0.826529
0.312033,-0.178591,-0.835947,-0.381438,0.924049,0.025270
0.196690,-0.157270,0.329867,0.900216,-0.388510,-0.196648
0.038394,0.069057,0.536417,0.810753,0.215699,0.544199
0.390624,-0.017830,0.880630,-0.233295,0.253994,0.938648
0.482897,-0.104330,0.680092,-0.490021,0.563479,-0.665110
-0.099379,0.048069,0.572038,0.421470,0.739858,-0.524380
0.307631,0.222285,0.246918,0.971515,-0.186814,0.145803
0.330117,-0.110532,0.871476,-0.047750,-0.880819,0.471039
0.009016,0.843726,0.597784,0.770065,-0.301217,0.562377
0.183115,-0.735463,0.423241,0.254044,-0.882950,0.394793
-0.069311,-0.751411,0.567061,0.126549,-0.361110,0.923897
0.556026,-0.228153,-0.958944,-0.440935,-0.226051,0.868606
-0.161743,0.390907,0.355025,0.057049,-0.507254,0.859906
-0.629581,-0.134122,0.188104,-0.395270,-0.292093,-0.870887
0.188365,-0.111916,0.936969,-0.541364,-0.840229,0.030673
-0.167419,-0.278712,0.271891,0.347090,-0.173209,0.921698
0.584132,-0.062021,-0.939601,0.283891,0.880457,-0.379738
-0.335791,0.284307,0.590804,0.131028,-0.290834,0.947759
0.149335,0.546906,0.529135,0.452727,-0.564649,0.690079
-0.380814,-0.345885,0.597941,-0.750423,0.361087,-0.553608
-0.054887,0.874959,0.619956,-0.078726,0.996572,-0.025415
0.280904,-0.533281,0.713290,0.094234,0.769336,0.631856
0.171130,0.144203,0.329422,-0.294592,-0.932091,0.210765
-0.607732,-0.441520,0.644668,0.087273,-0.936844,-0.338684
0.130933,-0.231421,0.953601,0.855815,0.466592,0.223322
0.142387,-0.095968,0.935660,0.932106,0.242937,0.268626
-0.301109,-0.602225,0.295281,-0.188857,0.573060,0.797456
-0.192024,0.118232,0.552341,0.938019,-0.166801,-0.303804
0.149016,-0.226326,0.784100,0.913596,-0.221172,-0.341211
0.164396,-0.202125,0.694498,0.577011,0.788055,-0.214539
0.311821,-0.450437,0.316483,0.791913,0.521176,0.318199
0.349419,-0.609369,0.320517,0.525006,0.544143,0.654429
-0.493875,-0.287020,0.630707,0.385084,0.891515,-0.238562
-0.272684,-0.551501,0.641826,-0.703450,0.686259,0.184953
0.186562,0.185792,0.643122,-0.262488,-0.807997,-0.527486
0.610808,-0.006811,0.449800,-0.043609,0.254111,0.966191
-0.063372,0.555156,0.490162,0.001616,-0.671939,0.740605
0.182372,0.248865,0.622522,-0.353454,-0.549403,-0.757117
0.273373,-0.143537,-0.702015,-0.863721,0.451558,-0.223788
-0.096728,0.706225,0.523177,-0.540183,-0.649922,0.534607
-0.599936,0.297597,0.554751,-0.131367,-0.681224,0.720192
0.320253,-0.151788,-0.796057,0.604480,0.795180,-0.047880
0.207881,-0.216468,-0.466301,0.808722,-0.587932,-0.017472
0.232699,0.412228,0.672968,-0.761387,0.611022,-0.216662
0.521398,-0.125651,0.267989,0.246554,-0.191615,0.949997
-0.163599,0.715584,0.507998,0.592516,0.415162,-0.690337
-0.129714,-0.102613,0.676399,-0.011009,-0.995257,0.096652
0.129500,-0.582899,0.730734,0.908021,-0.054669,0.415343
-0.522512,-0.328497,0.619235,-0.134974,-0.846329,0.515276
0.187995,-0.272122,0.970141,0.059748,-0.998124,-0.013370
-0.338071,-0.507088,0.523111,-0.661819,-0.608637,-0.437671
0.156016,0.064017,0.211860,0.730088,-0.042528,-0.682029
-0.408654,-0.643425,0.604843,-0.418060,-0.887587,-0.193430
0.059077,-0.556538,0.709610,-0.300081,-0.039624,0.953091
0.131039,0.019992,0.714220,-0.190710,0.116238,0.974740
0.212388,-0.239229,0.912362,-0.663127,-0.744567,0.076698
0.152994,-0.192213,0.852631,-0.104741,-0.311920,0.944317
-0.695658,0.293997,0.578625,0.710567,-0.567245,0.416327
0.228404,-0.129304,0.737583,-0.308567,0.694185,-0.650303
0.005462,-0.322793,-0.301907,-0.497343,0.762513,-0.413792
0.132523,-0.221175,0.446591,-0.613459,0.747650,-0.254337
0.144085,-0.193043,0.943989,-0.165842,-0.808875,0.564108
0.131568,-0.208993,-0.233795,0.134948,0.987965,-0.075597
0.195099,0.548178,0.339493,-0.610279,-0.523259,0.594777
-0.742484,-0.091371,0.410158,0.490264,-0.008017,0.871537
-0.553005,-0.707164,0.629974,-0.792800,0.607665,0.047027
-0.273268,-0.158765,0.780669,-0.407219,-0.898919,-0.161606
0.313305,-0.689722,0.710305,0.762630,0.640649,-0.089242
0.527179,-0.136781,0.269207,0.291092,-0.202728,0.934969
-0.501882,-0.511352,0.571959,-0.466838,-0.293028,-0.834384
-0.222464,-0.565621,0.661535,0.425150,-0.728531,-0.537112
0.259214,0.419926,0.267819,0.593024,-0.562221,0.576394
0.029378,-0.156494,0.853037,-0.276581,-0.506848,-0.816460
0.113538,-0.156827,0.711090,-0.381855,-0.339174,-0.859737
0.729543,-0.079188,0.641852,0.087712,-0.635705,0.766933
0.204169,-0.204452,0.887532,0.515599,-0.739733,0.432379
0.249350,-0.133845,0.872393,-0.433805,0.193051,-0.880082
0.189320,-0.182522,0.619065,0.699475,-0.692453,0.176761
0.352230,0.431998,0.419378,0.390734,-0.635911,0.665540
-0.417086,0.037934,0.259437,0.636282,0.549685,0.541288
-0.127273,-0.087107,0.691682,0.035599,-0.584970,0.810273
-0.133213,-0.775223,0.581244,0.572592,-0.133050,0.808972
0.119107,-0.525805,0.804386,0.855750,0.395009,0.334155
0.120432,-0.510189,0.358469,0.495348,-0.791892,-0.357124
-0.039190,0.382490,0.476476,-0.723336,-0.620629,0.302663
-0.043644,0.865324,0.610815,-0.495058,0.454939,-0.740235
0.200509,-0.367704,0.780342,-0.392406,-0.033344,0.919187
-0.545792,-0.083675,0.704346,0.976765,-0.063092,0.204816
-0.643156,0.247814,0.549552,-0.230900,-0.024663,-0.972665
0.368457,-0.354634,0.731900,0.741248,0.668809,-0.056975
-0.033037,0.037822,0.832097,0.757597,-0.150347,0.635171
0.123668,-0.165466,0.931626,0.879577,0.033833,-0.474552
-0.042424,-0.423135,0.631847,-0.169669,0.684080,0.709398
-0.762317,-0.105050,0.429554,0.234744,0.533082,0.812846
0.727051,-0.024309,0.641839,0.525671,0.084940,0.846437
-0.169646,-0.267859,0.272036,0.287081,-0.475615,0.831489
0.447421,-0.045630,0.882582,-0.119389,0.081628,0.989486
0.088774,-0.208328,0.760082,-0.371971,-0.895826,-0.243172
0.284882,-0.390906,-0.984717,0.263470,-0.225440,-0.937955
0.102933,-0.177705,0.877487,-0.058740,0.485922,0.872026
-0.144721,-0.295381,0.709152,-0.635515,0.339124,-0.693624
0.210213,0.470208,0.629725,-0.580305,0.524891,-0.622684
0.169061,-0.055155,0.958918,-0.193403,-0.889075,0.414899
0.042796,0.895173,0.592349,0.393219,-0.681457,0.617247
0.186933,-0.195702,0.439441,0.724649,-0.636471,0.264176
0.228986,0.402482,0.651923,-0.689809,0.529574,-0.493674
0.188046,-0.271293,0.875366,0.809502,0.553174,0.196737
0.031235,-0.197032,0.907189,0.602263,0.768186,-0.217188
0.353185,-0.136892,0.444548,-0.192259,-0.563242,0.803614
0.246010,-0.542363,0.695729,0.850653,-0.043112,0.523957
-0.079069,0.207998,0.519968,-0.542842,0.837896,0.057031
0.275972,-0.639772,0.493056,0.985445,0.161094,0.054290
0.513709,-0.139993,0.628036,-0.386609,0.643962,-0.660186
0.077743,0.257504,0.663853,-0.080470,0.977323,-0.195869
0.705044,-0.119006,0.457356,-0.224636,0.204938,0.952649
0.047622,-0.184737,0.888933,0.911131,0.223105,0.346502
