0.481490,0.071420,0.421276,-0.432637,0.751869,-0.497512
-0.090844,0.143046,-0.363715,-0.083747,-0.565006,0.820825
0.938299,-0.077985,-0.000094,-0.046120,0.009845,0.998887
-0.525893,-0.212711,0.035880,0.695877,-0.196286,0.690816
0.247632,-0.356463,0.706050,0.137566,0.154323,0.978397
-0.433010,0.412952,0.388864,0.216457,0.513326,0.830448
-0.459784,-0.165659,0.531918,-0.598190,0.799038,0.060875
0.092332,0.115326,0.725837,0.947808,-0.178764,0.264014
-0.570020,0.626188,0.060639,-0.387918,-0.910792,0.141341
0.627479,-0.025235,0.290419,0.827648,-0.409870,-0.383413
-0.285754,-0.306904,0.416065,-0.744800,0.521895,-0.415811
0.117508,0.549730,0.298752,0.935508,0.211441,0.283049
-0.341780,0.421114,0.550232,0.816364,-0.486186,0.311725
-0.287241,0.325370,0.514208,0.280169,0.833739,-0.475799
0.279915,0.870928,0.224538,-0.400850,0.419855,0.814273
0.126597,0.123533,-0.050166,-0.308079,0.570396,0.761404
-0.426729,-0.216130,0.411861,-0.326614,0.820924,0.468409
-0.331864,-0.595094,-0.181036,0.357075,-0.492796,0.793504
-0.425739,0.170949,0.132537,0.404619,0.870012,0.281713
0.201301,0.207651,0.897968,-0.496144,-0.863288,0.092598
-0.152821,-0.281146,0.682940,0.795944,-0.561311,0.226722
-0.499725,0.389519,0.293767,0.259361,0.423768,-0.867844
-0.735511,0.288805,0.160468,0.351649,0.690854,0.631715
0.357261,0.069826,0.135936,0.072459,0.974706,0.211418
0.489368,-0.633848,0.447709,0.869461,-0.338441,-0.359855
0.427557,-0.401965,0.720714,0.322822,0.824135,0.465389
-0.211548,-0.139717,0.571518,0.355834,-0.933978,0.032651
0.287021,0.246222,0.758891,-0.324240,0.920417,-0.218406
0.347455,0.000616,0.904488,0.474921,0.791332,-0.385026
-0.220472,0.036497,0.595647,-0.271209,-0.169868,0.947413
0.453118,0.125311,-0.932507,0.911969,0.208074,0.353577
-0.339467,0.245401,-0.325752,-0.463699,0.550003,-0.694607
0.130894,0.338820,0.711387,0.582731,0.185288,0.791260
-0.237549,0.463743,0.684891,0.918607,0.039736,0.393170
0.735071,0.199673,-0.004777,-0.354606,-0.043557,0.934001
-0.179045,-0.056967,0.477919,-0.377978,0.735357,-0.562479
-0.820020,-0.069004,0.120315,-0.354839,-0.622387,0.697656
-0.619768,-0.126541,0.077720,-0.270187,0.698879,-0.662244
-0.519392,-0.676704,0.293956,0.238573,0.929460,-0.281402
0.584785,-0.793968,0.247799,0.088247,0.358880,0.929203
0.663288,0.153213,-0.004437,-0.464528,-0.017464,0.885386
-0.573216,0.390384,-0.008641,0.229522,0.454860,0.860478
0.122466,0.359701,0.273024,0.477251,0.226840,0.848985
0.056633,-0.083229,0.601211,0.003860,0.809692,0.586842
0.732702,-0.046846,0.003707,0.325630,-0.303490,-0.895466
-0.195680,0.118336,0.592979,0.115412,0.699982,0.704773
0.305091,-0.018761,0.688365,0.385851,0.911666,-0.141364
-0.428162,-0.170537,-0.671951,-0.445603,0.788038,0.424775
-0.070901,0.413044,-0.037378,-0.321022,-0.551541,0.769901
0.369105,0.427178,0.446312,-0.444455,0.408652,-0.797159
-0.559553,0.743589,-0.078299,0.348895,-0.653475,0.671746
-0.510632,0.565323,-0.464753,0.825898,0.520638,-0.216399
0.073602,-0.128000,0.776966,-0.106903,0.961614,0.252725
0.314126,-0.201860,0.778930,-0.353641,-0.608323,-0.710550
0.170230,0.024416,0.787842,-0.639770,0.767960,0.030523
0.152214,-0.240568,0.287486,0.064741,0.020290,0.997696
-0.448491,0.674243,0.201931,-0.469878,0.450002,-0.759416
0.529915,-0.332527,0.631093,-0.553452,0.462332,0.692777
0.028592,0.016801,0.656809,0.781599,0.101044,0.615543
0.160312,-0.387649,0.701733,-0.070991,0.882007,0.465859
-0.625221,0.654821,0.079092,0.008939,-0.597206,0.802038
-0.149956,0.561812,-0.086204,0.766265,0.642517,-0.003021
-0.489422,-0.580139,0.214657,0.866016,-0.359785,-0.347235
0.127149,0.114505,0.049424,0.064543,-0.996178,-0.058860
-0.509420,0.193609,0.161438,0.206906,0.937562,0.279585
-0.857592,0.117333,0.211950,0.152305,-0.428695,0.890519
-0.176509,-0.044840,0.210641,0.435039,0.839417,0.325760
-0.363816,0.548500,-0.228616,0.549064,0.093541,-0.830529
-0.649902,-0.123030,0.116715,0.744575,0.187253,-0.640738
0.525506,-0.757220,0.381211,-0.358903,-0.503598,0.785861
0.511240,0.300978,-0.015463,-0.381732,-0.403006,0.831785
-0.015591,-0.439533,0.146975,-0.701287,0.413418,-0.580760
0.035918,0.576038,0.159411,0.334580,-0.294753,0.895085
-0.637726,0.263820,0.446942,0.967528,-0.023821,0.251638
0.124891,0.134156,-0.236986,0.365389,0.756049,0.543030
0.180201,0.103199,0.658835,0.706391,0.669265,-0.230426
0.424472,0.056284,0.927309,0.950328,0.071500,-0.302926
0.312087,0.079490,0.819688,0.497952,0.866748,-0.028146
-0.644944,0.498666,0.293629,0.778984,0.501640,-0.376221
-0.745483,0.000889,0.324480,-0.630891,-0.644244,-0.432349
-0.022037,0.102469,-0.035414,-0.276427,0.553780,0.785440
0.348887,0.029156,0.608310,-0.714829,0.263310,0.647832
0.408826,0.069278,0.943521,0.881224,-0.437946,0.177900
-0.593048,0.572253,0.174201,0.786988,-0.614757,0.052186
-0.412351,0.282285,0.408588,0.443997,-0.309844,0.840752
0.327678,-0.186769,0.132814,-0.255357,0.654827,0.711333
-0.572444,-0.065675,0.112071,0.567636,0.822671,-0.031662
-0.474439,0.074339,0.455023,0.902357,-0.241819,0.356756
-0.394778,0.546175,-0.222234,0.549064,0.093541,-0.830529
-0.572280,0.219003,0.323221,0.632857,0.740810,-0.225149
-0.298645,-0.253425,0.427129,-0.684949,0.265408,-0.678531
0.446398,0.589168,0.460976,-0.300017,0.901274,0.312562
-0.222951,-0.080630,0.094121,0.377623,-0.644026,0.665306
0.270053,0.129552,0.741987,0.702174,0.630061,0.331625
0.260742,0.119247,0.848752,0.708196,0.668319,0.227615
-0.314896,0.137302,0.529677,0.837671,-0.456530,0.299811
0.049306,0.693984,0.384836,-0.601841,-0.340581,0.722352
-0.243995,0.176738,0.539433,-0.055829,0.959401,-0.276464
0.533936,-0.440901,0.223505,-0.188616,0.310202,0.931772
0.142629,0.074294,-0.014998,-0.131692,-0.956797,0.259223
-0.382217,0.579410,-0.238585,0.549064,0.093541,-0.830529
-0.112275,0.192195,0.411672,-0.303994,0.892420,-0.333428
0.468763,0.215220,0.738034,-0.195608,0.801980,-0.564417
-0.307625,-0.273622,0.664550,0.338820,0.804220,0.488295
0.499945,0.394990,0.716636,0.902144,-0.431372,0.007361
0.415712,0.015753,0.662322,0.641888,0.736731,0.212620
0.310599,0.156906,0.867922,0.445107,0.872954,0.199576
0.621694,0.735428,0.373268,0.041838,0.509668,0.859353
-0.600815,0.678210,0.095002,-0.029864,-0.750498,0.660198
0.120593,0.102835,0.722388,0.984943,-0.171011,-0.025346
0.145824,-0.217954,0.705647,-0.034357,0.693769,0.719377
0.010357,-0.358469,0.741722,0.763268,-0.643746,-0.054886
-0.363046,-0.086922,0.130360,0.487071,-0.814428,0.315388
-0.320076,-0.150340,0.565904,0.724623,-0.663042,0.187874
0.328119,0.057651,0.415259,0.074031,0.959204,0.272850
-0.145714,0.073108,0.742289,0.717364,0.567330,-0.404384
-0.308561,0.672419,0.150525,-0.018412,0.691218,0.722412
-0.087924,0.559533,0.424096,-0.601934,0.733279,-0.316191
-0.509476,-0.146738,0.507902,-0.710504,0.211882,-0.671037
-0.450088,0.657236,-0.011914,0.608162,0.510421,-0.607956
-0.579495,0.345705,0.457213,-0.758319,0.582915,-0.291826
0.546772,-0.236373,0.692242,-0.651851,0.483037,-0.584607
0.217442,0.392938,0.529640,-0.441962,-0.620392,0.647907
-0.589687,-0.133061,0.285359,-0.117214,0.214900,-0.969577
-0.436923,-0.136161,0.299117,-0.454574,-0.012955,0.890615
0.565283,0.280781,0.260751,0.257102,-0.553129,0.792431
0.310821,0.044567,0.533089,-0.698841,-0.707427,0.105682
-0.723667,0.147514,0.327967,0.845956,0.309516,0.434233
0.493390,0.045660,0.405995,-0.489971,0.727673,0.480021
0.161636,0.168350,0.876154,-0.539638,-0.782132,0.311545
0.482647,0.120387,-0.967059,0.383522,0.324047,0.864814
0.583077,0.277271,0.717504,0.946045,-0.293882,0.136500
-0.517684,-0.101602,0.553266,-0.720362,-0.471931,-0.508291
0.324538,-0.033898,0.046692,-0.574360,0.722381,-0.385067
0.431027,0.798619,0.457603,0.951973,0.228102,-0.204245
-0.397037,0.245493,0.444286,-0.639952,-0.657453,0.397765
-0.353075,0.420750,0.025709,-0.718816,-0.208233,0.663282
-0.587209,0.266921,0.366320,0.628921,0.615004,0.475635
-0.926014,-0.262725,0.092233,-0.512233,0.645730,-0.566260
-0.363211,0.014476,-0.057455,-0.163955,0.222832,-0.960971
0.155686,0.351039,-0.051941,0.338989,0.599531,-0.725017
0.201245,0.444822,0.695980,-0.684667,0.241220,-0.687783
0.440613,0.712312,0.379059,0.464202,-0.125568,-0.876783
0.444414,-0.364078,0.396731,-0.747825,-0.463658,0.475162
-0.047102,0.638271,0.370600,-0.120808,-0.405609,0.906028
-0.159763,-0.248319,0.698787,0.100790,0.890365,0.443950
-0.453780,0.128548,0.371179,-0.188443,-0.979749,-0.067692
0.106601,0.378850,0.729437,0.725242,-0.345258,0.595668
0.163068,0.196207,0.875248,-0.687455,-0.684001,0.244025
-0.374284,0.527846,-0.224122,0.549064,0.093541,-0.830529
0.469811,0.712130,0.459504,-0.596264,-0.511818,0.618475
0.084067,-0.091025,0.806244,0.951773,-0.288880,-0.103328
0.493390,-0.657373,0.412213,0.345218,0.618557,-0.705841
-0.163564,-0.461599,0.390299,-0.042092,0.629605,0.775774
0.321618,-0.079308,0.941557,-0.520766,0.631447,-0.574524
-0.185875,0.482801,0.668930,-0.821276,0.034075,-0.569513
-0.530246,-0.166344,0.286203,-0.108087,0.009058,0.994100
-0.705873,-0.024186,0.317368,0.558348,0.505505,0.657809
0.139268,-0.078305,0.788572,0.862648,-0.356996,0.358319
0.397478,0.020904,-0.879376,0.261908,0.965079,-0.005201
-0.132438,0.633665,0.034281,0.750221,-0.052060,0.659135
0.041759,0.037546,0.721948,0.846771,-0.319396,-0.425401
-0.467662,-0.330659,0.452908,0.100277,0.100199,0.989901
0.164334,0.383911,0.418658,0.594472,0.371176,0.713324
0.326796,0.016436,0.364105,-0.492892,0.865350,0.090699
0.277050,0.049901,0.681832,0.985467,-0.102379,0.135548
-0.503141,0.599335,-0.083875,0.289816,-0.131209,0.948046
-0.079992,-0.232087,0.650779,-0.092707,0.951856,0.292190
-0.274957,0.280142,-0.420206,0.259477,-0.237959,0.935974
-0.845583,0.058154,0.164937,-0.363922,-0.913849,-0.180112
0.280631,0.098321,0.445595,0.816208,0.570091,-0.093807
0.264434,0.146831,0.830903,0.883227,0.466580,0.047046
-0.072278,0.064582,0.697717,-0.221091,-0.931275,-0.289563
0.030740,0.430780,0.439842,0.711478,0.636011,0.298815
-0.151720,-0.361797,0.730243,0.173444,0.983388,0.053518
-0.735896,-0.096632,0.336287,0.804683,-0.127201,0.579918
0.223392,-0.096998,0.549528,0.681279,0.423757,0.596900
0.267408,-0.609227,0.628588,0.228637,0.972573,-0.042752
0.464357,-0.094489,0.926742,-0.235172,-0.856649,-0.459180
0.651168,-0.385323,0.415461,0.357478,-0.018468,-0.933739
0.255344,-0.496842,0.560126,0.969071,0.243796,0.038279
0.469811,0.301434,0.755468,0.656704,-0.404096,0.636747
0.105168,0.421661,0.613357,-0.674286,-0.056754,-0.736286
0.067541,-0.188227,0.669081,-0.159615,0.984122,0.077635
0.703780,-0.068593,0.718700,-0.251765,0.798421,-0.546935
0.192321,0.002075,0.223354,0.848974,0.099055,0.519068
-0.240910,0.731644,0.072370,-0.687004,-0.164292,0.707837
0.368720,0.308409,0.672807,-0.086237,0.429819,0.898787
0.079329,-0.114139,0.822218,0.937863,-0.340883,0.064895
0.671442,-0.337087,0.658911,-0.185414,-0.205532,0.960926
0.466394,0.164201,0.232228,0.921359,-0.300883,-0.246105
-0.747191,-0.159095,0.100402,-0.624185,0.499668,-0.600603
-0.079329,-0.136982,0.312031,-0.019744,-0.972808,0.230769
0.086382,-0.247042,0.666539,-0.202834,0.793071,0.574366
0.440006,-0.567237,0.227886,0.172004,0.079740,0.981864
0.146926,-0.341098,0.724503,0.840872,0.391722,0.373481
0.009476,-0.280917,0.097683,0.983911,0.158117,0.083174
0.308726,-0.093441,0.861893,-0.161176,-0.790641,-0.590685
-0.181302,0.084460,0.558553,0.041423,0.648357,0.760209
0.310104,-0.564319,0.601865,0.988547,0.095241,0.117065
-0.105609,-0.499259,0.511162,0.862725,0.202859,0.463200
-0.493665,-0.415186,0.487070,-0.045693,-0.998945,0.004647
-0.353956,-0.173410,0.457376,0.879237,-0.420192,0.224457
0.159652,0.187682,-0.484137,-0.517132,-0.848692,0.110888
0.532008,-0.004171,0.780239,0.042900,0.753125,0.656477
0.240414,-0.023457,0.535719,0.926549,-0.358735,0.113207
-0.778152,0.091891,0.192667,-0.019643,-0.537243,0.843198
-0.820075,-0.185309,0.109717,-0.507856,0.671223,-0.539946
0.275231,0.261040,0.331957,-0.787385,-0.359475,0.500801
0.087043,-0.340597,0.763586,0.984180,-0.173639,-0.035211
-0.006391,-0.102149,0.741471,-0.082561,-0.982804,-0.165166
0.731710,-0.214944,-0.029977,-0.486241,-0.110814,0.866770
-0.054869,-0.267877,0.678887,-0.412842,-0.756796,-0.506776
-0.444525,-0.176875,0.012996,-0.007799,-0.136712,0.990580
0.364699,-0.023912,0.918497,-0.138701,0.739862,0.658306
-0.531843,-0.137939,0.557181,0.994589,0.028554,0.099883
0.519999,-0.137438,0.852855,-0.011438,0.970282,0.241706
-0.471959,0.302848,0.090811,0.079351,-0.059818,0.995050
-0.581809,0.196070,0.114978,0.633506,0.241156,0.735196
-0.467938,0.221648,0.438470,-0.061272,-0.145092,0.987519
0.272421,0.088427,0.989515,0.931441,0.363006,0.025385
0.387671,0.008276,0.897364,0.833751,0.546073,0.081634
0.320570,-0.300019,0.304970,-0.387977,0.376815,0.841121
0.439456,0.859895,0.490128,0.277355,-0.737645,0.615593
-0.667200,-0.214351,0.289173,0.120023,-0.279825,0.952519
0.638663,-0.428089,0.675878,-0.336922,0.867427,0.366135
0.609409,-0.521006,0.232040,-0.125251,0.360035,0.924493
-0.230994,0.019354,0.596793,-0.786787,-0.363323,-0.498961
0.630729,0.136801,-0.982214,0.155583,0.132787,0.978857
-0.240029,-0.455399,0.270682,0.515762,0.374131,-0.770724
-0.224438,0.652815,0.508518,-0.628442,0.542395,-0.557556
-0.601918,0.629334,0.299885,0.879759,0.296510,-0.371627
0.549472,0.131785,-0.041620,0.772299,0.607325,-0.186308
-0.166924,-0.192650,0.641717,0.022651,0.994570,0.101571
-0.165272,-0.273805,0.435512,-0.437320,-0.730761,0.524156
-0.688519,-0.255294,-0.704011,0.078237,-0.903402,0.421597
-0.542915,0.251967,0.507625,0.725501,-0.680685,0.101573
0.118885,-0.134428,0.567376,-0.466699,-0.852166,-0.236653
0.581920,-0.101009,0.809253,-0.060139,0.689350,0.721928
-0.153097,-0.079627,0.758627,0.983628,0.179180,-0.019268
-0.036415,-0.387922,0.478385,-0.245374,0.852218,0.462078
-0.133154,-0.398637,-0.178745,0.212604,-0.029618,0.976689
0.459675,-0.402922,0.209861,-0.267774,0.333475,0.903931
-0.764213,0.352179,-0.525348,-0.510483,-0.466242,0.722513
0.214798,0.197165,0.790498,-0.606741,0.758125,0.238980
-0.591175,-0.155811,0.031701,-0.686126,0.126082,-0.716474
-0.469370,-0.387694,0.461417,-0.236077,0.766681,0.597049
-0.303768,-0.229033,0.243318,0.972186,0.216133,0.090227
-0.451300,0.302438,0.511363,-0.714839,0.692425,0.097739
0.009697,-0.394534,0.711425,0.911387,0.394928,0.115782
0.029308,0.043291,0.107615,-0.173455,-0.927934,-0.329927
-0.632933,-0.099049,-0.103675,-0.655368,0.002267,0.755306
-0.237385,-0.388606,0.214065,-0.614578,0.455567,0.644013
0.459564,0.340279,0.655223,0.931321,-0.348249,0.106604
0.441714,0.019674,-0.458748,0.996869,-0.068193,-0.040037
0.600319,-0.646067,0.464564,-0.018515,0.916256,0.400166
0.200473,0.410081,0.695187,-0.293878,0.776225,-0.557773
-0.550573,-0.708664,0.257957,0.615542,0.491112,0.616373
-0.037571,-0.374107,0.133507,0.867270,-0.493170,0.068014
-0.666263,0.029887,0.164459,0.854901,0.495593,0.153400
-0.665381,0.235234,0.315153,-0.531145,-0.810844,-0.245799
-0.257163,0.175098,-0.218257,-0.336463,0.180951,-0.924148
0.013772,-0.071557,0.378266,0.556563,-0.823689,0.108513
0.478019,0.304444,0.255490,0.025207,-0.632801,0.773904
-0.608528,-0.127362,0.220573,0.789611,0.296941,0.536973
-0.522917,0.209839,0.461719,0.979641,0.197607,-0.035431
0.148083,-0.402193,0.580240,0.850642,-0.012240,-0.525603
0.060158,-0.593316,0.358718,0.846496,0.493835,0.198925
-0.336106,-0.379624,0.279921,0.443049,0.160585,0.881998
0.035423,-0.171905,0.627002,-0.499867,0.781642,0.373053
-0.432350,0.690976,-0.229938,0.243749,0.041672,-0.968943
-0.174581,0.504822,0.182307,-0.343413,-0.468336,0.814082
0.583021,-0.185948,0.651006,0.910328,0.411658,-0.042905
0.333132,0.353729,0.289714,-0.387487,0.802960,-0.452890
0.522147,0.813802,0.491261,0.276512,-0.351982,0.894231
0.422378,-0.168987,0.857084,-0.407328,-0.854921,-0.321238
-0.328504,0.523378,0.165931,0.285812,-0.104029,0.952622
-0.202842,-0.243029,0.652479,-0.485731,-0.413024,-0.770374
-0.285202,-0.359563,0.404963,-0.763332,0.363773,-0.533849
0.434443,-0.755670,0.384849,-0.523738,-0.225393,0.821521
0.027876,-0.069778,-0.217098,-0.084283,-0.895945,0.436094
0.109686,-0.073653,0.787275,0.887577,-0.212537,0.408700
0.111888,-0.296647,0.769011,0.796818,-0.602341,0.047602
0.316164,-0.010737,0.967525,-0.015922,-0.992904,-0.117847
-0.465789,0.660975,0.080791,0.447843,-0.330814,0.830662
-0.361007,-0.307497,0.267775,-0.687016,0.392018,0.611826
-0.794679,-0.259124,0.085725,-0.557641,0.623686,-0.547771
-0.106214,0.240659,0.429269,0.380835,-0.494387,0.781374
-0.598777,-0.599289,-0.029951,0.818711,0.162403,0.550760
0.311206,0.039370,-0.989804,-0.608817,-0.183360,0.771830
0.195460,-0.276996,0.547652,-0.432305,0.483510,0.761138
-0.646817,0.065220,0.201931,-0.715115,-0.698175,0.034098
-0.349714,0.116375,0.095619,0.214772,-0.631995,0.744618
-0.209895,-0.318075,0.661239,-0.407304,-0.625808,-0.665183
-0.491571,0.166982,0.246150,-0.448684,0.527648,0.721298
0.349494,-0.027286,0.423970,-0.716446,-0.677580,-0.166102
-0.502810,0.725763,0.098250,0.246645,-0.559574,0.791229
-0.668081,0.516083,0.330132,0.535464,-0.427910,0.728129
0.467057,-0.723801,0.390916,0.011662,-0.548845,0.835843
0.662186,-0.060569,0.705244,0.383226,0.470941,-0.794577
-0.717993,-0.151890,0.282477,0.794481,0.034023,-0.606335
-0.705322,0.496798,0.332800,-0.642665,0.000794,-0.766147
-0.342221,0.382270,0.558238,0.420427,-0.718281,0.554358
-0.198765,-0.272984,0.647847,-0.590637,-0.575942,-0.565189
-0.177666,-0.254929,0.280010,0.557017,0.450716,0.697558
-0.046717,0.853512,0.440358,-0.128354,0.841022,-0.525553
-0.588475,-0.584972,0.190237,-0.360876,-0.757580,0.543913
0.699538,0.005084,0.781498,-0.724527,0.526910,0.444328
-0.509861,-0.750244,0.254785,0.794369,0.363931,0.486346
-0.117784,0.358379,-0.227005,0.117395,0.263234,0.957563
-0.125660,-0.376433,0.300678,-0.348896,0.698133,0.625206
-0.593820,0.114369,0.385277,-0.600612,0.656018,-0.457062
-0.627535,0.291358,-0.298060,0.925182,-0.279405,-0.256850
-0.519392,-0.205552,0.419955,-0.504482,0.649581,0.568807
0.306633,0.017942,0.898899,0.044062,-0.968020,0.246971
0.407283,0.293821,-0.026679,-0.360112,-0.262053,0.895348
0.108474,0.210158,0.755745,0.983111,-0.112647,0.144235
-0.528537,0.042515,0.310080,-0.630509,-0.035301,0.775379
-0.624559,-0.117103,0.142456,-0.587944,-0.763572,0.266982
0.871089,0.394033,0.468566,0.978587,0.132268,0.157708
0.203449,0.387102,0.701053,-0.493026,0.152732,-0.856504
-0.702237,0.023412,0.209710,0.787293,0.553580,-0.271512
0.139764,0.139901,0.868904,-0.798740,0.377866,-0.468222
-0.388276,-0.204459,0.414391,-0.288004,0.506879,0.812482
-0.167034,0.300934,0.683771,0.845633,0.011093,0.533649
0.253362,0.422163,0.579019,-0.486336,0.387330,-0.783232
-0.547488,-0.097271,0.130284,0.967970,-0.104406,-0.228329
-0.217166,-0.551416,0.290444,0.276550,-0.912762,0.300642
0.068257,-0.062940,0.846637,0.396948,0.909925,0.120289
0.299911,0.023412,0.919819,-0.159012,0.918540,0.361938
-0.299746,-0.227163,0.282577,0.196361,0.871964,-0.448464
-0.661415,0.131102,0.301609,0.497968,-0.214190,0.840328
0.063079,-0.195796,0.626612,0.880421,-0.085343,-0.466451
0.772423,0.515171,0.507020,0.939657,0.217044,0.264457
0.320626,-0.014476,-0.510746,0.080137,0.985156,0.151811
-0.159211,-0.635352,0.250064,-0.202476,-0.818940,0.536974
0.083902,-0.116146,0.189419,0.102011,0.283254,0.953604
0.015976,-0.390839,0.110736,-0.650013,0.600356,0.465892
0.521100,0.405749,0.760188,-0.290375,0.926790,-0.238206
-0.273798,-0.712403,0.282074,-0.580441,-0.813685,0.031700
-0.249174,-0.102970,0.569176,0.777789,-0.512859,0.363346
0.338971,-0.655549,0.378266,-0.099111,0.395473,0.913114
0.435215,0.608408,0.333883,-0.249662,0.502168,-0.827947
0.558285,-0.362709,0.638910,-0.591697,0.387813,0.706751
0.262174,0.164703,0.815194,0.997717,0.013094,0.066259
-0.257657,0.238837,0.505158,0.470714,0.824595,0.313802
0.697058,-0.044932,0.727184,-0.410698,0.894964,-0.174261
-0.012615,0.053686,0.657879,-0.675099,-0.515208,-0.528017
-0.163177,-0.127316,0.759181,-0.327258,-0.877643,-0.350206
0.383594,-0.620215,0.555444,-0.483740,-0.790769,-0.375073
-0.607647,0.561448,-0.071011,0.947953,-0.265269,0.176118
0.573436,0.842569,0.463280,0.793517,-0.088387,0.602095
-0.193754,0.320173,-0.074561,-0.119579,-0.414089,0.902348
-0.615911,-0.630155,-0.024954,0.836158,0.231852,0.497075
-0.109575,-0.357877,0.740589,0.052674,0.982306,-0.179723
0.373238,-0.046115,0.875965,0.809098,0.524071,-0.265913
0.344701,0.669958,0.366811,-0.146374,-0.156350,0.976795
-0.430201,0.152985,0.440900,0.662302,-0.037721,-0.748287
0.239974,-0.509927,0.624032,0.801061,0.021796,0.598186
0.512892,0.381585,0.422233,-0.187989,0.266370,-0.945361
-0.425628,0.346160,0.414743,0.742630,0.196771,0.640142
0.531347,-0.198029,0.652516,0.927306,0.119110,-0.354846
-0.732702,0.071694,-0.306669,-0.142146,0.080718,0.986549
0.617452,0.051497,0.275868,-0.468851,0.629548,0.619555
-0.275617,0.125447,0.316550,-0.107939,-0.993951,0.020253
-0.012671,0.612603,0.650049,0.556706,-0.681693,0.474736
-0.692432,0.004719,0.141776,0.971336,0.008251,-0.237567
-0.701024,0.086467,0.220736,0.735576,0.617355,-0.278927
0.617948,-0.059201,0.349063,0.048704,0.893352,0.446710
0.196067,0.574532,0.200395,0.797221,0.017326,-0.603439
0.352083,-0.312194,0.819247,0.822371,-0.568001,-0.032887
-0.804485,0.091299,0.148234,0.424285,0.868089,0.257689
-0.067596,-0.302938,0.653196,0.170851,0.979820,-0.103742
-0.517794,-0.200538,0.285032,-0.350559,0.098760,0.931319
-0.230334,-0.104702,0.766255,-0.750136,-0.550894,-0.365802
0.389655,0.756218,0.366371,-0.229949,-0.162787,0.959492
-0.129132,0.024188,0.735202,0.831478,0.381396,0.403957
0.372246,0.528165,0.449862,0.816868,0.027441,-0.576172
0.374119,0.083731,-0.477780,0.995645,-0.010461,0.092642
-0.544072,-0.147879,0.514371,0.958152,-0.045768,0.282577
0.317927,0.563864,0.431786,-0.524453,0.077271,0.847926
-0.631501,0.493378,0.173396,-0.598924,0.792416,0.115613
0.418246,0.278821,0.633724,-0.679941,0.671004,-0.295693
-0.411855,0.104749,0.405051,0.528874,0.762749,0.372164
0.683175,0.367133,0.493892,0.894775,-0.379845,0.234724
-0.600815,0.377893,-0.241606,-0.596388,0.214105,-0.773615
0.378196,0.026969,0.276838,0.127886,0.984656,0.118735
-0.227743,0.105615,0.080917,-0.012131,-0.999474,-0.030083
-0.829606,-0.224974,0.115318,-0.475820,0.724626,-0.498510
0.320185,0.063624,0.455249,0.132224,0.946404,0.294681
-0.513442,-0.420612,0.207004,0.156127,0.083316,0.984217
0.507879,-0.724850,0.387505,0.199591,0.673648,-0.711591
0.011129,-0.491918,0.685306,0.344765,0.652140,-0.675166
0.279363,0.023412,0.933703,-0.454113,-0.889092,-0.057422
-0.106049,-0.137118,0.758728,0.005240,0.813825,0.581087
0.332525,-0.293044,0.586736,0.859917,0.382456,-0.338038
-0.397974,-0.157543,0.420332,-0.149988,-0.572578,0.806014
-0.174251,-0.249458,0.657224,-0.277117,0.577953,0.767578
-0.396045,-0.144961,0.081181,-0.163264,-0.293105,0.942037
-0.020714,-0.623635,0.291955,-0.135445,0.811920,0.567839
-0.514599,0.066406,0.210465,-0.086631,-0.121127,-0.988850
-0.368389,-0.511660,-0.156768,0.304909,-0.281139,0.909940
-0.148964,0.057515,0.557420,-0.066847,0.637975,0.767150
-0.581699,-0.630109,0.284717,0.960554,0.255772,-0.109164
0.683947,-0.246541,0.691109,0.445789,0.477297,-0.757271
0.079000,0.400004,0.434266,0.671746,-0.217011,0.708282
-0.673590,0.582512,0.293063,-0.668175,0.148793,0.728974
0.142850,0.642693,0.384962,0.031885,-0.587475,0.808614
-0.151388,0.424351,0.664336,0.844964,-0.046131,0.532830
-0.292971,-0.149475,0.450051,0.680848,-0.653285,0.331156
0.167970,-0.406250,0.617436,-0.297514,-0.644198,-0.704623
-0.428604,0.562497,0.136527,0.558083,0.783775,-0.272471
0.294072,-0.133790,0.202825,-0.477534,0.573624,-0.665520
0.681798,0.448606,-0.986167,0.184966,0.021478,-0.982510
-0.140149,0.358607,0.138617,-0.175382,-0.820481,0.544107
-0.883594,0.165114,0.142494,-0.461103,-0.675322,0.575607
-0.146155,0.091619,0.131946,-0.247223,-0.941002,-0.231077
-0.112660,-0.543256,0.495075,0.598835,0.734541,-0.319133
-0.206368,-0.162695,0.522780,-0.659699,-0.686454,-0.305906
-0.388332,-0.270020,0.469750,-0.354804,0.888397,-0.291318
0.314511,0.017485,0.943685,0.315984,0.838284,-0.444336
-0.548260,0.234688,0.248995,-0.464954,-0.242063,0.851600
0.522917,-0.009870,0.724855,0.150107,-0.601191,0.784881
0.034653,-0.294002,0.607479,0.958913,-0.283575,0.008417
0.243775,-0.473453,0.541434,0.937705,0.343451,-0.052455
-0.128029,0.738254,0.221454,-0.414603,-0.476607,0.775210
0.261789,-0.529805,0.621590,0.774848,0.539169,0.330010
-0.549581,0.614928,0.077380,0.050345,-0.637048,0.769179
0.217222,-0.419108,0.748331,0.378736,0.799055,0.466980
-0.436206,0.297422,0.410162,0.346536,-0.260186,0.901230
0.578448,-0.258075,0.768911,0.224609,0.949670,-0.218351
0.298314,0.328652,0.864209,0.974623,-0.198928,0.102657
0.206423,-0.349214,0.296159,-0.086245,0.319390,0.943690
-0.285313,0.664942,0.528482,0.927680,0.204951,0.312098
-0.440724,0.241162,0.106142,-0.572607,0.289092,0.767168
-0.010633,-0.130826,0.519104,0.791320,0.558149,0.249567
0.320405,0.323227,0.548999,0.823209,0.233747,0.517387
-0.169954,0.386510,0.678320,0.875819,0.480157,0.048899
-0.216561,-0.193972,0.386321,0.829691,-0.365527,0.421904
-0.507218,-0.196890,0.538413,0.653002,0.687002,0.318773
-0.059166,-0.638041,0.083825,-0.201782,0.231064,0.951784
-0.690613,-0.005721,-0.297065,-0.144790,0.087010,0.985629
0.155850,0.041421,-0.422220,-0.402392,-0.875440,0.267741
0.038619,0.142544,0.624623,-0.245690,-0.963117,0.109732
-0.030135,-0.502450,-0.175989,-0.169763,-0.585370,0.792794
0.198821,0.448743,0.725699,0.479202,-0.541418,0.690820
-0.464742,-0.184262,0.082692,0.424377,0.120786,-0.897394
-0.136128,-0.326965,0.706566,-0.681720,-0.369280,-0.631577
0.378636,0.673969,0.227521,0.020417,-0.136087,0.990486
0.312307,-0.139763,0.122317,0.171200,-0.540252,-0.823904
-0.046717,-0.348074,0.325034,0.940202,0.039618,-0.338306
-0.334013,-0.608224,0.254810,0.456750,0.243990,-0.855481
0.082746,0.521052,0.608524,0.310591,-0.558293,0.769312
0.113761,0.864180,0.243418,0.773220,0.056456,0.631620
0.381114,-0.540474,0.248378,0.172004,0.079740,0.981864
0.440944,-0.011512,0.390853,-0.718476,-0.337034,0.608441
0.324482,0.653726,0.223178,0.267550,0.010731,-0.963484
-0.435159,-0.346707,0.099471,0.284891,-0.208753,-0.935553
-0.467938,-0.700686,0.287310,0.137205,-0.990171,0.027120
0.247190,-0.426129,0.483243,0.987548,0.128241,0.091119
0.170835,-0.295233,0.583148,-0.208163,0.395764,-0.894449
-0.543963,0.249687,0.448440,-0.413812,-0.673946,-0.612010
0.076631,-0.283515,0.765525,-0.507689,0.800816,0.317720
-0.304099,-0.163198,0.551365,-0.239992,0.918891,-0.313118
-0.392794,0.085554,0.331340,-0.032504,-0.586123,0.809570
-0.320792,0.464654,0.583853,0.585560,-0.652034,0.481633
0.309773,-0.418697,0.722653,-0.051341,0.839146,0.541478
0.033000,0.776690,0.376730,0.799091,-0.598671,-0.055196
0.000495,0.412588,0.744957,-0.764760,0.552608,-0.331311
-0.493170,0.247498,-0.032947,-0.446749,0.474289,-0.758594
0.443091,-0.054277,0.910668,0.696854,0.698911,-0.160991
-0.519392,-0.631294,0.227319,0.990761,-0.078143,-0.110842
-0.882548,0.078397,0.212630,-0.469805,0.518602,-0.714377
0.239258,0.416691,0.345979,-0.564903,0.049325,0.823682
-0.521705,0.369687,0.281998,-0.486741,-0.614525,0.620840
0.273249,0.061938,-0.049600,0.382555,0.852257,0.356805
-0.205157,-0.415278,0.080867,0.379375,0.179377,-0.907688
0.558837,0.085189,0.048933,0.161269,-0.960946,0.224887
0.436260,-0.071328,0.828839,0.611992,0.776232,0.151423
0.299362,-0.267559,0.776891,0.899034,-0.180478,-0.398956
0.397698,-0.066907,0.910706,-0.324179,-0.751638,-0.574411
0.533881,0.223700,0.721520,0.725891,-0.617257,0.303441
0.563078,-0.675337,0.418583,0.677433,0.364567,-0.638886
-0.126543,-0.099459,-0.210817,0.455521,0.550674,-0.699471
-0.745373,0.059612,0.179563,-0.129135,0.058669,0.989890
-0.092937,-0.092667,0.792625,-0.058130,0.994177,-0.090737
-0.618940,0.545809,0.327262,0.821841,-0.085344,0.563289
0.551510,0.090159,0.740098,-0.446061,0.574962,0.685893
0.673150,0.043199,-0.978690,0.219919,0.016176,0.975384
0.108803,0.129095,0.734938,0.983082,-0.050079,0.176186
-0.166153,-0.559304,0.538526,0.832114,0.389583,0.394729
-0.337924,0.426312,0.561888,0.273909,-0.676521,0.683588
0.413399,-0.093077,0.382117,0.184504,0.199023,-0.962470
-0.697334,0.045251,0.183793,0.130932,0.958217,-0.254316
0.048314,-0.244534,0.717479,0.880667,0.030314,-0.472764
0.002755,-0.124398,0.327917,0.172024,-0.946293,0.273748
0.583132,0.464837,-0.000900,0.354727,0.146485,0.923423
0.087979,-0.351677,0.731640,0.237369,0.820009,0.520808
0.627424,-0.103380,0.126584,0.814131,0.101613,-0.571721
0.397863,0.054279,0.804079,-0.256664,-0.648907,0.716270
0.203614,0.559715,0.369001,-0.302108,0.588952,-0.749578
0.355001,0.055783,-0.550963,0.396278,0.901210,-0.175452
-0.327843,-0.462146,0.196090,0.160217,0.056373,0.985471
0.430146,-0.729774,0.387039,-0.500515,0.614146,0.610171
0.346518,0.725032,0.371380,-0.221278,-0.174415,0.959487
0.626323,0.061025,0.753504,-0.504696,0.304971,0.807635
-0.690007,-0.506508,-0.122254,-0.218234,-0.975850,-0.009473
0.022862,0.152256,0.513226,-0.022294,-0.880761,0.473036
0.570572,-0.247178,0.773656,0.553624,0.776024,-0.302137
-0.535257,-0.138031,0.286933,-0.045015,-0.133074,0.990083
-0.555531,-0.494289,-0.157045,0.305064,0.022020,0.952077
0.518731,-0.845305,0.254294,-0.392812,0.284575,0.874480
-0.164004,-0.681855,0.191672,0.107438,0.963066,0.246902
-0.157394,-0.371281,0.717895,0.162191,-0.985400,-0.051779
0.157227,0.446828,0.549062,-0.574983,-0.812799,-0.093554
0.281292,-0.298561,0.593885,-0.220567,-0.497999,-0.838658
0.517574,0.358926,0.266214,-0.283127,0.505191,-0.815243
0.277490,-0.680351,0.597472,0.544795,0.754391,0.366187
-0.959454,0.208015,0.160267,0.311805,-0.578981,0.753365
-0.126488,0.298425,0.510545,-0.058069,-0.584495,0.809317
-0.500276,0.324002,0.532208,0.188004,-0.894600,0.405395
-0.341616,-0.739302,0.316387,-0.400589,-0.816864,-0.415044
-0.112384,-0.213121,-0.170047,0.113375,0.189449,0.975323
0.582249,-0.253880,0.753139,0.483848,-0.722017,-0.494552
0.438244,-0.275355,0.397096,0.936920,-0.091827,-0.337268
-0.216561,-0.268789,0.084718,-0.362806,-0.054548,-0.930267
0.181027,0.530536,0.400772,0.976436,-0.195682,-0.091001
-0.389875,0.435020,0.175422,0.176938,-0.318575,0.931237
-0.588586,0.479426,-0.079495,-0.703617,0.528128,-0.475399
-0.064787,-0.548316,0.504667,-0.161893,0.632810,-0.757193
-0.499560,-0.420612,-0.039392,-0.307646,-0.030778,-0.951003
0.590679,0.401692,0.260021,0.925115,-0.131126,0.356325
0.287958,-0.005265,0.271677,0.846682,0.384923,-0.367375
-0.110182,0.521098,0.445834,-0.627555,0.727128,0.278315
0.002368,-0.478560,0.641566,-0.128728,0.629191,0.766517
-0.074647,0.102332,0.565677,-0.348714,0.798408,-0.490861
0.472840,0.609046,0.225482,0.010784,0.079452,0.996780
-0.110511,-0.147559,0.309904,0.176081,0.937320,0.300709
-0.428713,-0.061618,0.498675,-0.265145,-0.876893,-0.400946
0.444745,0.015615,0.465055,0.122510,0.990113,-0.068319
0.120814,0.307087,0.480185,-0.510016,0.664262,-0.546479
0.074207,0.445917,0.433876,0.731042,0.424748,0.534011
0.383374,0.031847,0.391872,0.426259,0.886258,-0.181247
-0.182239,-0.086237,0.746304,0.799445,-0.172684,0.575385
-0.539775,0.523196,-0.359548,0.881494,0.465806,0.077408
0.407007,0.456494,0.375408,0.776660,-0.242183,-0.581503
0.241682,-0.076891,0.235073,-0.278652,0.911561,-0.302341
-0.471628,0.033716,0.461971,0.939004,0.302030,0.164466
0.577291,-0.710671,0.416241,0.046854,-0.975304,0.215838
0.533660,-0.711582,0.404321,-0.403657,-0.783517,0.472400
-0.441769,-0.456128,0.003291,-0.035131,-0.989594,0.139534
0.280796,0.078625,0.976487,0.850247,-0.525613,-0.028460
0.182679,-0.079945,0.855284,0.765549,-0.533611,0.359436
0.538894,0.303531,-0.017805,-0.365902,-0.355315,0.860155
0.361172,0.017257,0.526292,-0.206768,-0.967766,0.143793
-0.598392,-0.140630,0.080074,-0.231278,0.610642,-0.757382
0.436040,0.793787,0.491425,0.446346,0.557188,0.700226
0.437308,0.083367,-0.631483,0.371545,0.924445,-0.085761
0.511900,-0.255568,0.626196,0.899360,-0.123835,-0.419305
0.125000,-0.004262,0.740325,-0.645160,0.493745,0.583082
-0.653592,0.558074,-0.035955,-0.632344,0.432885,0.642458
-0.591506,0.339504,0.441680,0.482420,-0.832197,0.273347
0.401995,0.488089,-0.008553,0.679276,-0.045190,-0.732490
-0.521264,-0.313562,0.442561,0.573105,0.481872,-0.662835
0.458572,0.406935,0.681027,0.909964,-0.223720,-0.349162
-0.744437,0.090205,0.260122,-0.315407,-0.450103,-0.835419
0.595252,-0.198075,0.147264,0.792500,0.438233,0.424140
0.297709,0.090387,0.884739,0.882069,0.435552,0.179578
-0.246969,-0.565413,0.159776,0.800183,-0.138591,0.583523
0.408386,0.052318,0.920776,0.779598,0.469155,-0.414874
-0.322719,0.119293,-0.067688,0.191953,0.064080,0.979310
-0.493775,-0.457359,-0.041960,0.460714,0.070515,0.884743
0.131335,-0.249959,0.417538,0.924892,-0.138434,0.354133
0.617123,-0.079763,0.747122,0.542927,0.549530,-0.635017
-0.203945,0.065038,0.739859,-0.631643,0.738844,-0.234811
0.061922,-0.699773,0.354803,0.126265,-0.964477,-0.232039
0.414996,-0.692707,0.403944,0.705847,0.310098,-0.636883
-0.313134,0.233593,0.394151,0.147031,0.984842,-0.092026
0.735016,-0.239382,0.696094,0.809351,0.194888,-0.554048
0.609961,-0.333667,0.649810,-0.639867,0.286798,0.712963
0.109464,0.294368,0.745146,0.754065,0.564087,0.336438
-0.452568,-0.072058,0.331328,-0.628059,0.234754,-0.741912
0.381666,-0.136617,0.864309,0.490986,-0.117172,0.863252
0.173811,-0.522420,0.662498,0.839649,0.401045,0.366269
0.303492,-0.016116,0.724805,0.712847,-0.690888,-0.120513
-0.421607,-0.338500,0.001718,0.467049,-0.674154,0.572173
-0.549746,0.106982,0.258359,0.234789,-0.604840,-0.760949
0.178713,-0.603756,0.332838,0.457663,-0.540788,-0.705757
0.581589,0.289900,0.461379,-0.030885,-0.485828,0.873509
0.561757,-0.040873,0.699278,0.286794,0.210771,0.934519
0.596353,0.007956,0.291451,-0.632704,0.616796,0.468240
0.248733,0.802266,0.234104,0.221083,-0.486863,-0.845036
-0.734740,-0.055645,0.146232,0.521749,0.372412,-0.767520
-0.189897,0.901384,-0.058524,-0.695478,0.617371,-0.367644
0.216506,0.028381,0.820103,-0.448261,0.876160,-0.177214
-0.033165,-0.416463,0.635134,0.979988,-0.198150,0.018974
0.173039,-0.015752,0.705370,0.217832,-0.804411,0.552695
-0.242067,0.294824,0.741483,-0.657393,-0.576130,-0.485704
-0.630729,0.467390,0.291879,0.610731,0.648043,-0.455025
0.526389,-0.026283,0.863202,-0.059535,-0.280563,0.957987
-0.388772,-0.400415,0.091981,-0.041902,0.100971,0.994007
-0.466505,-0.186905,0.537972,0.970962,-0.125857,-0.203455
0.149791,0.050402,0.147944,0.287360,0.800628,0.525756
-0.348061,-0.362436,0.087966,0.134773,0.179179,0.974542
-0.372301,-0.246813,0.469271,0.983242,-0.073795,0.166701
0.503306,0.425446,0.311717,-0.531590,0.712856,-0.457436
-0.305861,0.513575,0.489247,-0.750119,0.190073,-0.633399
0.934553,-0.077666,0.007785,-0.046120,0.009845,0.998887
0.146320,0.084186,0.002071,0.150257,-0.984280,0.092817
0.435435,0.388698,0.663946,0.905758,-0.251931,0.340784
-0.067596,0.576356,0.639426,0.298469,-0.677567,0.672175
-0.079165,-0.464745,0.114185,0.540620,-0.662573,-0.518389
0.493995,0.000160,0.750269,-0.723243,-0.583556,0.369298
0.351807,0.387285,0.385717,0.827484,-0.462129,-0.318916
0.283000,-0.340279,0.505309,0.984444,-0.145694,0.098200
0.147752,0.598924,0.365980,-0.379727,-0.556539,0.738966
-0.515811,0.085053,0.262098,0.855690,-0.443781,0.266181
0.310269,-0.661932,0.333241,0.735281,0.629332,-0.251603
-0.335555,0.024370,0.569201,-0.540927,0.521928,-0.659537
-0.401995,0.040510,0.575180,-0.608081,0.325780,-0.723951
0.433782,0.696036,0.375094,0.562560,0.074414,-0.823401
-0.610457,-0.566098,-0.032179,0.751684,0.277972,0.598082
0.000221,-0.177057,0.732471,-0.368977,-0.499049,0.784096
-0.062858,-0.023822,-0.177121,-0.167697,0.698960,0.695221
-0.134035,-0.078806,0.803073,-0.061483,0.997969,-0.016678
0.390812,-0.014794,0.885380,0.960451,0.254635,-0.112671
-0.028812,-0.729592,0.085713,0.921503,0.194886,0.335935
-0.276389,-0.552146,0.330170,0.464096,-0.227399,-0.856099
-0.274020,-0.310416,-0.198885,0.259424,0.337507,0.904869
0.550849,-0.123988,0.845403,0.571346,0.808804,-0.139284
-0.386018,0.694987,0.057089,-0.172300,0.723888,0.668056
-0.307404,0.440811,0.561057,-0.678870,0.640489,-0.359041
0.242507,-0.451614,0.619613,0.685293,0.345722,0.640975
-0.465513,0.751613,-0.016747,0.726626,0.373692,-0.576514
-0.022533,-0.493833,0.676004,-0.203726,-0.973373,0.105072
-0.024350,-0.395581,0.443971,0.955859,-0.287812,-0.059148
-0.255839,-0.154763,0.546179,0.661120,-0.648836,0.376738
0.042420,0.345431,-0.044842,0.730204,0.571326,-0.374686
-0.378525,-0.744591,0.300426,0.054632,0.948144,0.313112
-0.672047,0.558074,-0.225784,-0.181879,-0.095448,0.978677
-0.596409,-0.143456,0.108571,-0.173254,0.927726,0.330616
0.125440,-0.101511,0.882007,0.436308,0.896908,0.072047
0.311811,-0.044566,0.251134,-0.757422,0.435213,0.486725
-0.419458,0.354504,0.287914,0.081167,-0.605155,0.791959
-0.173148,-0.565914,0.306959,-0.573675,0.575627,0.582710
0.152656,0.343699,0.328949,0.405491,0.488000,-0.772938
-0.383814,-0.177194,0.251902,0.998600,0.011603,0.051600
0.410314,-0.165112,0.492910,0.906703,-0.406567,0.112218
0.033329,0.291039,0.754939,0.764946,0.628598,0.140438
-0.285698,0.113730,0.337735,0.422345,-0.662648,0.618484
0.333462,0.092713,0.001038,-0.086754,-0.936692,0.339236
-0.226973,0.300568,0.268027,-0.013636,-0.339240,0.940601
-0.645769,-0.058791,0.316638,-0.498579,-0.017561,-0.866666
-0.653868,0.110266,0.256245,0.595420,-0.706098,-0.383276
0.233528,-0.439806,0.557923,-0.084236,0.893322,-0.441451
-0.400452,0.265097,0.490355,-0.454479,0.730729,-0.509396
0.384916,0.317985,0.754322,-0.036507,0.387286,0.921236
0.373347,-0.031253,0.822583,0.705425,0.667862,0.237355
0.584509,-0.023001,0.420433,0.883959,0.178411,-0.432188
0.453284,-0.628832,0.385277,0.794802,-0.188616,-0.576813
-0.353845,-0.467800,0.194190,0.548327,0.313587,0.775242
-0.173480,0.257301,0.704892,0.965418,-0.160235,0.205652
0.799141,0.022682,0.820997,0.307636,-0.948796,-0.071735
0.195900,0.691248,0.376604,-0.525823,0.160320,-0.835349
0.369381,0.213896,0.895488,0.620543,-0.783432,-0.034065
-0.858969,-0.110994,0.341800,0.770919,0.088807,0.630711
0.303492,0.300157,0.556400,0.721039,0.145009,0.677550
-0.317872,-0.128958,0.468680,0.893804,-0.438367,0.094602
0.301730,-0.210294,0.783915,-0.586922,-0.705455,-0.397311
-0.049306,0.487816,0.175548,-0.192791,0.302572,-0.933425
0.422654,-0.031755,-0.976940,-0.198803,-0.210014,0.957273
-0.133318,-0.116282,0.518034,-0.184755,0.784944,-0.591378
0.562086,0.062713,0.418117,0.899204,-0.067130,-0.432349
0.006169,0.326601,0.742125,0.964342,0.226091,0.137580
-0.582029,0.220098,0.109427,0.579080,0.139606,0.803229
-0.476862,0.189961,-0.038825,-0.274498,0.318647,-0.907257
0.294789,0.075661,0.976411,0.518594,0.853883,-0.044087
0.397587,-0.029110,0.625555,0.393662,0.912100,-0.114474
-0.619821,0.146421,0.184938,0.505839,0.626237,0.593257
-0.179594,0.414822,0.675199,-0.712373,-0.275358,-0.645525
0.123403,0.780701,0.398531,0.731588,0.369289,0.573066
0.237934,-0.102012,0.895010,0.999305,-0.036860,0.005478
-0.033494,-0.100371,0.731514,0.538101,0.762759,-0.358672
0.478129,0.407892,0.788459,0.490343,-0.714196,0.499487
-0.406402,0.426084,0.295744,0.218565,-0.195065,0.956127
0.264103,0.096543,0.841728,0.762891,0.004777,0.646509
-0.145494,0.498804,0.660056,-0.518008,-0.283777,-0.806931
-0.060158,0.331479,0.315078,0.542938,-0.650308,-0.531336
-0.399406,-0.451706,0.001819,0.986607,0.149732,-0.064705
0.021485,0.446646,0.438735,0.603034,0.795682,0.056922
0.335555,-0.294640,0.747575,0.514752,-0.855095,0.061992
-0.314622,0.306541,-0.042992,0.679208,-0.285659,0.676073
0.540051,0.593361,0.462285,-0.485090,-0.356392,0.798544
0.437087,-0.052727,0.854303,0.475315,0.584488,0.657609
0.282944,-0.757539,0.389204,0.739205,0.575881,0.349195
-0.492674,-0.326874,0.439238,-0.313925,-0.713154,0.626788
0.287406,0.354048,0.671511,0.558154,0.127284,0.819917
-0.502258,0.322498,0.534045,0.030921,0.921245,-0.387753
-0.622246,0.471539,0.308054,0.711285,0.642360,-0.285388
-0.313078,0.916292,0.012392,0.398930,-0.427057,0.811466
0.134751,0.197712,-0.546003,0.035507,-0.512816,0.857764
-0.815723,0.058336,0.282338,-0.713535,-0.645143,-0.273237
0.158715,0.060753,0.097343,0.101558,0.853800,0.510600
-0.301619,-0.786308,0.308155,0.298192,0.854450,0.425437
0.031788,-0.210705,0.186788,-0.290019,0.955621,0.051738
0.151829,0.736021,0.383263,0.845530,0.107231,0.523049
-0.052943,0.576949,0.645254,0.267000,-0.717191,0.643699
0.509365,-0.577540,0.435877,0.967075,-0.219119,-0.129433
0.451521,0.481251,0.434430,-0.487384,0.488342,-0.723864
-0.342661,0.312696,0.134174,0.969208,-0.041970,-0.242641
0.256115,0.128092,-0.992611,0.349491,-0.096399,-0.931967
0.111338,-0.125902,0.775418,0.945901,-0.289955,-0.145595
-0.556632,0.359474,0.300237,0.184132,-0.186169,0.965109
-0.302006,-0.668497,0.254369,0.514883,-0.285529,-0.808312
-0.268455,0.202636,-0.424121,0.302340,0.139998,0.942863
-0.387891,0.084871,0.331126,-0.213725,0.438273,-0.873063
0.272312,-0.662389,0.314549,-0.265317,-0.948535,0.172880
0.108859,0.002075,0.567326,-0.183745,0.350090,0.918518
-0.751048,0.324777,0.141374,0.417970,0.691680,0.588964
0.382106,0.074384,0.126722,0.213910,0.960592,0.177500
0.285369,-0.586203,0.642849,0.650612,0.658020,0.379097
-0.224824,-0.748329,0.292433,-0.678276,-0.494959,-0.543099
-0.380785,0.179384,0.128459,0.472738,0.837413,0.274334
-0.223777,0.078442,-0.058638,-0.019823,0.618436,0.785585
-0.214853,-0.312421,0.083044,0.277878,0.107018,0.954637
-0.122026,0.515034,0.460649,0.369814,-0.700553,0.610298
-0.443642,-0.044794,0.186373,0.671029,-0.632957,0.386116
0.080817,-0.411311,0.769679,0.787803,-0.504159,0.353822
-0.651334,0.662663,-0.485798,0.906356,0.187803,-0.378484
-0.244711,0.228806,0.551617,-0.408245,-0.883769,-0.228668
-0.313574,0.224337,0.564859,0.760225,-0.647440,0.053663
0.133154,0.697586,0.382231,-0.641466,0.184404,-0.744659
-0.185985,0.166071,0.548118,0.621586,0.604678,0.497991
-0.368776,0.277817,0.493716,0.244498,-0.606688,0.756407
0.234960,0.682403,0.373621,-0.377875,0.085922,-0.921861
0.093268,-0.658422,0.313378,-0.058541,-0.928385,0.366980
0.736779,-0.262907,0.699945,0.668667,0.544294,-0.506585
0.354561,-0.034673,0.919051,-0.092579,0.646063,0.757649
-0.272201,0.335128,0.040097,0.223306,-0.315932,-0.922129
-0.717057,0.240523,0.331139,-0.303195,-0.934895,-0.184508
0.243940,0.891582,0.219163,-0.221625,0.367902,0.903067
0.035258,0.346023,0.317998,-0.300936,0.759774,0.576351
0.310490,-0.695624,0.291552,0.162545,-0.979848,-0.116088
0.026058,0.179247,0.594200,0.316329,0.948510,-0.016259
0.335501,0.003762,0.099320,-0.535632,-0.057042,0.842523
-0.062142,-0.114732,0.696509,-0.390252,0.699928,-0.598167
-0.261625,0.600702,0.518651,0.947138,0.219425,0.234058
0.221739,-0.518772,0.635561,0.258242,0.570169,0.779884
0.019668,0.447011,0.172993,0.375862,-0.094824,0.921811
0.454275,-0.032484,0.103159,0.167255,-0.006518,-0.985892
0.554375,-0.416827,0.669925,-0.689062,0.627040,0.363338
-0.608253,0.184809,0.297544,0.613473,0.136268,0.777870
0.317872,-0.005265,0.935553,0.315542,0.652953,0.688539
-0.756391,-0.203502,0.078236,0.623209,-0.675135,0.394719
0.498624,0.592997,0.450000,0.535620,0.479105,-0.695391
-0.262174,0.043245,0.619425,0.765976,-0.096875,0.635528
-0.482095,-0.482663,-0.050469,0.410976,-0.052551,0.910130
0.306633,0.472498,0.550661,0.748489,0.519158,-0.412602
0.311261,0.004583,-0.465797,0.782429,-0.622530,0.016185
-0.501762,-0.055417,0.162004,0.754280,0.656054,-0.025590
0.203725,0.323546,0.680246,-0.409660,-0.213308,-0.886949
0.098062,-0.383728,0.744668,-0.001188,-0.871455,0.490474
0.106490,0.695580,0.181426,0.415870,0.195704,-0.888117
0.530244,0.642238,0.367504,-0.218346,0.113035,-0.969303
0.516693,0.677754,0.460032,0.175004,-0.093219,-0.980145
-0.803714,-0.227666,0.096500,-0.399810,0.757109,-0.516660
0.120427,0.886384,0.245634,0.773220,0.056456,0.631620
0.188024,-0.460459,0.530307,0.666666,0.350780,-0.657655
0.423039,0.322817,-0.025458,-0.361773,-0.306470,0.880452
-0.376598,-0.020539,0.552536,-0.476518,0.407847,-0.778840
-0.531291,-0.098730,0.092976,-0.176937,0.928521,-0.326407
0.120647,-0.565049,0.620872,0.950441,0.259397,-0.171392
-0.504627,0.190099,0.400558,-0.057598,-0.645099,0.761925
0.169954,-0.314199,0.149656,-0.232299,-0.465260,0.854149
0.409872,-0.012149,0.248415,0.091541,-0.991616,0.091199
0.066329,-0.695169,0.287650,-0.569945,-0.729658,0.377838
0.052832,0.602937,0.623364,0.911905,-0.137230,0.386779
0.460611,0.095265,0.497177,0.261014,0.951694,0.161708
-0.440393,-0.201221,0.546154,-0.135325,0.056669,0.989179
0.444249,-0.066907,-0.984316,-0.198407,-0.125634,0.972034
0.592221,0.057880,-0.026855,-0.295583,0.464447,0.834817
0.268291,0.229764,0.817435,-0.953846,0.054535,0.295304
-0.179815,-0.574212,0.302792,0.540103,0.075406,-0.838214
-0.017023,-0.394670,0.621212,0.884485,-0.463105,-0.056740
-0.502149,0.174003,-0.041229,0.216644,-0.340933,0.914784
-0.044457,0.164201,0.573028,0.924513,-0.086733,0.371151
0.089688,-0.095721,0.810700,0.950767,-0.297812,-0.085736
0.646045,-0.018761,0.002335,-0.320974,0.349211,0.880356
0.142133,-0.214261,0.776085,0.584565,0.593755,-0.552937
-0.413288,-0.669318,0.178795,0.551997,-0.595315,0.583866
0.423204,-0.059019,0.910366,0.444948,0.788823,0.424004
-0.476586,-0.139398,0.515190,-0.687310,0.496364,0.530310
-0.602579,0.584562,0.297556,0.420712,0.032193,-0.906623
-0.174472,0.682860,0.177184,0.911742,0.297342,-0.283398
-0.220416,0.464472,0.532787,-0.587356,-0.284096,-0.757827
-0.556853,-0.037180,0.300728,0.916944,-0.371969,-0.144402
0.163344,0.617389,0.376566,0.011109,-0.467101,0.884134
-0.723336,0.340827,0.112196,-0.428922,0.552105,-0.714987
0.079385,-0.213576,0.272143,-0.150481,0.588845,0.794114
0.830983,-0.403971,0.659200,0.300607,-0.031668,0.953222
-0.585666,-0.114960,0.209357,0.619245,0.345526,0.705087
-0.588806,0.615292,0.326998,-0.703190,-0.468459,-0.534856
-0.414169,-0.109079,0.108697,0.050988,-0.922408,0.382837
0.389379,0.358517,0.767791,-0.694670,-0.317487,0.645473
-0.019777,0.012880,0.005683,0.466761,-0.882148,0.062836
-0.277875,0.662981,0.151683,-0.359636,0.696999,0.620366
-0.007713,0.285705,-0.481468,-0.165944,0.202120,0.965200
-0.685324,-0.075021,0.110233,0.503232,0.318316,-0.803388
-0.537186,0.790459,0.223493,0.802532,-0.271288,0.531361
-0.638443,0.326055,0.476861,0.845697,0.533623,-0.006529
-0.475760,-0.219686,0.075517,0.596668,0.095793,-0.796750
-0.025562,0.386099,-0.456181,0.795088,0.184411,-0.577779
0.406842,0.872798,0.229346,-0.270504,0.600955,0.752117
0.505619,0.419428,-0.990711,-0.063403,0.067486,0.995704
-0.494876,0.262408,0.498209,-0.665867,0.556592,-0.496816
0.614312,-0.309959,0.698976,0.517535,-0.227970,0.824734
-0.340348,-0.284838,0.279531,-0.048369,-0.399378,0.915509
0.133374,0.569518,0.743396,0.811037,-0.413881,0.413426
-0.098391,-0.552191,0.070684,0.419363,0.814004,0.401911
-0.111834,-0.422801,0.479656,0.443832,-0.862915,0.241640
0.396815,0.278638,0.535959,-0.676392,-0.616179,-0.403507
0.241791,-0.229534,0.577849,0.002988,0.709726,0.704471
0.598391,-0.651217,0.435399,0.409777,0.707593,-0.575669
0.059994,0.244308,0.656582,-0.436162,-0.890201,0.131552
-0.329385,0.125265,0.324556,0.284915,-0.844510,0.453460
-0.204165,-0.225978,0.630640,-0.510962,-0.859118,0.028865
-0.034982,-0.313424,0.482085,-0.110924,0.352087,0.929371
0.559444,-0.065401,0.429584,0.930790,0.194415,-0.309569
-0.392629,-0.342604,0.284226,0.677610,0.173379,0.714692
0.224934,0.250325,0.200710,0.029534,-0.420395,0.906860
0.246033,-0.127043,0.891473,0.943948,0.325885,0.052546
0.122355,-0.640686,0.327665,0.949602,0.304510,0.074370
0.260522,-0.591948,0.535795,-0.091869,0.886843,0.452846
0.241791,0.040554,0.095443,-0.542159,0.397877,0.740107
-0.339191,0.353273,0.535556,0.407317,-0.754060,0.515254
0.228130,-0.015980,0.835611,-0.707522,0.700472,0.093552
0.439401,0.280416,-0.024904,0.411324,0.175368,-0.894460
-0.445682,-0.133517,0.539936,0.687874,0.474507,0.549248
-0.554375,-0.157134,0.546318,0.815062,-0.339816,0.469254
-0.335281,-0.520459,-0.050292,-0.307503,0.290964,0.905970
-0.359078,0.495476,-0.116778,-0.168093,-0.115446,0.978988
0.626874,0.414548,-0.012304,-0.261481,0.519154,-0.813700
-0.043741,-0.139945,0.767413,-0.068901,0.707196,0.703653
0.286746,0.679942,0.364382,0.009005,-0.049539,0.998732
-0.507988,-0.414411,0.467283,0.044266,-0.998658,-0.026889
-0.041319,0.175052,0.549440,-0.311741,0.946668,0.081477
-0.681248,-0.009232,0.182710,0.257028,0.785305,-0.563234
0.567927,-0.049764,0.199099,0.013613,0.995006,-0.098878
0.376488,-0.010235,-0.482551,0.998986,-0.042106,0.015920
0.073491,-0.207695,0.698900,-0.189715,0.260406,0.946677
0.486779,-0.295598,0.623591,-0.725646,0.370842,0.579581
0.609685,-0.519182,0.463481,0.889974,-0.058371,-0.452261
