0.450409,-0.020483,0.830494,-0.391059,-0.862949,-0.319986
-0.082099,0.720356,0.707557,-0.799458,0.037127,-0.599573
0.182019,0.199044,-0.965856,0.229391,-0.048598,0.972120
0.108527,-0.124469,0.671455,0.923246,-0.055714,0.380149
-0.312430,0.649441,0.810938,-0.079303,0.128938,0.988477
0.034906,0.364575,0.660080,-0.207879,-0.528548,0.823057
0.164894,0.728032,0.449911,-0.473121,0.441849,-0.762185
0.292470,0.073280,0.805929,0.130508,-0.181980,0.974603
-0.003108,0.079082,0.717983,0.497996,-0.817658,0.288851
0.483519,0.242335,0.790627,-0.476337,-0.857305,-0.195270
-0.366133,-0.038023,0.516842,0.847528,0.092232,0.522676
-0.749160,-0.306600,0.266327,0.465716,0.028065,-0.884489
0.380721,0.043513,0.880695,-0.317089,0.587878,0.744214
0.218301,0.239255,-0.243180,-0.790487,-0.608574,-0.069054
0.177114,-0.196591,0.223226,0.962307,0.201116,0.183079
0.245110,0.234346,0.182176,0.615528,-0.788007,0.013041
0.218936,0.270362,-0.048089,0.705667,0.708543,-0.000171
-0.106667,-0.289197,0.158050,-0.422863,0.212908,0.880828
0.211620,0.115722,0.920235,-0.534204,-0.466805,-0.704784
0.374802,0.843575,0.753382,0.298488,-0.951523,0.074220
-0.193649,-0.084972,0.488544,0.395046,0.396748,-0.828571
-0.159693,-0.134199,0.581325,-0.384242,0.263817,-0.884736
-0.164598,-0.554559,0.748679,0.676833,0.510603,0.530266
0.151109,0.166289,-0.974017,0.229391,-0.048598,0.972120
0.310950,0.054046,0.605125,-0.005621,0.537137,0.843476
0.185910,0.137592,0.589517,0.908692,0.416910,-0.021550
0.175127,0.072879,0.479312,0.501119,-0.041215,0.864396
-0.196820,-0.408622,0.583141,0.558426,-0.253688,0.789812
-0.034611,-0.526576,0.730725,0.732951,-0.641478,0.226469
0.220923,-0.363726,0.779171,-0.166301,-0.482704,0.859849
-0.458189,-0.314633,0.285985,-0.504521,-0.490791,0.710340
0.168489,0.466997,0.825077,-0.389732,0.898054,0.203982
-0.319703,-0.024591,0.795513,-0.181606,0.344736,0.920965
0.247902,0.694827,0.729715,0.860300,-0.284377,0.423101
0.175931,0.234123,0.345827,0.354814,0.933454,-0.052638
-0.409349,-0.055429,0.340359,0.174315,0.787068,-0.591725
0.213693,0.192485,0.476629,0.671241,0.179586,0.719156
0.360086,0.158700,0.804644,0.061653,0.541311,-0.838559
0.394677,0.874370,0.743823,-0.145123,0.815173,-0.560743
-0.399243,0.305531,0.664926,-0.519286,0.122208,-0.845818
0.626741,0.528899,0.775498,0.413613,-0.803114,0.428873
-0.290018,-0.598608,0.398517,0.271418,-0.528411,0.804434
-0.352432,-0.874548,0.527829,-0.093449,0.968053,0.232680
0.164218,-0.810282,0.294197,0.104974,-0.192923,0.975583
-0.200837,0.600974,0.795218,-0.668408,-0.705720,0.234925
0.360213,0.129156,0.729888,0.072946,-0.773211,0.629940
-0.301435,-0.091848,0.598168,-0.569020,-0.552972,0.608636
-0.026196,0.066051,0.148920,0.155642,-0.718036,0.678381
0.163161,0.236533,0.181819,0.345311,0.938201,0.023211
0.196820,0.716651,0.277365,0.986837,0.057042,-0.151322
-0.306595,-0.031017,0.497215,-0.173566,0.762748,-0.622968
-0.788739,0.206140,0.490441,0.331422,-0.096155,-0.938570
0.378142,0.090196,0.928509,-0.217372,0.704077,0.676036
-0.149460,0.367029,0.187348,-0.755453,-0.647129,-0.102540
0.318054,0.313207,-0.789107,0.555385,0.830674,0.039081
-0.232256,-0.787254,0.506192,0.498744,0.734881,-0.459569
0.180582,0.749586,0.765328,-0.509907,0.386182,0.768673
-0.382244,-0.378231,0.780079,0.787897,-0.447985,0.422526
0.054781,-0.445665,0.527319,-0.625140,-0.718675,-0.304477
0.274668,0.577543,0.180432,0.909333,0.114448,0.400019
0.139015,-0.005267,0.236243,0.653561,0.140533,0.743712
-0.007040,0.645200,0.803695,0.540634,-0.466508,-0.700061
-0.196524,-0.215468,0.795197,-0.478699,-0.650770,-0.589361
0.389729,-0.352969,0.765746,0.108008,-0.139853,-0.984264
-0.620695,-0.314009,0.190133,-0.058425,0.073109,0.995611
0.013256,0.598430,0.770530,0.306970,-0.058929,-0.949893
0.259868,-0.330611,0.815192,-0.455415,-0.822536,-0.340635
-0.382582,0.012629,0.519056,0.236089,0.150892,-0.959945
0.131658,0.246130,0.871728,0.780659,0.541850,-0.311400
0.003362,0.837953,0.419470,0.841249,0.404385,-0.358849
-0.697613,-0.546033,0.241058,-0.653709,0.421958,0.628184
-0.621624,0.047574,0.464428,-0.694706,-0.399607,-0.598079
0.425968,-0.181953,0.854131,0.843015,-0.116200,-0.525190
0.158678,0.788503,0.747394,0.201274,0.948202,-0.245768
-0.281392,-0.524299,0.539296,-0.195576,0.645687,0.738132
-0.290568,-0.797117,0.295972,-0.273587,-0.465068,0.841939
-0.157028,-0.151962,0.306674,-0.146074,-0.202402,0.968347
0.534008,0.291426,0.485871,-0.078898,-0.608920,0.789298
0.351882,-0.322712,0.785822,0.013589,0.989823,0.141651
0.504958,0.206140,0.750005,-0.157856,-0.986816,-0.035703
0.048438,-0.651447,0.214800,0.754036,0.021934,-0.656467
0.300843,0.063417,0.427958,-0.689809,-0.672679,0.267708
-0.378522,-0.003124,0.388101,-0.397870,0.416207,-0.817601
-0.210225,-0.920249,0.280650,-0.202424,-0.533114,0.821470
-0.453496,-0.598205,0.248628,-0.555267,0.293302,-0.778237
0.508086,0.146472,0.732367,0.714039,-0.467826,0.520852
0.221980,0.752980,0.784108,0.783078,-0.612299,-0.108989
0.429647,0.889901,0.424357,0.697463,-0.403953,0.591918
-0.303888,0.037041,0.799451,0.167515,0.257135,-0.951746
0.008858,0.082250,0.571104,0.324948,0.008333,0.945695
-0.468930,-0.251751,0.248148,0.953952,-0.023212,0.299061
-0.925153,-0.192930,0.320191,-0.059290,-0.496585,0.865961
0.727847,-0.014461,0.603115,-0.132586,0.911268,0.389887
0.061420,0.375462,0.535725,0.723989,0.442693,0.529021
0.252045,-0.429106,0.725899,-0.098469,0.994011,-0.047383
-0.585935,-0.637435,0.462959,-0.502829,0.777468,0.377765
-0.079984,0.527825,0.511885,0.859989,0.409923,0.303945
-0.831785,-0.294996,0.286240,0.923183,0.382232,-0.040407
-0.342029,-0.526399,0.578275,0.931074,0.208225,0.299572
-0.289257,-0.642433,0.569859,-0.682129,0.450908,-0.575658
-0.253568,-0.092025,0.659090,0.058938,0.954414,0.292608
0.147853,0.730933,0.673423,-0.076226,0.781037,0.619815
-0.291794,-0.149195,0.777620,0.977848,-0.200544,0.059964
-0.179567,-0.116616,0.486453,-0.490621,-0.470967,0.733131
0.332304,-0.328024,0.500745,-0.181334,0.721585,0.668156
0.184346,0.814612,0.765654,0.382684,0.840287,0.384019
-0.661923,-0.610389,0.454145,0.103699,0.748188,0.655333
-0.579466,-0.080867,0.397058,0.265925,0.449005,0.853041
-0.469099,-0.488330,0.623988,-0.623877,-0.292373,-0.724773
-0.036303,-0.567814,0.581407,0.461954,0.097777,-0.881498
-0.636424,-0.114429,0.406423,-0.298297,0.719894,0.626715
-0.212889,-0.231490,0.747230,-0.542871,0.200563,-0.815516
-0.376747,0.016423,0.805011,0.402160,0.846081,0.349878
-0.669069,0.026867,0.523259,0.913049,-0.291520,-0.285231
-0.104341,0.317758,0.754586,-0.449043,-0.449356,0.772295
-0.341396,-0.342082,0.600086,0.380153,-0.400914,-0.833518
-0.236357,-0.301558,0.514986,0.286450,-0.872618,-0.395581
0.024801,-0.228099,0.798349,0.904411,-0.283064,0.319243
0.712031,0.780426,0.699916,0.914331,0.057914,-0.400805
0.551769,0.158433,0.853080,-0.638719,-0.526653,0.560959
0.365202,-0.489757,0.514251,0.307044,-0.942251,0.133744
-0.466690,-0.433524,0.613041,0.342947,0.712872,0.611720
-0.517009,0.113804,0.514343,0.482356,0.425800,0.765524
-0.443728,-0.337974,0.449697,-0.571321,0.751101,-0.330816
0.290018,0.666980,0.751035,-0.678179,-0.317524,-0.662760
-0.076685,-0.466819,0.550946,-0.111476,-0.962533,-0.247192
0.721715,0.316331,0.806378,-0.555281,-0.829270,0.063037
-0.183035,-0.270897,0.838104,0.356081,0.689375,0.630847
0.404232,1.000000,0.450860,-0.658725,0.508444,-0.554587
-0.046536,0.390370,0.818691,0.834442,-0.238093,-0.497010
0.122270,0.402865,0.857691,-0.578646,0.815205,-0.024677
0.280842,0.021825,0.862230,0.019706,0.716892,0.696906
0.222106,0.766769,0.722125,-0.220778,-0.973930,0.052139
0.184684,0.478288,0.827281,0.203913,-0.958187,-0.200743
-0.312853,-0.567991,0.420541,0.519195,-0.648386,0.556806
0.266169,0.441425,0.547946,0.921896,-0.385924,0.034199
-0.076432,0.387913,0.528268,0.744822,0.389977,-0.541441
0.721462,-0.083812,0.766276,0.584175,0.005588,-0.811609
0.098251,0.705047,0.693275,-0.186872,-0.023122,-0.982112
-0.094530,-0.778641,0.491104,0.267459,-0.715261,0.645652
0.331543,-0.077520,0.417369,0.972915,0.085296,0.214849
0.368332,-0.454098,0.739283,-0.408328,0.907532,0.098254
-0.265873,-0.168518,0.313284,-0.370701,0.370495,-0.851654
-0.041588,0.149773,0.431304,0.421173,0.069902,-0.904283
0.225152,-0.461910,0.806511,-0.245626,-0.929627,-0.274703
-0.550162,0.030525,0.463040,0.517910,0.834688,0.187257
0.552191,0.947829,0.670312,0.213163,-0.971869,-0.100162
0.171829,0.211051,0.272489,0.741832,-0.668846,0.048268
0.462841,0.233366,0.767633,-0.730665,-0.668158,0.140337
-0.968200,-0.343999,0.300808,-0.584034,0.519569,-0.623661
-0.174704,0.512653,0.787046,-0.696678,-0.146885,0.702185
-0.015371,0.327622,0.779569,0.161090,-0.404544,0.900219
0.031862,-0.686438,0.738498,-0.569726,-0.767806,0.293065
0.145400,-0.211229,0.583172,-0.309404,0.909897,0.276326
0.248409,-0.437052,0.795993,-0.681177,-0.640636,-0.354378
0.423515,0.215603,0.865138,-0.486050,-0.867770,0.103588
0.406769,-0.239523,0.807337,-0.391763,0.451795,0.801500
0.118549,0.107645,0.927550,-0.342330,0.934392,0.098596
0.551600,0.312133,0.748934,-0.516006,-0.770380,0.374504
-0.371630,0.307538,0.555751,-0.430765,-0.605498,0.669189
0.169884,-0.434731,0.702263,0.416221,0.907598,-0.055017
0.211663,0.178516,0.875441,0.853525,-0.422312,-0.305201
0.122396,0.431562,0.817181,0.623688,-0.394436,0.674858
-0.514980,-0.437722,0.471712,0.184522,-0.482945,-0.855988
0.709960,-0.207168,0.654051,-0.583110,0.531010,0.614827
-0.082859,-0.349221,0.481780,0.463969,-0.240696,0.852525
0.659048,0.175525,0.798441,0.763959,-0.525791,0.374046
-0.447280,-0.017138,0.532624,0.290477,-0.286384,0.913021
0.441698,0.598743,0.725297,-0.258388,0.570944,0.779268
-0.759984,-0.208282,0.388417,0.285037,0.132664,-0.949291
-0.129078,-0.291337,0.839349,-0.441814,-0.587196,-0.678234
-0.003320,-0.164860,0.810795,-0.026551,-0.526556,0.849726
0.533289,0.703933,0.742262,-0.386356,-0.181099,0.904396
-0.009239,-0.852188,0.456767,-0.113934,-0.756450,0.644052
-0.360763,0.163611,0.769622,0.728235,-0.071215,0.681617
0.389560,-0.375687,0.626885,0.078651,0.780710,0.619924
-0.736304,-0.034364,0.548406,-0.041951,0.977034,0.208914
0.181681,0.364618,0.456389,0.344175,0.145419,0.927576
0.150983,-0.473781,-0.196958,0.830035,-0.550204,-0.091198
-0.416834,0.322443,0.673148,-0.538574,0.548669,0.639453
-0.286720,-0.363012,0.445627,0.729771,-0.641099,0.237542
-0.128486,-0.750881,0.384051,0.197161,0.464937,0.863111
0.125526,0.114161,0.799553,0.993475,0.071977,-0.088468
0.335306,0.048645,0.472456,0.318276,0.158411,0.934669
0.314629,-0.617128,0.746700,0.948928,0.014464,0.315162
0.001670,-0.172936,0.794677,0.163652,-0.965693,0.201631
-0.234624,-0.105323,0.134546,-0.559274,0.463205,-0.687498
-0.111403,0.400321,0.659703,0.024813,-0.356617,0.933921
-0.276318,-0.251350,0.236050,-0.092935,-0.278874,0.955820
-0.878174,-0.269647,0.282894,0.992603,0.019471,0.119837
0.321352,-0.441603,0.519311,0.821551,0.018815,-0.569824
0.388333,-0.148347,0.798819,0.464332,-0.406268,0.786983
0.171067,0.126165,0.636066,-0.908145,0.044894,-0.416242
0.469141,-0.102335,0.817314,-0.514467,-0.844178,-0.150627
-0.124342,-0.823091,0.473640,-0.140297,0.903746,-0.404426
0.161300,0.758112,0.801247,0.189832,0.898104,-0.396703
-0.579847,-0.432944,0.465744,0.093536,0.146841,0.984728
0.146077,0.306645,0.816804,0.691689,0.556420,0.460395
-0.012623,0.332707,0.530002,0.368509,0.447905,-0.814606
0.050468,0.702503,0.770928,0.078098,-0.185493,0.979537
0.357929,0.164502,0.390305,0.442918,-0.849241,-0.287425
-0.507960,-0.265408,0.286404,0.076229,0.003051,0.997086
-0.317885,0.049002,0.812182,0.969816,0.231362,0.076995
-0.573673,-0.077833,0.397446,0.527320,0.301325,0.794441
-0.101127,0.313117,0.903679,-0.306598,-0.935072,0.177871
0.038333,-0.289820,0.172964,-0.280560,-0.171783,0.944339
-0.040235,-0.413040,0.728643,0.806797,-0.586209,-0.073739
-0.390490,-0.014461,0.194652,-0.499008,0.269602,0.823593
-0.195594,-0.642747,0.784067,0.083986,0.905961,0.414947
0.073684,0.337305,0.531777,0.226580,0.769733,0.596802
0.659809,0.608113,0.467192,-0.545198,-0.353488,-0.760135
0.309343,0.050565,0.921766,-0.308816,0.929202,0.203018
0.685561,0.737492,0.731245,0.817371,-0.238636,0.524364
-0.299490,-0.504262,0.550262,-0.132842,0.805167,0.577978
0.406686,-0.441560,0.807714,0.907183,0.227329,0.354033
0.315601,-0.047796,0.836309,0.949098,0.115769,0.292934
-0.034654,0.638774,0.787352,-0.688675,-0.066357,0.722027
-0.663362,-0.163520,0.528115,-0.580553,0.074890,-0.810771
0.249677,0.210515,-0.259625,-0.739484,0.602888,-0.299482
0.602301,-0.048600,0.643166,-0.023543,-0.812499,0.582487
0.093854,-0.972330,0.455287,0.521635,0.838207,0.159078
-0.295685,-0.383586,0.600382,-0.265705,0.072726,-0.961307
0.210521,0.641808,0.773213,0.308899,-0.270767,-0.911738
-0.480686,-0.148124,0.315569,-0.032273,-0.496155,0.867634
-0.619341,-0.136030,0.408943,-0.300021,0.836489,0.458556
0.418018,-0.220957,0.859935,0.689850,-0.720105,-0.074534
-0.083028,-0.171776,0.785271,-0.127287,0.965293,-0.228053
-0.837494,-0.050920,0.402607,-0.350586,-0.727575,-0.589681
0.264858,0.462712,0.574674,0.194481,-0.953485,0.230310
0.015667,-0.027715,0.511364,0.740568,-0.198858,-0.641884
0.104299,0.044763,0.432997,-0.008648,-0.275644,0.961221
-0.335645,-0.072568,0.803695,0.499115,0.786262,-0.364248
-0.402583,-0.386934,0.417042,-0.318160,0.821078,0.473925
-0.148995,0.317935,0.505509,-0.287424,-0.809037,0.512686
-0.284690,0.283483,0.757972,0.363909,0.916568,0.165751
-0.041800,-0.364350,0.179238,-0.103622,0.270677,0.957077
-0.296953,-0.270273,0.595311,-0.092459,0.617471,0.781141
-0.648814,-0.685455,0.262451,0.528441,-0.004825,0.848956
-0.165190,0.580177,0.594424,0.321743,0.668082,0.670930
-0.009239,0.316821,0.183553,0.181709,0.982440,-0.042355
0.172083,0.221538,0.229235,-0.340920,0.936321,0.084120
0.550034,0.242692,0.743945,0.824488,0.330692,0.459198
0.400131,-0.347167,0.512293,0.214045,-0.066193,-0.974578
0.387994,0.568840,0.855610,0.168590,-0.861504,0.478945
-0.046832,-0.455751,0.431753,-0.331465,-0.715704,0.614735
-0.334630,0.042799,0.847887,-0.764438,-0.281268,-0.580106
0.352051,-0.430490,0.722818,-0.374886,0.826969,0.419025
0.354842,-0.133619,0.392559,0.788528,0.552006,-0.271132
-0.215383,0.068685,0.803073,-0.036994,0.844895,0.533651
0.179102,0.693936,0.723237,0.477574,0.285963,0.830751
0.138677,-0.351095,0.582611,0.056353,0.119230,-0.991266
0.010466,-0.528497,0.435089,0.804697,-0.029075,-0.592973
-0.005688,-0.235284,0.517281,-0.272963,0.439993,0.855510
0.221219,0.388450,-0.911595,0.141279,0.989671,0.024304
-0.080619,0.421655,0.529523,-0.893077,0.439454,0.096402
0.472397,0.273800,0.763328,0.514677,-0.717909,-0.468737
0.294458,0.337262,0.866984,0.041044,-0.999108,0.009910
0.280419,0.256840,0.877186,0.745199,-0.666842,-0.000177
-0.118930,-0.246395,0.815508,0.432445,0.900805,0.039261
0.118802,0.392244,0.861598,-0.462401,0.861508,0.209736
-0.241516,-0.322309,0.838023,0.596861,-0.348145,-0.722878
-0.383132,0.137592,0.803981,-0.716397,-0.436151,-0.544562
-0.033892,-0.292945,0.670679,0.962267,0.244470,0.119485
0.198976,-0.055652,0.515129,0.777349,0.108076,0.619716
-0.319322,0.052483,0.511385,0.596087,-0.658595,0.459274
0.388587,0.731379,0.721268,-0.577453,0.786081,-0.220512
-0.250988,-0.386307,0.320150,0.239525,0.149087,0.959375
0.321226,-0.101041,0.479434,0.253543,0.600783,0.758139
-0.262786,0.381398,0.676810,0.377488,-0.522827,0.764300
0.477091,0.664659,0.724002,-0.390702,0.067995,-0.918003
-0.135970,-0.558487,0.752005,0.712462,-0.700295,-0.044545
0.296361,0.284377,-0.221472,0.840785,0.524338,-0.134722
0.144681,0.826840,0.768806,-0.183154,-0.922281,0.340372
-0.130600,-0.592583,0.706537,0.464532,0.884089,-0.050953
-0.047636,-0.189942,0.699916,0.077302,-0.935572,0.344571
0.092881,-0.767930,0.747485,0.276637,-0.252909,0.927097
0.269383,0.104208,0.340859,-0.690018,-0.486780,0.535650
0.607586,-0.211050,0.756116,-0.417317,-0.063889,-0.906512
0.175762,0.254830,0.851784,-0.099244,-0.335211,0.936901
0.080957,-0.191279,0.908698,0.864431,-0.147560,0.480609
0.127555,0.160487,0.729439,-0.045420,0.996081,0.075890
0.412733,0.205783,0.781385,-0.601920,0.798546,0.004209
-0.225067,-0.355693,0.853365,-0.008081,0.369246,0.929297
0.292894,0.130673,0.811499,0.335255,-0.340257,0.878538
0.295600,-0.476859,0.495052,0.775271,0.046277,-0.629931
0.310485,-0.019236,0.846337,-0.657150,-0.546011,0.519640
0.828615,-0.185434,0.667272,-0.253102,0.596419,0.761724
-0.236485,-0.176954,0.590670,0.786726,0.353169,-0.506294
0.991416,-0.202927,0.661100,0.981327,-0.092577,0.168600
0.047043,0.342037,0.866015,-0.166475,0.603863,0.779510
0.267988,0.321953,0.790719,-0.648318,0.665948,0.369049
0.407911,-0.328647,0.817130,0.323335,-0.937807,-0.126383
-0.092078,0.014192,0.868637,0.165467,0.622762,0.764715
0.517558,0.327889,0.755840,0.694406,0.554851,0.458192
0.199654,0.224976,0.139024,-0.344641,0.916855,0.201491
-0.096222,0.649307,0.729674,-0.705994,0.058462,-0.705801
-0.132460,-0.560895,0.745098,-0.503546,-0.128555,-0.854351
-0.011988,-0.402150,0.450707,0.169815,-0.739807,0.651037
0.340382,0.026823,0.873513,-0.253077,0.735426,0.628570
-0.378691,0.019057,0.849611,0.892494,-0.300696,-0.336209
0.636341,0.364128,0.399659,0.244173,0.169979,-0.954718
0.167473,0.176866,0.624783,0.941042,0.274584,0.197596
0.190266,0.129066,0.806409,-0.299266,-0.433582,0.849969
0.528384,0.243942,0.478924,0.056980,0.674644,-0.735940
0.596423,-0.087786,0.766766,0.088334,-0.817007,0.569822
-0.377761,-0.723835,0.398221,0.218132,0.916639,0.334951
0.473454,-0.017852,0.607359,0.052519,0.392410,0.918290
-0.440133,0.002855,0.397945,-0.037299,-0.259010,0.965154
-0.192338,0.294327,0.655714,-0.047450,-0.583680,0.810596
-0.062605,-0.153569,0.802736,0.023409,-0.914332,0.404288
0.551811,-0.088723,0.726562,0.513082,-0.661457,-0.547011
0.193183,-0.328604,0.839920,0.415509,0.876789,-0.242061
0.659935,0.636497,0.723981,-0.521752,0.272320,-0.808466
-0.456159,-0.502254,0.442893,-0.664025,0.260913,-0.700711
-0.247859,-0.131745,0.699070,-0.486016,0.063523,0.871638
0.338816,0.659081,0.390509,-0.231898,0.337810,-0.912199
0.528046,0.122730,0.708434,-0.282895,0.353560,0.891608
-0.109796,-0.207301,0.795636,-0.295464,0.855412,0.425406
0.436835,0.082029,0.605809,0.171099,0.794559,0.582582
0.106370,0.038648,0.933569,0.895491,-0.293770,-0.334359
-0.218386,-0.051637,0.847194,-0.180872,-0.692540,0.698337
-0.176650,-0.063908,0.691276,-0.115755,0.543630,0.831305
0.146499,0.143258,0.778406,-0.327870,0.388897,-0.860965
-0.497938,0.032042,0.536807,-0.003779,0.415729,0.909481
-0.283464,-0.218726,0.307347,-0.146971,-0.160058,-0.976105
0.563735,-0.152452,0.626436,0.234248,0.268683,0.934311
0.328245,-0.339091,0.828525,0.002217,0.859710,0.510778
-0.260334,0.104654,0.793106,0.504061,0.760506,0.409332
0.022771,-0.655198,0.712688,0.373527,-0.264279,-0.889176
-0.344483,-0.594010,0.503203,-0.208865,-0.840286,0.500295
0.470495,0.261839,0.772928,0.020698,0.850650,0.525324
0.328287,-0.071317,0.690113,0.745018,0.661378,-0.086764
0.038459,0.741823,0.695877,-0.619015,-0.731741,-0.285264
-0.269932,-0.287456,0.309326,0.020847,0.212445,0.976951
0.136901,0.463560,0.820252,-0.277274,0.960543,0.021830
0.157325,0.139823,0.301930,0.841757,-0.419473,-0.339835
0.258261,-0.202973,0.840736,0.091058,-0.498745,0.861953
-0.155676,0.419334,0.865005,-0.151821,-0.909926,-0.385986
0.253611,-0.133172,0.820925,0.940284,-0.039871,0.338049
-0.306890,0.349533,0.708537,0.910707,-0.370163,0.183280
-0.024082,-0.079037,0.825669,0.984240,-0.101818,-0.144583
0.036726,0.056768,0.879226,-0.359451,0.201367,0.911179
0.068101,-0.057393,0.680340,0.903139,-0.034485,0.427962
-0.583695,-0.588075,0.476863,0.892491,-0.424060,-0.153732
0.096433,-0.124739,0.523739,-0.133570,0.012395,0.990962
0.190139,0.130273,0.720850,0.918395,0.096451,0.383728
-0.221937,-0.443834,0.310877,0.609019,-0.204924,0.766226
-0.435609,0.209264,0.723808,-0.533322,0.778525,-0.330857
0.394084,0.723747,0.733061,-0.223798,0.945647,-0.235937
0.331289,-0.265675,0.774703,0.835896,0.500504,-0.225329
0.272681,0.283260,0.876176,0.663299,-0.688886,-0.292354
0.097406,0.010308,0.878624,0.245273,0.964903,-0.093825
-0.315728,-0.298970,0.605727,-0.333979,-0.001922,-0.942579
0.130092,0.383585,0.814682,0.553929,0.359252,0.751066
0.510497,0.230151,0.433864,0.083994,0.994234,0.066655
-0.207646,-0.482304,0.678473,0.971858,-0.168167,0.164962
0.574645,0.141430,0.806000,-0.937700,0.291951,0.188369
-0.395141,-0.487482,0.429141,-0.499608,0.013306,-0.866149
0.438950,0.596866,0.726511,-0.152921,0.268920,0.950945
-0.642429,-0.002009,0.391896,-0.242696,0.000686,-0.970102
-0.497262,-0.208238,0.594710,0.635835,0.080631,0.767602
0.240840,-0.110858,0.405525,-0.761933,0.233300,-0.604176
0.154915,-0.198509,0.465377,0.849660,-0.458770,0.260017
0.066663,-0.425938,0.308459,0.085286,-0.102238,-0.991097
0.188743,0.169590,0.976761,0.964917,-0.134994,0.225194
-0.275514,-0.299817,0.772009,0.830238,0.292290,0.474627
0.201132,-0.179229,-0.080673,0.889952,-0.083934,0.448265
0.392942,-0.014951,0.800563,0.547832,-0.230555,0.804192
-0.106539,0.165708,0.807704,0.891747,-0.450751,-0.040122
0.411633,0.483376,0.800798,0.595141,0.129605,0.793101
-0.657610,-0.404784,0.189144,0.205219,-0.101920,0.973395
-0.475907,-0.212924,0.290525,0.423258,0.515926,-0.744764
0.064253,-0.429062,0.517954,0.710863,0.627398,0.317877
0.015202,-0.496809,0.068176,-0.729625,0.654350,-0.198681
0.264013,0.299326,0.688899,-0.350306,0.931602,0.096968
0.149714,-0.050476,0.822221,-0.281875,-0.626507,0.726660
-0.609743,0.312804,0.467651,0.134277,0.896722,0.421734
0.008606,-0.652387,0.574888,-0.579465,-0.295183,0.759663
-0.076474,0.222742,0.869484,0.479005,-0.747688,0.459910
-0.213650,0.492213,0.732908,0.787948,0.292993,0.541566
-0.256739,0.289909,0.804521,0.958420,-0.236377,0.159868
-0.555786,-0.113269,0.383878,0.280401,-0.400140,0.872504
0.249128,0.298032,-0.092751,-0.327224,-0.939134,-0.104654
0.277629,0.083590,0.861200,-0.004130,0.782717,0.622365
0.085693,0.377336,0.862894,-0.385201,0.921437,-0.050736
-0.133434,-0.239836,0.712872,0.027007,0.337307,0.941007
0.247606,0.084617,0.843531,-0.590547,0.343588,0.730206
0.034273,0.739636,0.771652,-0.720603,0.684780,0.108664
0.448253,-0.033070,0.825710,-0.362650,-0.906851,-0.214723
-0.691312,-0.573126,0.256850,-0.555052,0.150201,0.818142
0.503181,0.126435,0.840114,-0.162734,-0.932073,0.323664
0.554770,0.168830,0.845480,0.839450,0.300317,-0.452918
0.053724,0.454590,0.014476,0.274538,0.413174,0.868284
0.660866,0.085421,0.694601,0.388061,-0.030913,-0.921115
-0.282027,-0.648325,0.498266,0.167118,-0.670147,0.723170
-0.109542,-0.090864,0.888958,-0.692162,0.448946,-0.565118
-0.025308,0.502746,0.495899,0.712867,0.587059,0.383644
0.678922,-0.401126,0.733775,0.860669,0.456974,0.224553
-0.760661,-0.440086,0.193694,-0.324305,0.464589,0.824004
0.293739,0.306645,-0.266950,-0.694209,-0.711086,-0.111494
-0.264392,-0.255232,0.590476,0.365476,-0.512319,-0.777147
-0.105355,0.625920,0.817548,0.202348,0.700319,0.684550
0.319322,0.900789,0.640595,-0.125916,-0.953623,0.273403
0.004841,0.661445,0.781334,-0.458567,-0.880238,-0.122057
0.567498,0.573748,0.485137,-0.434776,0.304471,-0.847507
-0.833477,-0.274335,0.321170,0.151532,-0.165007,0.974582
-0.043491,-0.063328,0.498429,0.420333,0.335203,-0.843184
0.036134,0.141830,0.569247,0.017536,0.168976,0.985464
0.440556,-0.098273,0.835095,0.404737,-0.754134,-0.517174
0.692497,0.339806,0.710087,0.190564,-0.838860,0.509901
-0.186248,0.499799,0.827984,0.043419,0.062246,0.997116
-0.204474,0.357746,0.661529,0.172988,-0.328304,0.928597
-0.400300,0.305084,0.548079,0.495431,0.849057,0.183439
-0.064295,-0.033248,0.301971,0.224076,-0.035054,0.973941
0.313444,-0.100995,0.825924,0.963645,0.262365,-0.050529
-0.109796,0.171464,0.852917,0.870581,-0.475022,-0.128228
0.083578,0.007497,0.858935,-0.115388,-0.885565,0.449956
0.281011,0.794171,0.775182,0.457218,0.744406,0.486632
0.355011,0.609407,0.875564,-0.459504,0.777944,-0.428556
-0.227773,-0.198509,0.594006,0.804805,0.054893,-0.590995
-0.001205,-0.027802,0.513262,0.758009,-0.202028,-0.620168
0.644501,-0.173340,0.791627,0.207445,0.949755,0.234377
0.599636,0.562457,0.476680,0.321856,-0.029340,0.946334
-0.463856,-0.531708,0.628925,0.677265,0.362863,0.640034
0.438527,0.202035,0.737845,0.075839,-0.570236,0.817973
0.372096,0.651628,0.723461,0.509586,0.798971,0.319323
-0.554475,-0.149595,0.503142,0.257363,0.673132,-0.693295
0.426179,-0.212523,0.357018,0.980144,0.083632,-0.179788
0.359875,-0.423527,0.768204,-0.244252,-0.582766,0.775064
0.035246,-0.349311,0.170200,0.207420,-0.054744,-0.976719
-0.230818,-0.415048,0.740742,0.800534,0.386707,0.457824
-0.766074,-0.183424,0.386969,-0.113141,-0.241678,0.963738
0.124595,-0.728166,0.731408,0.191742,0.830527,0.522934
-0.405079,0.150310,0.745904,0.218736,0.684175,0.695744
-0.181850,-0.446645,0.735029,0.862212,0.378011,0.337193
0.167854,0.144151,0.655887,0.110315,-0.947163,0.301186
-0.188278,-0.334136,0.704385,0.981886,0.184532,0.042987
0.381059,0.231848,0.757105,0.466982,-0.776516,-0.423025
0.313868,0.008657,0.342470,-0.716245,-0.178479,0.674639
0.301690,0.598787,0.798941,-0.605257,-0.645219,-0.466216
-0.550415,-0.530148,0.487993,0.512992,-0.758244,-0.402375
0.091740,-0.039763,0.799767,0.986357,0.146049,-0.075960
0.403090,0.726471,0.747220,-0.708437,0.031012,-0.705093
-0.202360,-0.277012,0.511079,-0.094999,0.886763,0.452357
-0.019684,-0.374303,0.464571,-0.514229,0.616040,-0.596710
0.137196,0.990984,0.273172,0.954554,0.142323,-0.261860
0.037529,-0.226091,0.660855,-0.718811,0.235870,-0.653969
0.368501,0.491142,0.767500,0.302000,0.338423,-0.891216
0.324270,-0.132235,0.838665,-0.420725,-0.402608,0.812956
-0.439372,-0.034454,0.792300,0.095033,-0.781770,0.616282
-0.167050,-0.692374,0.546467,-0.163818,-0.112379,0.980069
0.201260,0.173248,0.811499,-0.274907,-0.775517,0.568331
0.300759,-0.118000,0.791157,0.887266,0.459405,-0.041300
0.635579,-0.152496,0.746853,0.770968,0.626487,0.114553
-0.701334,0.203552,0.351478,-0.601599,-0.469591,0.646192
0.127472,0.216940,0.825577,0.305878,0.602371,0.737284
0.252722,0.265854,0.086120,0.245895,0.966051,-0.079254
0.287608,-0.088767,0.823649,-0.292368,0.801664,-0.521398
-0.275811,0.388540,0.835962,-0.120301,0.640130,0.758790
-0.316109,-0.012674,0.827454,0.754298,0.016742,0.656319
-0.315728,-0.001339,0.760553,0.840248,-0.251342,0.480427
0.273146,0.309769,-0.193714,0.954518,0.242212,0.173865
0.243715,-0.348328,0.308571,-0.669533,0.151577,-0.727152
-0.600821,-0.028742,0.553017,0.091404,0.520113,0.849193
-0.467197,-0.011783,0.328474,0.061006,-0.718382,0.692968
0.058757,-0.437185,0.576929,-0.445368,0.725794,0.524282
0.367020,-0.234524,0.866168,-0.445173,-0.880409,0.163405
0.380933,0.449234,0.765889,-0.144590,-0.395881,0.906847
0.050637,0.255767,0.826760,0.961070,0.041196,-0.273217
0.248494,0.796806,0.463102,0.953810,-0.085153,0.288091
-0.081380,-0.578658,0.289831,-0.193789,0.268300,0.943642
-0.465040,-0.436381,0.476720,0.292668,-0.545941,-0.785044
-0.441698,0.003929,0.164518,0.400613,-0.319511,-0.858733
0.246507,0.049672,0.809581,-0.375817,-0.112239,0.919872
0.271793,0.159146,0.818895,0.076533,-0.963087,0.258082
0.148953,-0.361405,0.780405,0.052733,-0.002792,-0.998605
0.208364,-0.244298,0.837768,0.591211,-0.400249,-0.700193
-0.061589,0.036284,0.820762,-0.517954,-0.793609,0.319231
0.650168,-0.006338,0.757952,-0.688513,-0.605837,-0.398638
-0.288031,-0.301735,0.783017,0.009008,-0.974090,0.225983
-0.280968,-0.291024,0.400088,-0.486403,0.796322,0.359559
0.112629,0.759942,0.813131,0.158879,-0.948744,0.273206
0.076516,-0.060560,0.837747,-0.297294,0.942729,0.151257
-0.164556,-0.283571,0.703987,0.472703,0.178024,0.863052
-0.106117,-0.516356,0.411728,0.379658,0.819089,-0.430062
0.531387,-0.092918,0.615704,0.139240,0.510271,0.848667
-0.394253,-0.276163,0.478393,0.440284,0.445321,-0.779641
-0.893312,-0.203687,0.303246,0.929195,0.280105,-0.241119
-0.282110,0.220468,0.808010,0.654003,0.568136,-0.499502
0.493625,0.584728,0.496848,0.949615,-0.306127,-0.067209
0.476372,0.035703,0.805103,0.220769,-0.278762,-0.934640
0.512315,-0.089884,0.837390,0.171187,-0.976859,-0.128223
0.230945,0.745124,0.720064,-0.300890,-0.828165,0.472872
0.574264,0.612442,0.485534,0.541374,0.796770,0.268461
0.032919,-0.262374,0.796146,0.894927,-0.221659,0.387264
-0.651351,-0.421787,0.184380,0.229454,-0.055641,0.971728
0.410280,-0.175303,0.783843,-0.143636,0.743669,0.652936
0.378184,0.024146,0.814325,0.527541,-0.394575,0.752337
-0.901854,-0.061811,0.409850,-0.324092,-0.707822,-0.627656
0.137282,0.842682,0.538704,0.906552,0.369449,-0.204136
-0.209464,-0.589012,0.773478,0.849177,-0.502193,-0.163402
0.235469,0.314767,-0.205343,0.882101,0.466515,-0.065288
0.100874,0.666043,0.754137,0.174481,0.859002,0.481323
0.156268,-0.121568,0.306133,0.036582,-0.008651,0.999293
-0.731441,-0.139241,0.383725,-0.172553,0.561899,-0.809008
-0.411252,0.329362,0.770347,0.623743,0.744520,0.237979
0.070850,0.303877,0.656173,0.281552,0.455495,-0.844543
0.498573,0.584995,0.780966,0.627257,0.745977,-0.223755
-0.198088,-0.178068,0.749709,-0.340888,0.729620,-0.592832
-0.062520,-0.164146,0.792800,-0.315754,-0.589747,0.743302
0.029030,0.422948,0.503387,0.589185,0.729160,0.348118
0.668731,0.507788,0.482474,0.868207,0.313193,0.384871
-0.000486,-0.516133,0.057719,-0.724392,0.684313,0.083497
0.188997,0.192528,0.983188,0.902963,-0.366109,0.224995
-0.389348,0.403758,0.726797,0.725994,-0.398765,0.560285
0.151997,0.195832,0.332687,0.281534,0.959417,0.016062
0.670761,-0.193467,0.797941,0.914299,0.396984,-0.080377
-0.459246,-0.487169,0.619132,-0.641608,-0.322174,-0.696092
0.191915,-0.431873,0.673444,-0.544515,0.468312,0.695835
0.580734,0.499175,0.764552,-0.143063,0.900240,-0.411219
0.173901,0.224616,-0.978087,-0.189240,0.020038,-0.981726
-0.395141,0.266344,0.777182,0.853548,0.303805,0.423271
-0.253230,-0.052304,0.803430,0.827488,0.140003,0.543749
-0.390362,-0.509083,0.615786,-0.318765,-0.656253,-0.683901
-0.203374,-0.015398,0.886010,0.950345,-0.117064,0.288341
0.697740,0.363234,0.396446,0.363147,-0.057328,-0.929966
-0.182189,-0.894453,0.279242,-0.145978,-0.522504,0.840048
0.079603,-0.110591,0.808683,-0.666821,-0.133396,-0.733181
-0.279742,-0.677155,0.545264,0.793904,-0.429569,0.430334
-0.030636,-0.306199,0.667864,0.972506,0.187424,0.138217
0.534431,0.136162,0.788128,0.634434,0.356604,0.685803
-0.676766,-0.215871,0.308051,-0.204588,-0.467719,0.859874
0.228534,-0.064622,0.873391,0.923097,0.330969,-0.195834
0.016343,0.445663,0.842215,0.127043,-0.551933,0.824154
0.016471,-0.016425,0.305654,-0.238696,0.598250,0.764932
-0.646912,-0.567234,0.259095,0.206256,0.135203,-0.969112
0.204050,0.100059,0.920235,-0.407870,-0.511629,-0.756226
0.383513,0.801044,0.626630,0.255831,0.746270,-0.614518
0.589360,0.521356,0.735968,-0.680594,0.449148,0.578841
-0.789880,0.160887,0.505886,0.466224,-0.529221,-0.708915
0.070005,0.157006,0.830178,0.637654,-0.592315,0.492504
0.009705,0.716027,0.794146,-0.552508,0.752705,-0.358009
0.195298,-0.400722,0.772938,0.239333,0.970797,-0.016551
-0.408292,0.350873,0.769959,0.487401,0.792314,0.366987
-0.685434,-0.095506,0.545845,-0.005434,-0.872406,0.488752
0.480981,-0.324185,0.633026,-0.435122,0.637884,0.635432
0.136774,0.345651,0.563922,-0.517401,-0.712237,0.474357
-0.065099,-0.305573,0.837339,0.355152,0.338304,0.871446
0.169630,0.617797,0.400679,0.828089,-0.560332,-0.017205
0.176734,0.109653,0.888958,0.351608,0.614838,0.705936
-0.228831,0.409827,0.861537,-0.004234,-0.839150,0.543884
-0.065480,-0.030123,0.818885,-0.694998,0.189319,0.693639
0.311119,0.755165,0.705741,0.724176,-0.684532,-0.083578
0.272512,-0.157630,0.433293,-0.203136,0.421439,0.883813
0.307482,0.674433,0.704701,0.353483,0.902041,-0.247734
0.227223,0.249341,0.712821,0.851414,-0.433988,0.294530
0.108104,0.825813,0.735101,-0.419646,-0.906435,0.047669
0.677780,-0.127281,0.782496,0.771420,0.452866,0.447016
0.192422,0.694693,0.784170,0.196515,0.781637,-0.591968
-0.083663,-0.468469,0.736458,0.293015,0.922357,0.251792
-0.388882,0.034186,0.787301,0.918297,0.112120,0.379685
0.102987,-0.258089,0.448952,-0.756087,0.487070,-0.437145
-0.289807,0.097825,0.107757,-0.361855,0.548043,0.754129
-0.111572,0.068505,0.877532,-0.729825,0.039624,-0.682485
0.225405,0.484670,0.817763,0.079492,0.996574,0.022824
0.329218,0.290892,-0.312325,0.423188,0.905765,-0.022375
-0.701207,-0.445531,0.295054,-0.182201,-0.747426,0.638872
0.382878,-0.039853,0.469069,0.728778,0.266673,0.630689
-0.030341,-0.048020,0.854824,0.289549,-0.900032,0.325736
-0.049411,0.347793,-0.063147,0.326593,0.689716,-0.646242
-0.136944,-0.204267,0.798390,-0.265337,-0.962378,0.058522
0.429266,0.195162,0.400282,-0.263772,0.964585,-0.000193
0.198807,-0.286116,0.314376,-0.254020,-0.065058,-0.965008
-0.517009,-0.037399,0.523871,-0.762639,0.556562,-0.329576
-0.048438,0.325031,0.480189,0.760225,0.071169,0.645750
0.219655,-0.022224,0.603422,0.923418,-0.355509,-0.144611
-0.350825,-0.338688,0.596179,-0.618718,0.327567,0.714065
0.092585,0.222208,0.526860,0.092284,0.148725,0.984563
0.283464,0.298612,-0.945739,0.799580,0.530715,-0.281094
0.305960,0.439371,0.556750,0.879402,-0.474741,-0.035669
-0.284395,-0.311821,0.743038,0.554712,0.813152,0.176289
0.442755,-0.505022,0.452808,0.104884,-0.988443,-0.109448
0.679895,0.513903,0.761665,0.434326,-0.871194,0.228871
0.282322,0.472619,0.815661,-0.135168,0.860746,-0.490761
-0.471129,-0.728834,0.558862,0.842170,-0.446158,0.302808
-0.727889,-0.297897,0.273927,-0.317172,0.057421,0.946628
-0.225702,0.328469,0.854243,0.897195,0.401095,-0.184834
-0.591601,-0.285849,0.185992,-0.162720,0.264332,0.950606
0.106201,0.825992,0.652000,0.276343,-0.841673,-0.463919
0.133772,0.543581,0.262043,0.982733,-0.138588,-0.122591
-0.129712,-0.234124,0.825597,0.365831,0.867340,0.337474
0.415142,0.229974,0.796666,0.621792,-0.767659,-0.155161
0.149122,0.074173,0.895477,0.051967,0.454420,0.889271
-0.082099,-0.066185,0.805235,0.554880,0.792533,0.252981
-0.479756,-0.056412,0.391294,0.174231,-0.768814,0.615279
-0.474808,-0.751595,0.401291,0.846216,-0.241942,0.474745
-0.300167,0.629090,0.781966,-0.527746,0.323696,-0.785306
-0.260334,-0.287900,0.595067,-0.618507,0.012199,-0.785684
0.109246,-0.064355,0.005998,0.127088,-0.344446,0.930164
0.330274,0.678494,0.756095,0.974546,-0.220818,0.038730
0.228492,0.310439,0.694928,0.572221,-0.464450,-0.675906
0.302746,0.437453,0.127833,0.939370,-0.193733,0.282935
-0.006871,-0.560538,0.461082,0.979800,0.048685,0.193964
0.398566,0.160040,0.814172,0.783131,-0.006519,-0.621822
-0.231790,-0.532735,0.686532,0.840376,0.526452,-0.128904
0.214664,0.378586,0.837094,0.975941,0.205569,-0.072666
-0.222106,-0.319364,0.458603,-0.122054,0.001324,-0.992523
-0.347146,-0.400322,0.460368,0.038802,-0.775798,0.629787
0.353700,0.538359,0.815325,0.988435,0.117273,0.096143
0.367148,0.594412,0.590201,0.188936,-0.654061,0.732466
-0.711948,0.072656,0.494961,-0.383542,-0.060125,0.921564
0.441233,0.847147,0.740844,-0.042953,-0.752123,0.657622
0.010043,0.717365,0.752045,0.146837,-0.926117,-0.347486
-0.120367,-0.324899,0.539245,0.212967,0.485173,0.848088
0.041631,0.002188,0.451299,0.562814,0.093102,-0.821324
0.215552,0.263623,0.757717,-0.229175,0.536562,0.812146
-0.584709,0.184005,0.362322,-0.583037,-0.592145,0.556267
0.406643,-0.100951,0.854508,-0.062190,0.903276,-0.424529
0.111317,0.145401,0.779283,0.954434,-0.297627,0.021769
-0.162780,-0.397108,0.573032,-0.531492,-0.842153,-0.091079
0.372644,0.700942,0.733183,0.812178,-0.434783,0.389012
0.468423,-0.571696,0.736978,0.883419,-0.379726,0.274553
-0.380638,0.205739,0.777192,-0.664525,-0.163584,-0.729141
-0.003615,-0.165974,0.690613,0.882690,-0.052165,0.467051
-0.027000,0.547865,0.588895,0.711900,0.290139,0.639545
0.636424,-0.192930,0.741416,0.129655,-0.991173,-0.027687
-0.092711,0.330880,0.813529,0.366545,0.924180,0.107404
-0.128952,-0.456865,0.727684,0.005166,0.981501,-0.191386
0.071273,-0.329494,0.464775,0.852446,-0.196586,0.484448
-0.271413,-0.030259,0.672240,-0.548402,0.826960,0.124065
-0.191408,-0.491051,0.479883,-0.521905,0.475205,0.708375
-0.079012,0.294864,0.642421,-0.582414,0.109728,-0.805453
0.629617,0.511939,0.479271,0.011209,0.253359,0.967307
-0.694948,-0.645691,0.263491,-0.034689,0.270898,0.961983
-0.094741,0.781944,0.718279,0.462155,-0.668232,-0.582991
0.491088,0.011248,0.599117,0.214637,0.619152,0.755369
0.106201,0.100192,0.758452,-0.222248,0.969767,0.100781
0.637059,-0.091935,0.776345,0.749981,-0.190298,-0.633494
0.537899,0.213729,0.785771,0.987746,0.141886,0.065004
-0.166543,0.304547,0.829433,-0.365481,0.879763,0.304043
-0.262364,0.067167,0.794963,0.020184,0.031542,0.999299
-0.175339,-0.530237,0.753249,0.829745,0.524366,0.191213
0.430873,-0.430580,0.742854,0.562490,-0.801228,-0.204057
-0.401103,-0.753112,0.569431,-0.533321,0.700736,0.473855
0.162442,0.802428,0.783231,0.402695,0.199293,0.893375
0.157156,-0.796046,0.710628,-0.620293,0.037949,-0.783452
0.241262,0.246844,0.068584,0.797819,-0.602007,0.032753
0.125442,-0.071094,0.889050,0.715987,-0.117383,-0.688174
0.303930,-0.427768,0.685196,0.149351,0.439933,0.885524
0.130135,-0.317356,0.829872,-0.388380,0.032348,0.920931
0.252722,0.751240,0.677688,0.075749,0.517970,0.852038
0.669788,0.216273,0.758176,-0.490904,-0.028441,0.870749
-0.442248,-0.477663,0.611103,0.633360,0.625349,0.455845
-0.234327,0.209488,0.423326,-0.014166,-0.549942,0.835082
0.013511,-0.652297,0.712841,-0.621596,-0.141440,-0.770462
-0.536968,-0.403937,0.155908,0.498624,-0.534023,0.682784
0.231579,0.326328,-0.492257,0.653278,0.754825,0.058882
0.244941,0.309993,0.839441,-0.259535,-0.894631,0.363698
0.255851,0.315214,-0.442128,0.502676,0.861719,0.068968
-0.004038,-0.813273,0.464387,-0.440503,-0.867290,0.231873
0.274626,0.695274,0.526432,-0.711543,-0.702621,-0.005562
0.310188,0.693176,0.819874,0.932725,0.288693,-0.216056
0.057319,-0.134600,0.651847,0.943885,-0.149097,0.294706
-0.825697,-0.352836,0.296870,0.177059,0.889130,-0.422017
0.231749,0.659081,0.500561,-0.210892,-0.770070,0.602094
0.313529,0.545544,0.782068,0.320128,-0.899037,0.298749
0.551726,0.169367,0.781895,0.939390,0.027967,0.341709
-0.000274,-0.646585,0.719880,-0.677935,0.383278,-0.627298
-0.787217,-0.208195,0.392835,-0.505777,0.498052,-0.704367
0.283633,0.345695,0.852845,0.194181,0.961409,-0.194901
-0.711990,0.324184,0.512915,0.544573,0.128586,-0.828798
-0.505803,-0.516179,0.640779,-0.644180,-0.323990,-0.692865
0.221727,-0.145000,0.834656,-0.457892,0.120416,0.880815
0.095165,0.808810,0.734581,-0.032250,0.792023,0.609638
0.215468,0.008391,-0.095546,0.989988,-0.010758,0.140739
0.128909,0.251572,0.879563,0.549605,0.051237,-0.833852
0.198046,-0.124069,0.557526,0.907796,-0.170314,-0.383275
0.099351,-0.170706,0.134974,0.951070,-0.308879,-0.007718
0.010169,-0.024144,0.826444,-0.567233,0.812532,-0.134306
0.348119,-0.452180,0.515057,0.524249,-0.008984,-0.851518
-0.284098,-0.241086,0.298604,0.010177,0.305812,0.952037
-0.503690,-0.458652,0.629823,0.569147,0.484279,0.664489
-0.257669,-0.421430,0.694489,0.702395,0.124895,0.700745
-0.311964,-0.136207,0.495848,0.354368,-0.221709,0.908443
0.132249,-0.612353,0.614521,-0.578260,-0.503773,-0.641738
-0.184135,0.372561,0.859660,0.936124,-0.023912,0.350857
0.499630,0.084170,0.726909,0.886527,0.386970,0.253622
-0.251581,-0.261524,0.253525,0.802151,0.468345,-0.370413
0.040615,0.732630,0.807286,-0.593644,0.803670,-0.041243
0.169757,0.758246,0.801400,-0.269702,-0.888396,0.371502
0.059476,-0.738387,0.719217,0.415598,0.798669,0.435207
-0.458739,-0.452581,0.443760,0.728147,-0.089867,0.679504
0.238175,-0.160218,0.817681,0.397574,-0.288746,-0.870954
0.523310,0.684964,0.697397,0.318519,0.758057,0.569118
-0.349049,-0.355200,0.603167,0.129963,-0.026000,0.991178
-0.814702,-0.206541,0.267694,-0.333265,0.859051,0.388543
0.406643,0.973804,0.429131,-0.596225,0.544658,-0.589800
0.046577,-0.354399,0.073776,-0.439840,-0.283674,0.852098
-0.160666,0.350427,0.824526,-0.484573,-0.151846,0.861471
0.157282,0.054580,0.939322,-0.229196,0.418373,0.878882
0.313782,-0.020263,0.827587,0.979673,-0.172443,0.102492
0.094065,0.069532,0.880981,0.880942,-0.108165,-0.460697
0.197412,0.723524,0.686644,-0.081060,0.781563,0.618537
-0.536883,-0.127281,0.311030,-0.704239,0.341712,0.622319
-0.043407,0.411434,0.796615,0.708458,-0.702767,-0.064857
-0.312049,0.118356,0.767317,0.434411,-0.103454,0.894754
-0.076221,-0.045522,0.853039,0.675406,0.457663,0.578248
-0.277291,-0.136520,0.579408,0.762294,0.399827,-0.508966
-0.717445,0.340920,0.516873,0.491350,0.170489,-0.854113
-0.345328,-0.047796,0.763634,-0.733578,0.594259,-0.329726
-0.526101,-0.621546,0.492624,0.808754,-0.424832,0.406737
-0.223291,-0.760121,0.497062,-0.417452,0.195937,-0.887323
-0.260037,-0.569822,0.552649,0.809193,0.539473,0.232757
-0.190308,-0.272728,0.743089,-0.689192,-0.305845,-0.656867
0.223967,-0.047842,0.822496,-0.115362,-0.714112,0.690460
0.093685,-0.031463,0.522545,-0.343617,0.184714,0.920765
0.273611,0.863882,0.674801,0.196636,-0.473517,-0.858555
-0.133941,0.142321,0.422368,0.180385,0.600963,-0.778655
-0.310231,-0.373233,0.522300,-0.253739,0.412424,0.874942
-0.782226,-0.498683,0.191633,0.438574,-0.482632,-0.758102
0.436032,0.646763,0.726817,0.212334,-0.066295,-0.974946
0.091781,-0.739010,0.721951,-0.445201,-0.783477,-0.433543
-0.067594,0.051992,0.834309,0.760362,0.569343,-0.312566
0.408292,0.112420,0.812968,0.894606,0.213731,-0.392428
0.133010,0.086892,0.776600,0.652200,-0.753553,-0.082425
-0.128528,-0.038739,0.708832,-0.309484,-0.860679,-0.404291
0.070977,-0.756860,0.641973,0.870856,-0.464984,-0.159372
-0.313064,0.159190,0.794963,-0.472602,0.335737,0.814818
-0.031778,-0.719997,0.384500,0.315472,0.593563,0.740379
-0.427448,-0.407728,0.472395,0.319523,-0.510463,-0.798331
0.349304,0.818227,0.729153,0.021761,-0.649445,0.760097
0.038502,0.316731,0.555985,0.341668,-0.888056,-0.307603
0.290568,0.341367,-0.872391,0.199082,0.979907,-0.012170
-0.598325,0.012272,0.545692,0.853886,0.232234,0.465775
-0.033850,-0.342349,0.174107,-0.116870,0.135377,0.983877
-0.699515,-0.072211,0.558311,-0.103206,0.640338,-0.761128
0.562383,0.227920,0.761420,-0.563359,-0.768411,-0.303598
0.285832,0.312850,0.863903,0.305016,0.195971,0.931966
0.362793,0.461329,0.810744,-0.636992,0.719735,-0.276083
-0.434045,-0.024814,0.396354,0.198693,-0.536148,0.820406
-0.262617,-0.346097,0.463765,-0.332885,0.342186,-0.878690
-0.217794,0.115141,0.104656,-0.326437,0.573933,0.751026
-0.441402,0.247958,0.401965,0.500949,0.138884,-0.854261
0.175762,0.466373,0.824098,-0.259848,0.880592,0.396278
0.031651,-0.293658,0.449779,0.796640,-0.290970,0.529813
-0.013511,-0.244968,0.523208,0.014559,0.174219,0.984599
-0.361524,-0.666845,0.479434,0.755785,-0.465513,-0.460528
-0.129670,0.102914,0.874860,0.880554,-0.144705,0.451315
0.240121,-0.261614,0.303899,-0.677535,0.055488,-0.733394
0.698163,0.289375,0.770673,0.797647,0.017543,-0.602869
-0.677992,0.080065,0.521168,0.792181,-0.342049,-0.505422
0.070850,-0.228679,0.304052,0.312762,-0.077888,-0.946633
0.299955,0.373991,0.498898,0.918121,-0.376507,0.123679
-0.344187,-0.223814,0.494175,0.624303,0.122703,-0.771485
-0.404232,-0.386217,0.150501,0.522808,-0.738305,0.426119
0.309215,0.153568,0.587110,0.195230,0.865747,0.460833
0.605007,-0.050387,0.609512,-0.141482,0.424953,0.894091
-0.006830,0.358459,0.083692,0.084618,0.697409,0.711660
-0.359705,-0.661937,0.569890,0.258215,-0.248999,0.933448
0.279150,0.186549,0.572246,0.299252,0.647434,0.700912
0.213353,0.065471,0.939700,0.844980,-0.086890,0.527692
-0.255260,0.623912,0.817742,-0.350322,0.626013,0.696694
-0.473244,0.079305,0.706659,-0.421603,0.839971,-0.341613
0.060321,0.040165,0.293891,-0.282688,0.434195,0.855314
-0.082606,0.323024,0.861802,0.018217,-0.972383,0.232681
0.548428,-0.030436,0.612715,0.399461,0.765028,0.505137
0.251707,-0.296736,0.832442,-0.707743,-0.609095,-0.357915
-0.102692,-0.220243,0.766939,0.364060,0.904443,0.222356
0.255006,-0.099701,0.834268,0.961491,0.009381,-0.274678
0.062308,-0.202436,0.825495,0.441939,0.569107,0.693403
0.298856,-0.581246,0.762492,-0.083741,-0.956399,-0.279801
0.031820,0.359263,0.827729,0.103549,0.334756,-0.936598
0.227646,0.196233,0.908575,0.976327,-0.202376,0.076348
0.174155,0.166956,1.000000,0.980864,0.029678,0.192417
-0.023870,0.102827,0.851091,-0.624579,-0.026505,-0.780512
-0.088780,0.563441,0.702752,-0.062119,0.834125,-0.548066
-0.843499,-0.507877,0.193367,-0.377882,0.407611,0.831299
0.007718,0.373768,0.657662,0.178905,0.503899,-0.845032
0.056473,-0.207702,0.683104,0.900853,-0.274415,0.336394
-0.018077,-0.625965,0.730714,0.842773,0.251096,0.476115
0.422331,0.252869,0.768174,-0.683980,0.617084,0.389074
-0.340465,0.046504,0.797921,0.389853,0.508689,-0.767627
0.291160,0.109876,0.795819,0.372981,-0.798933,0.471796
-0.076601,0.509572,0.770194,0.905725,0.356807,0.228805
-0.349388,0.052216,0.525259,-0.394230,0.447445,-0.802730
-0.072499,0.031418,0.794799,0.268046,0.673372,0.689000
0.171660,0.642835,0.544427,-0.661435,0.386352,-0.642834
0.309132,-0.105012,0.484831,0.156415,0.622967,0.766450
0.117999,-0.299281,0.841532,-0.808672,-0.111113,0.577671
0.633887,0.533270,0.514017,0.996716,0.002614,0.080938
0.761169,0.448341,0.746404,0.044198,-0.519194,0.853513
-0.240332,-0.251527,0.730735,-0.111105,-0.619524,-0.777075
0.285156,0.109252,0.812254,-0.322346,0.536146,-0.780154
0.280884,0.351050,-0.887081,0.090281,-0.994868,-0.045693
-0.159439,-0.557370,0.777947,0.400310,-0.782696,-0.476591
0.517813,0.206363,0.801247,0.780122,-0.603023,-0.166656
0.366725,0.549293,0.762553,0.131131,-0.157461,0.978780
0.062943,-0.897176,0.422164,-0.439752,-0.772799,-0.457603
0.311204,-0.149015,0.847887,0.056272,0.996394,-0.063505
0.665602,0.609007,0.343888,0.577174,0.766834,0.280778
0.039559,0.275851,0.875696,0.537830,0.809897,-0.234107
-0.435735,0.007767,0.403250,0.041252,-0.319694,0.946622
-0.051187,-0.058866,0.827148,-0.562859,-0.134470,0.815541
-0.176100,0.281786,0.617877,0.961635,0.272107,-0.034872
0.348795,0.496988,0.563249,-0.745371,0.658717,0.102537
0.344990,0.185789,0.684686,-0.035416,0.507781,0.860758
0.148445,0.206990,0.233112,0.297891,-0.953615,-0.043362
0.274288,-0.394877,0.796309,0.944381,-0.322501,0.064318
-0.049326,0.125228,0.520770,0.261675,-0.813322,0.519648
-0.243504,0.276878,0.822098,0.185930,-0.420752,0.887918
0.267395,0.026554,0.708506,0.813131,0.547401,0.197913
0.000783,-0.327844,0.302440,-0.013751,0.192392,0.981222
0.266760,0.537465,0.545447,0.808135,0.303754,-0.504630
-0.088780,-0.817021,0.310713,-0.007507,-0.446096,0.894953
0.226124,0.351097,-0.866015,0.133415,0.990090,-0.043851
-0.859737,-0.311375,0.290647,-0.215121,0.855866,0.470336
-0.307651,-0.527780,0.506570,-0.627508,0.572315,-0.527910
-0.048904,-0.197394,0.516128,-0.672218,0.720742,0.169277
-0.600990,0.013209,0.544927,0.883922,-0.402987,-0.237240
0.548682,0.251572,0.802501,0.847187,-0.512022,-0.141801
-0.595745,0.020395,0.536215,0.881257,0.472542,0.009492
-0.727509,-0.108137,0.541183,0.635530,-0.459689,0.620312
-0.090343,-0.523498,0.069308,0.090031,-0.787168,0.610132
0.407024,0.178426,0.812387,0.121645,-0.755050,0.644284
-0.134067,-0.245728,0.800073,0.385693,0.912716,0.134875
-0.652240,-0.690677,0.249240,0.616796,-0.020164,0.786865
-0.376578,0.218904,0.745649,0.555651,0.492865,0.669579
-0.069328,-0.576964,0.739569,0.294843,-0.740579,0.603829
-0.172336,-0.348464,0.846051,-0.142580,-0.223256,-0.964276
0.515614,0.403132,0.726573,0.790330,-0.122069,-0.600398
0.063619,0.151293,0.872228,0.954243,0.052106,-0.294457
0.940841,-0.196188,0.635474,0.192194,0.649599,0.735583
0.181089,0.344268,-0.686002,-0.279293,-0.959024,-0.047617
-0.025265,-0.112152,0.813723,-0.147104,-0.648635,0.746749
-0.170391,0.369393,0.652868,0.151557,-0.319567,0.935365
-0.088061,0.055517,0.856252,-0.489127,0.399857,0.775158
0.179102,0.466194,0.901281,0.794173,0.606446,-0.038890
0.312133,0.060472,0.859721,0.350953,0.908102,0.228434
0.408504,0.747758,0.728756,0.391291,0.599742,-0.697998
0.458527,0.717365,0.398966,0.103749,-0.501647,0.858829
-0.368839,-0.257552,0.700743,0.651411,0.604479,0.458551
0.027930,0.004239,0.745751,-0.626877,0.548393,0.553436
0.266634,0.215336,0.173852,0.091454,0.995442,-0.027056
-0.059052,0.138126,0.781017,0.463332,0.361722,0.809000
-0.297122,-0.066542,0.659039,0.740135,0.293355,0.605098
0.102184,0.289999,0.879491,0.585115,0.803419,0.110267
-0.235596,-0.377561,0.565778,-0.619991,-0.763784,0.179568
0.217836,0.367699,-0.904637,0.111416,0.993732,0.009116
0.440852,-0.045388,0.812917,0.987388,-0.150044,0.050519
-0.120071,-0.417325,0.532930,-0.013742,-0.119203,0.992775
-0.033342,-0.452224,0.545233,-0.085066,0.903871,0.419262
-0.602470,-0.030570,0.389366,0.194297,0.156419,0.968391
0.241771,-0.411970,0.787281,0.067448,0.864189,0.498626
