-0.045806,-0.301082,0.027853,-0.368224,-0.102402,0.924081
0.200469,-0.419210,0.142365,-0.018244,0.104736,0.994333
0.450453,0.087547,0.767099,-0.386321,0.841506,0.377655
0.297613,-0.413725,0.676506,-0.545304,-0.699313,-0.462174
-0.281802,-0.485688,0.559769,-0.484447,0.147911,0.862226
0.778125,-0.441424,0.395830,-0.238505,0.262297,0.935049
-0.863361,-0.335273,0.264414,-0.563914,0.823723,-0.059009
-0.208340,0.647632,0.570725,0.472529,0.295131,0.830430
-0.235800,0.635210,0.427871,-0.437929,0.575449,-0.690707
-0.430541,0.135615,0.788082,-0.691149,0.643001,-0.329944
-0.718329,-0.533924,0.569391,0.387853,0.736473,-0.554236
-0.171318,-0.673876,0.596030,0.493962,0.528978,-0.690061
-0.115816,0.025546,0.321289,0.051459,0.995150,0.083839
0.066042,-0.559664,0.517129,-0.264446,-0.821405,0.505334
-0.218296,0.087435,0.880709,0.457264,0.509803,0.728705
0.325851,-0.469236,0.601800,-0.615567,-0.715682,0.329964
-0.856920,0.187041,-0.991485,0.013557,0.096628,0.995228
-0.568741,0.264263,0.847347,0.932613,0.002778,0.360866
0.176198,-0.124870,0.356075,0.404508,0.162108,-0.900052
0.172360,0.645786,0.288575,0.367767,0.431107,-0.823951
0.072744,0.033994,0.813806,-0.263008,-0.929607,-0.258183
-0.673173,0.216139,0.735592,-0.688069,-0.065951,-0.722642
-0.673564,-0.195602,0.611255,-0.204309,-0.526676,0.825149
-0.484936,0.073950,0.801631,-0.579986,0.310455,-0.753149
0.550525,0.360342,0.542764,-0.326620,0.876015,-0.354848
-0.411217,0.571306,0.566671,-0.462684,-0.565265,0.682934
-0.031622,0.203828,0.822855,0.997734,-0.025561,0.062231
-0.567571,-0.628437,0.272205,-0.497279,-0.733907,0.462702
-0.497494,-0.315688,0.544721,-0.597973,-0.049660,-0.799976
-0.229553,0.019277,-0.359913,0.690748,0.548327,0.471385
-0.314009,-0.439802,0.653985,-0.487908,0.410024,0.770601
-0.131628,-0.305390,0.766781,0.116913,0.992199,-0.043270
0.095712,-0.799669,0.459873,0.872828,0.198381,-0.445887
-0.430215,0.263760,-0.469278,-0.135985,-0.985815,-0.098369
-0.073784,0.002938,0.796966,0.836325,-0.135359,0.531262
0.621707,0.005737,0.464436,-0.581689,-0.290796,-0.759655
-0.116077,0.136175,0.897854,-0.630411,-0.738336,-0.239672
0.886720,-0.255421,0.621944,-0.464633,0.231326,0.854754
0.102350,0.022467,0.861657,0.304116,-0.902279,-0.305625
0.108595,0.117821,0.831078,0.268655,0.953920,0.133647
0.243282,-0.735261,0.557571,0.398536,-0.106672,-0.910928
-0.344914,0.172548,-0.814505,-0.614313,-0.788774,-0.021362
0.305161,0.316695,0.709182,0.774985,-0.451901,-0.441796
-0.555012,-0.396715,0.591441,0.780323,0.364928,-0.507862
-0.551629,0.174115,0.794412,0.245012,-0.526271,0.814253
-0.776107,-0.438180,0.631019,0.768561,0.634290,0.083611
0.044637,-0.004671,0.541442,0.141116,0.958309,0.248458
-0.181534,-0.951819,0.611662,-0.732988,0.326966,0.596509
0.381807,0.268181,0.320425,0.652146,-0.384777,-0.653186
-0.170994,-0.140147,0.637971,0.333622,-0.646570,0.686035
-0.537379,-0.664306,0.237330,0.869946,0.432793,-0.236400
-0.449540,0.203493,0.810692,0.885338,0.438432,0.154771
-0.464440,0.902242,0.622020,0.290540,0.900359,-0.323946
0.229293,-0.663524,0.551063,0.842870,0.354716,-0.404656
0.030451,-0.244285,0.715562,0.863470,0.220159,-0.453817
-0.184723,0.169974,0.792556,0.170307,0.801201,0.573649
-0.781508,-0.039254,0.751288,-0.158860,0.983566,0.085801
0.608564,-0.399288,0.634946,0.189508,0.825389,0.531808
0.486368,-0.567163,0.604062,0.602376,0.097287,-0.792262
-0.249398,0.107916,-0.273870,-0.634670,0.770812,0.055158
0.554557,-0.508295,0.628833,0.917838,0.315226,0.241260
-0.115753,-0.595086,0.295019,0.858108,0.506072,0.086847
0.808640,-0.123919,0.571259,0.928501,-0.115279,-0.352982
0.351163,0.695644,0.533181,-0.475060,0.662661,-0.578963
-0.240484,0.064772,0.886034,-0.595774,-0.333534,-0.730622
-0.759386,0.289165,0.735300,0.568777,0.421567,0.706239
-0.823995,-0.511541,0.571653,0.588193,0.777517,0.222478
0.340361,0.640133,0.664813,-0.625844,-0.045421,0.778624
-0.239052,-0.791275,0.417106,0.623806,0.315422,0.715105
0.001041,-0.322682,0.535583,0.609153,0.722059,0.327970
-0.869737,-0.614336,0.412035,-0.509469,-0.858411,0.059773
0.126879,0.569123,0.538303,-0.617705,0.741643,-0.261544
-0.353633,0.172044,0.793090,-0.283600,0.515851,-0.808374
0.893682,-0.317477,0.490643,0.420090,-0.725275,-0.545436
-0.007352,0.067179,0.843877,0.535918,-0.597650,-0.596328
0.009435,0.097284,0.871164,0.480644,0.459728,0.746747
0.088035,-0.358495,0.641669,-0.218219,-0.155569,0.963420
-0.394104,0.662518,0.586980,0.836505,-0.127361,0.532953
0.034615,-0.612713,0.279259,-0.771035,-0.265028,-0.579021
0.052899,0.197673,0.902302,-0.381872,0.752370,0.536762
0.621446,-0.410985,0.630332,0.381278,0.695511,0.609008
0.090833,-0.982317,0.233174,0.065112,0.406870,0.911163
-0.334505,0.120507,0.635124,0.906367,0.385660,-0.172525
0.053419,-0.338070,0.327059,0.490714,0.435614,-0.754613
-0.757303,-0.126660,0.425990,-0.183789,0.894397,0.407769
-0.538551,-0.407851,0.584871,-0.744943,-0.231537,0.625660
-0.306525,0.046809,0.910398,0.972712,-0.188971,0.134615
0.305550,0.594249,0.711686,0.592595,0.368133,-0.716456
0.149523,0.160517,0.832311,0.475178,0.855441,-0.205977
0.219793,0.579532,0.703348,-0.528964,-0.569066,0.629572
-0.355521,0.519992,0.719972,0.746288,0.565326,-0.351370
-0.723013,-0.566379,0.587819,-0.519481,-0.211772,-0.827824
-0.073264,0.325872,0.570115,0.727076,-0.506559,0.463420
-0.091937,0.404662,0.642089,-0.310696,0.459186,0.832236
0.047172,0.479199,0.659424,0.854123,-0.177382,-0.488887
-0.575508,0.819144,0.585227,0.143623,-0.599145,0.787653
0.525994,-0.029237,0.555448,-0.159750,-0.158103,0.974414
-0.127333,0.315857,0.327936,0.714562,0.455764,-0.530736
-0.869282,-0.571417,0.415657,-0.355871,-0.913751,0.195996
0.088946,-0.290002,0.730979,0.792802,0.220055,-0.568367
0.194613,0.625361,0.653578,0.739834,-0.671972,-0.033147
0.118420,-0.712487,0.055928,-0.219280,0.131411,0.966772
-0.879628,-0.365602,0.473968,0.986586,-0.155517,-0.049631
-0.187975,-0.495816,0.679455,-0.075368,0.707842,0.702338
0.200795,0.409362,0.811938,0.184394,0.358645,0.915081
0.238338,-0.116140,0.801059,-0.665653,-0.489967,0.562884
-0.084455,0.659719,0.554165,-0.497224,-0.362060,-0.788467
0.401523,0.026945,0.756194,0.159542,-0.974908,0.155247
-0.180428,0.107469,0.132096,0.992211,0.117409,0.041619
-0.309519,0.369912,0.765726,-0.347093,-0.263379,-0.900088
0.318953,0.048937,0.579660,0.078895,0.442708,0.893188
-0.127593,-0.057272,0.156155,0.803896,-0.158744,-0.573194
-0.048995,-0.354466,0.806409,-0.123180,0.319102,0.939681
0.047043,0.104782,0.840903,0.718933,0.580973,0.381583
-0.535299,-0.066786,0.128016,-0.553888,0.330139,-0.764341
0.369901,-0.538960,0.574576,0.350581,0.393292,-0.849950
-0.449737,0.598725,0.562947,0.776454,0.607946,-0.165895
-0.333723,0.183516,-0.687271,0.366809,0.929945,-0.025543
0.099552,-0.546235,0.557965,-0.418632,-0.903517,-0.091676
0.648384,-0.382502,0.546247,0.392360,0.335254,-0.856539
-0.707592,-0.638845,0.298920,-0.129920,-0.907501,0.399454
0.140544,0.007079,0.907043,0.088783,0.833308,0.545633
0.030256,0.164434,0.787815,0.802847,0.344811,0.486355
-0.457999,-0.331747,0.323145,0.649100,-0.565799,-0.508469
-0.166179,0.163427,0.833214,0.483066,0.813299,-0.324332
-0.228250,-0.420440,0.663034,0.537952,-0.562346,-0.627992
-0.861409,0.394645,0.489486,0.983904,-0.082654,0.158435
0.299694,-0.494194,-0.135540,-0.290926,0.259728,0.920817
-0.422539,0.282058,0.574754,-0.268893,0.911596,-0.310949
0.639274,-0.322570,0.214440,-0.576411,0.325723,0.749436
-0.506083,-0.118155,0.029035,0.222007,-0.974212,0.040290
0.932007,-0.429170,0.249493,-0.349612,0.677214,0.647420
0.450843,0.354244,0.486588,0.102462,-0.956854,-0.271904
-0.547530,0.773537,0.615844,-0.003593,-0.885186,0.465223
-0.126358,-0.265549,0.854807,0.211434,-0.020968,0.977167
0.343224,0.719034,0.668283,0.827104,0.078774,-0.556502
-0.806428,0.476793,0.667317,0.997349,-0.072465,0.006665
-0.132019,0.103384,0.933123,-0.363285,-0.679299,0.637634
0.315115,-0.251056,0.089646,0.367045,0.777309,0.510949
0.805388,-0.523459,0.391610,-0.562931,-0.775980,0.284541
-0.050101,0.011277,0.828816,0.495731,0.705086,-0.507055
-0.548181,-0.279370,0.773886,-0.010075,0.989443,0.144571
-0.059015,0.173723,0.177583,-0.351887,0.152930,-0.923465
-0.179647,-0.254917,0.882997,-0.800014,-0.597272,-0.056960
-0.327801,0.410033,0.760045,-0.590971,0.774538,-0.225486
-0.158500,0.127725,0.934902,0.820582,0.571470,-0.008200
-0.022707,0.207578,0.853015,0.934049,0.057059,-0.352557
-0.059795,-0.900002,0.636611,-0.555967,0.509914,0.656421
-0.040862,-0.417252,0.557342,0.864814,0.500516,0.039765
0.495087,0.279371,0.514308,-0.587518,0.574600,-0.569788
0.135858,-0.721832,0.514943,0.928757,0.308529,-0.205474
-0.492549,-0.525138,0.572212,0.896601,-0.138985,0.420465
-0.327152,-0.142497,0.802762,0.386685,0.842680,0.374653
-0.653328,-0.124757,0.130545,-0.410308,0.223930,-0.884026
0.637193,0.109314,0.569746,-0.028529,0.050390,0.998322
-0.156483,0.437958,0.628553,0.929231,-0.364255,0.062035
0.315701,-0.096275,0.043206,0.124562,0.341511,0.931587
-0.440237,0.210095,0.650935,-0.184067,0.978729,0.090604
-0.146334,-0.684115,0.380324,-0.581176,-0.663263,-0.471505
0.580454,-0.469236,0.616581,0.924926,0.034736,-0.378557
0.824192,-0.195489,0.373919,0.042860,0.665813,0.744887
0.374260,-0.421560,0.673430,0.358099,0.801777,0.478455
0.048215,0.649814,0.480704,0.912160,0.316212,-0.260720
-0.389940,-0.440139,0.371784,-0.023517,-0.971921,0.234129
-0.491509,-0.171147,0.109854,-0.800045,0.047210,-0.598079
0.627497,-0.373101,0.492003,-0.661565,-0.410238,0.627723
-0.281736,0.069248,0.702306,0.445831,0.066507,-0.892643
0.001627,0.254470,0.838564,0.950665,0.151547,0.270685
0.352723,0.207130,0.472773,0.820626,-0.570582,0.031764
-0.098640,0.072215,0.766400,0.223387,-0.074956,-0.971844
-0.568155,0.659608,0.567598,-0.709627,-0.700503,0.075665
0.332879,0.765537,0.658700,0.076689,0.834573,0.545533
0.297677,0.672590,0.600491,0.461017,-0.860102,0.218376
-0.027393,0.045634,0.930771,-0.739201,0.356216,0.571569
-0.405947,0.154921,-0.458589,0.341808,0.932612,0.115771
0.035526,-0.008756,0.791006,0.302491,0.565254,-0.767455
0.028434,-0.449203,0.709576,-0.685289,0.510479,0.519414
0.157005,0.034835,0.746535,-0.549549,0.816199,-0.178367
0.208082,0.399346,0.599779,0.020028,0.272008,0.962086
-0.302752,-0.074452,0.784524,-0.631004,0.409619,0.658822
-0.769275,0.438125,0.448498,0.861671,-0.506149,0.036561
0.608432,0.381383,0.547098,0.165696,-0.983774,0.068795
-0.844751,-0.132872,0.592026,0.917601,-0.208279,-0.338567
0.465937,-0.441146,0.652803,0.329439,0.240227,0.913105
-0.563862,0.414845,0.615589,0.902411,-0.127913,0.411452
0.135012,-0.272040,0.566900,-0.428922,-0.447460,-0.784733
-0.263258,-0.210823,0.865750,0.870592,0.491973,0.005721
-0.176458,0.073333,0.871495,0.907831,0.320233,0.270729
0.022709,0.118101,0.213919,0.041874,-0.357472,0.932985
-0.157914,-0.168574,0.129427,0.883231,0.135964,0.448794
-0.771878,-0.286421,0.694375,-0.680642,-0.402602,0.612076
0.169953,0.041997,0.847423,-0.159664,0.885535,-0.436274
-0.145226,-0.858650,0.392195,-0.108683,0.963757,-0.243639
0.155639,0.453569,0.679887,-0.126989,-0.477208,0.869567
0.366323,0.341262,0.634527,0.756063,-0.619126,0.212253
0.783720,-0.266948,0.601914,-0.556543,0.053981,0.829063
-0.449345,0.222351,0.780406,0.956599,-0.230258,0.178606
-0.629448,-0.278084,0.744756,0.900887,0.014285,0.433819
-0.682086,0.291682,0.727623,-0.677893,-0.495761,-0.542846
0.033314,-0.253349,0.404536,0.083469,0.585342,0.806479
0.255515,0.638511,0.022998,-0.571010,-0.365473,0.735104
-0.713124,0.031868,0.812319,-0.161318,0.986887,0.005603
0.348885,-0.167957,0.748569,-0.154072,0.861047,0.484623
-0.562951,-0.397666,0.143839,0.850393,0.079295,0.520138
-0.609929,-0.228337,0.750005,0.956239,-0.218923,0.194112
-0.423254,0.947568,0.487224,-0.497683,-0.430971,0.752712
-0.019520,-0.523068,0.557685,-0.715990,-0.547233,0.433468
0.016917,-0.195432,-0.168610,-0.179345,-0.059711,0.981972
-0.286680,-0.861000,0.403291,-0.169449,-0.919265,0.355301
-0.302296,0.091633,0.912864,0.909698,-0.399482,-0.113415
-0.449540,0.210208,0.347992,-0.662247,-0.698704,-0.270632
-0.120892,-0.819311,0.197639,0.503581,0.475479,0.721336
0.035461,0.572200,0.440428,0.872001,0.416837,-0.256634
-0.216996,-0.063652,0.760541,0.270968,0.782013,0.561277
-0.786323,-0.190844,0.707047,-0.041608,-0.043003,0.998208
-0.625674,-0.593183,0.364501,0.269900,-0.116543,0.955810
-0.294554,0.205843,0.148656,0.802031,0.335907,-0.493875
0.503220,0.181501,0.518298,0.854940,0.001468,0.518725
-0.223372,-0.006239,0.739430,-0.065499,0.960551,-0.270282
-0.563016,-0.610530,0.263016,0.685871,0.705364,-0.179004
-0.394885,0.777846,0.479497,-0.007997,-0.249436,0.968358
0.035201,-0.151227,0.704327,0.731754,-0.679450,0.053698
-0.724184,-0.321508,0.727801,0.047172,-0.994640,-0.092015
-0.197214,0.376403,0.812332,0.608474,0.787350,0.099195
-0.465677,0.236172,0.707288,0.303372,0.904829,0.298748
-0.663739,0.611763,-0.004302,0.126465,-0.151982,0.980259
-0.239507,-0.647295,0.193279,0.589053,0.804154,-0.079708
-0.905328,0.351278,0.617153,0.948821,0.013909,-0.315507
-0.417464,0.274615,0.547289,0.963570,-0.152850,-0.219476
-0.193505,-0.397330,0.521145,0.512204,0.844363,-0.157156
0.068385,-0.846730,0.346886,0.466248,0.453708,0.759449
0.240290,-0.173386,0.754046,0.255978,0.889202,0.379203
0.243607,-0.203211,0.763388,-0.250678,0.560691,0.789168
0.363460,0.810359,0.053361,0.672142,0.717607,-0.182386
0.019065,0.405334,0.650553,0.569652,-0.492219,-0.658192
0.111654,-0.713606,0.470117,0.878617,-0.042442,-0.475637
-0.214782,-0.542037,0.702548,0.120449,-0.945768,-0.301688
0.175875,-0.571471,0.525492,0.624952,0.765570,-0.152770
0.251872,0.392632,0.819792,0.455243,0.845844,-0.278033
-0.080551,-0.242830,0.796242,0.485716,0.476055,-0.733111
-0.120632,-0.012394,0.667279,-0.723990,0.150479,-0.673197
0.044831,0.093759,0.950878,0.968125,0.161608,0.191352
0.236646,-0.151338,0.758113,0.122919,0.779003,0.614854
-0.495281,0.010773,0.031424,-0.453819,0.889040,-0.060464
0.053679,0.033380,0.857984,-0.097073,0.908022,0.407521
-0.084975,-0.598836,0.498612,0.415471,0.888905,-0.192954
-0.305356,-0.418538,0.632887,0.331776,-0.614150,-0.716062
0.076193,-0.398505,0.643423,-0.019662,0.094129,0.995366
-0.575705,-0.288492,0.613340,0.907154,-0.237647,-0.347268
0.234694,0.577908,0.697375,0.514266,0.635481,-0.575930
-0.435031,0.924121,0.487783,-0.395933,-0.320687,0.860463
-0.035461,0.264711,0.814912,0.857357,-0.468184,0.213876
0.510899,-0.319101,0.333325,0.866493,0.342421,0.363233
-0.265470,0.191069,-0.064609,-0.470830,0.624210,-0.623443
0.126164,0.607174,0.599893,0.863004,-0.028895,-0.504370
-0.172426,0.040038,0.883136,0.512576,0.462814,0.723235
-0.100267,-0.672421,0.589878,0.817432,-0.353569,-0.454745
-0.904222,0.499736,-0.996734,0.471428,-0.027037,-0.881490
0.046458,0.341317,0.665042,0.547560,-0.253751,-0.797363
0.795823,-0.558042,0.369509,0.184090,-0.982559,-0.026236
-0.846900,0.716013,-0.998818,-0.193864,-0.137349,0.971366
-0.068709,0.092191,0.917884,0.605901,0.795513,-0.006569
-0.288178,0.720993,0.542993,0.605890,0.445007,-0.659444
0.497496,-0.331691,0.532457,-0.651552,-0.685055,0.325853
-0.204373,0.352396,0.176160,0.666653,-0.183240,0.722493
-0.216865,-0.470858,0.198503,-0.673957,0.651627,0.348088
-0.796929,-0.556083,0.484072,-0.694926,0.430199,0.576200
-0.010866,0.151954,0.834523,0.641181,0.727385,0.244536
0.302103,-0.041660,0.461957,-0.657939,0.322459,-0.680542
-0.248032,0.294760,0.880137,0.785771,0.617609,-0.033510
-0.838050,-0.129683,0.454001,0.997420,0.070749,-0.012169
0.382979,-0.742703,0.522048,0.678740,-0.245405,-0.692162
-0.421433,0.634930,0.449629,0.913561,-0.070070,-0.400620
0.198712,-0.116364,0.738592,0.004318,0.755855,0.654725
-0.097989,0.031701,0.427642,0.881530,-0.472075,0.007008
-0.988743,-0.541534,0.657162,0.757674,-0.580142,-0.298942
-0.062398,-0.222740,0.820364,0.881386,0.411022,0.232849
-0.690154,0.406956,0.662284,0.163862,0.852938,0.495627
-0.404384,0.850984,0.656832,0.099432,-0.916191,0.388209
-0.525017,-0.337958,0.104631,0.987768,0.070083,0.139297
0.699981,0.157270,0.542891,0.037483,0.879727,0.473999
-0.590539,0.483955,0.632391,0.932446,-0.092031,0.349391
-0.489037,0.661063,0.591251,0.193301,0.976595,-0.094323
0.604203,-0.357487,0.489219,0.765411,0.398711,-0.505149
0.290715,-0.057496,0.053284,0.211564,0.400779,0.891413
-0.664065,0.181892,-0.988358,-0.177938,0.092965,0.979640
-0.390526,0.817465,0.626443,-0.105581,0.901673,-0.419331
-0.443295,-0.283176,0.790357,-0.654683,-0.747269,-0.113926
-0.520593,0.624074,-0.984596,0.236584,-0.054590,-0.970076
0.538031,-0.373772,0.532406,-0.489883,-0.776150,0.396996
-0.328192,0.346578,0.686483,0.957105,-0.237288,-0.166265
-0.110481,-0.427324,0.641529,0.769607,0.296098,0.565713
-0.592295,-0.057720,0.810286,-0.706505,-0.492429,-0.508296
0.322597,-0.521222,0.581096,-0.437176,-0.421076,0.794715
0.160714,0.581098,0.693791,0.209660,0.503674,-0.838066
0.109312,0.615344,0.653680,-0.711569,0.697948,0.080860
-0.686510,-0.533253,0.218101,0.670433,0.735601,-0.097005
-0.022904,-0.405723,0.153295,-0.308675,-0.677955,0.667156
-0.475828,0.339584,0.820225,0.951607,-0.129893,0.278518
0.516885,0.256708,0.452997,-0.533405,-0.806044,0.256462
-0.053419,0.437901,0.583345,-0.119187,0.013724,0.992777
-0.229682,-0.579474,0.702395,-0.508630,0.780233,0.364049
-0.713384,-0.032987,0.006336,-0.189843,0.661427,0.725586
-0.769731,0.117932,-0.987850,-0.149861,-0.003383,0.988701
0.595615,-0.606391,0.621296,-0.421386,0.180130,0.888812
0.531264,0.573152,0.660657,-0.530090,-0.565626,0.631721
0.289089,0.243110,0.549551,-0.730397,0.659951,0.176025
0.450908,0.014521,0.572047,0.276705,-0.372402,0.885862
-0.497756,-0.191013,0.679061,0.887058,0.347693,-0.303707
0.110223,-0.071205,0.358452,-0.181751,-0.373415,0.909685
-0.701997,-0.549983,0.571119,0.927369,0.206551,-0.311968
-0.312706,0.106181,-0.781855,0.839151,0.543240,-0.026765
-0.041251,0.161077,0.809688,-0.453476,-0.232646,-0.860369
-0.182771,-0.288323,0.360828,0.958034,-0.217684,-0.186509
0.605049,0.426765,0.577563,0.830684,0.556711,0.006044
-0.451037,-0.698050,0.555817,0.227379,0.345264,0.910544
-0.549417,-0.715451,0.529699,0.647817,0.760313,-0.047504
-0.575965,0.694693,0.548318,0.805816,0.577710,-0.130044
-0.098835,0.306679,0.788807,0.341663,-0.895982,-0.283695
0.454552,0.192804,0.704912,-0.555272,-0.284906,-0.781346
-0.077299,-0.161803,0.801809,0.281325,0.708156,-0.647589
-0.703103,0.409082,0.403837,-0.065675,-0.989401,-0.129509
-0.564382,0.440475,0.440822,-0.337063,0.309294,0.889228
0.384279,0.462019,0.641034,0.238018,-0.941774,-0.237508
-0.337042,0.800342,0.466329,-0.472560,-0.080409,-0.877623
0.277767,0.593912,0.293277,0.275011,0.610758,-0.742525
-0.435942,0.227554,0.802508,0.792151,-0.163844,0.587922
-0.433079,-0.821884,0.313994,-0.589142,-0.797357,0.130895
-0.116793,-0.565708,0.504636,0.510425,0.390713,-0.766035
0.174638,0.059960,0.748124,-0.654520,0.734694,-0.178406
-0.658598,0.751267,0.581325,-0.174719,0.578836,-0.796506
-0.265013,0.561177,0.588175,-0.511384,-0.750968,-0.417771
-0.763484,0.270138,0.356532,0.020375,-0.578465,0.815453
-0.021861,-0.263143,0.855697,-0.634560,-0.223302,-0.739912
-0.502049,0.269132,0.825995,0.895008,0.056069,0.442511
-0.826730,-0.026607,0.406836,0.972718,0.010276,0.231764
-0.120892,0.411657,0.699447,-0.120925,-0.942479,0.311625
0.304964,0.091577,0.856929,0.259329,-0.860710,-0.438095
-0.229553,0.196833,0.893380,-0.669750,0.742005,0.029405
-0.831739,0.090456,0.698265,0.830017,-0.274271,-0.485642
0.451883,0.540864,0.667914,0.515783,-0.382008,0.766836
-0.194091,0.082679,0.326983,-0.646879,-0.757508,-0.087913
-0.029085,-0.294423,-0.164899,-0.127503,-0.046168,0.990763
0.298134,0.657369,0.583930,-0.555193,-0.596390,-0.579724
0.770577,-0.521277,0.369801,0.352890,0.861432,-0.365245
-0.262346,0.648695,-0.971010,0.225178,-0.110968,-0.967978
-0.806623,0.117037,-0.989197,-0.134914,-0.011706,0.990788
-0.085235,-0.651660,0.041325,-0.307792,-0.201586,0.929853
0.516300,-0.003160,0.332194,0.946521,-0.245151,-0.209761
-0.176524,-0.895190,0.344903,0.968343,0.161840,0.190051
-0.471208,-0.235164,0.724649,-0.481100,0.714071,0.508572
-0.037022,0.279875,0.672299,-0.114335,0.982295,-0.148404
-0.482073,-0.347919,0.632493,0.010983,0.667265,0.744739
-0.599582,-0.575278,0.703399,0.778551,0.566180,0.270737
0.356367,0.148542,0.714685,-0.395666,0.884653,0.246651
-0.682867,0.543214,0.454497,-0.473219,-0.115034,-0.873402
-0.406076,0.518537,0.593627,-0.647717,0.733975,0.204313
0.050036,0.288381,0.870236,0.878388,0.437217,-0.193067
-0.863166,-0.405948,0.462186,-0.575338,0.108295,0.810715
-0.938381,-0.496768,0.675527,0.618367,-0.618374,-0.485012
-0.484156,-0.295094,0.777915,0.268474,0.853819,-0.445999
0.587416,-0.346911,0.108749,0.216328,0.793788,0.568421
-0.316221,-0.572592,0.561892,-0.263620,-0.595503,0.758868
0.618714,0.208081,0.421300,-0.111014,0.972992,-0.202393
-0.606415,-0.555132,0.579800,-0.716703,0.693112,0.077021
0.480383,0.033940,0.550835,-0.092497,-0.197169,0.975996
-0.554492,0.300636,-0.987087,0.206718,-0.087052,-0.974520
0.428329,-0.293919,0.462339,0.896766,0.200619,0.394415
-0.177630,0.517417,0.590895,0.516202,0.768336,0.378411
-0.184463,-0.048766,0.763096,0.643587,0.751814,0.143427
0.208408,-0.432584,0.580969,0.253691,-0.337480,0.906503
-0.007286,-0.354690,0.845135,-0.704431,-0.573277,-0.418485
0.623333,-0.076578,0.472150,0.943781,-0.208332,0.256663
0.252652,-0.010771,0.895554,-0.512235,0.767673,0.385089
-0.546555,0.167792,0.792277,0.202659,-0.532722,0.821667
0.350251,-0.864357,0.520154,0.861596,-0.479048,0.167825
0.122780,0.048488,0.855531,-0.094396,0.852248,0.514551
-0.171449,-0.724014,0.587870,0.909190,0.232017,-0.345749
-0.485393,-0.555803,0.647528,-0.349061,0.917326,-0.191492
-0.089530,0.093366,0.408514,-0.303324,0.951752,0.046512
0.660941,-0.436165,0.486499,-0.688051,-0.493675,0.531857
-0.585138,-0.014520,0.775602,-0.326458,0.349399,0.878263
-0.910924,-0.586357,0.451078,0.838777,0.540955,0.061816
0.286031,-0.348479,0.267884,0.128931,-0.512764,0.848793
-0.250635,0.141155,-0.469710,0.007589,0.993167,0.116455
-0.127790,-0.852717,0.610798,-0.454055,0.041963,0.889985
-0.277507,0.169470,-0.207488,0.038703,0.990034,0.135402
-0.230854,0.114296,-0.227379,0.206082,0.978520,0.005342
0.435942,0.349767,0.700629,-0.636977,0.391547,0.664042
0.072875,-0.213620,0.757580,0.980385,-0.069970,-0.184254
-0.684495,0.268628,0.629544,0.482462,-0.871210,-0.090683
0.191816,0.435495,0.811442,0.981786,-0.173603,0.077193
0.245951,0.281497,0.787828,-0.414481,-0.781812,0.465807
-0.517990,0.223526,0.400431,0.720527,0.682917,0.120269
0.092134,0.761954,0.398791,0.676839,0.735820,-0.021419
0.412388,-0.097171,0.495523,-0.276321,0.886405,-0.371394
-0.467564,-0.272488,0.782452,0.410342,0.911062,-0.039819
-0.658078,-0.545899,0.327072,-0.623721,-0.625563,0.468661
-0.309128,-0.212501,0.695774,-0.807969,0.542583,-0.229762
-0.649488,-0.616126,0.524285,0.685350,0.727796,-0.024656
0.024270,-0.313281,0.817937,0.676327,0.677299,0.289566
0.158371,0.612267,0.620915,-0.522814,-0.848383,-0.083138
0.125838,-0.740577,0.476243,0.787279,0.142276,-0.599958
0.488060,-0.371813,0.471464,-0.583291,-0.526275,0.618713
0.155704,-0.119891,0.837395,0.855297,0.477991,0.199980
0.022578,0.424583,0.639559,-0.430596,0.558082,0.709318
-0.701022,0.161188,0.642152,-0.504853,-0.013461,-0.863100
-0.308022,0.049999,0.918304,0.873969,0.277233,0.399149
-0.485067,0.732856,0.607100,-0.549512,-0.334938,0.765410
-0.534973,-0.600234,0.267032,0.644120,0.589511,-0.487428
0.864598,-0.415404,0.550174,0.108314,0.988337,-0.107043
-0.197540,0.818136,0.351461,0.821736,0.497217,-0.278435
-0.164813,-0.369407,0.636204,-0.337298,-0.874363,-0.348884
-0.393064,0.716404,0.605193,-0.694368,0.437099,-0.571662
-0.392607,0.508520,0.558549,0.156473,0.517349,-0.841348
-0.977095,-0.513051,0.664445,0.801328,-0.552674,-0.228963
-0.037542,-0.244620,0.654430,0.252638,-0.957295,-0.140571
-0.171383,-0.281272,0.233988,0.604782,-0.349731,-0.715491
-0.523261,-0.014856,0.383489,-0.271576,-0.042288,0.961488
0.261306,0.615344,0.705039,0.553101,0.411179,-0.724577
0.195459,-0.044010,0.804007,-0.680344,-0.581670,0.445860
0.657689,-0.339636,0.537731,0.798163,0.416858,-0.434931
0.392609,-0.605438,0.159078,0.786476,0.138127,-0.601978
-0.428784,0.440811,0.754504,0.080568,0.922631,0.377175
-0.179256,0.071263,0.860971,0.966607,-0.030901,0.254392
-0.187324,-0.066058,0.222930,0.386060,-0.285742,-0.877103
-0.044309,-0.931395,0.639534,-0.364778,0.695785,0.618725
-0.455201,0.079097,0.781562,0.727586,-0.031581,0.685290
0.934414,-0.352731,0.523497,-0.658721,0.349681,0.666190
0.507515,-0.266948,0.553288,0.881770,0.417705,-0.219097
-0.054720,0.176576,0.847550,0.634607,0.768997,-0.076923
-0.137744,-0.793569,0.576826,-0.157054,0.771641,0.616364
-0.102413,-0.290282,0.145047,0.984521,0.119414,-0.128289
0.119071,0.396771,0.790167,0.663363,-0.626170,-0.409709
-0.195457,-0.154864,0.669223,-0.341597,0.547479,-0.763923
0.205479,0.541648,0.650350,-0.251921,0.524883,0.813040
0.610059,-0.417363,0.377134,0.360660,0.343557,-0.867118
-0.216604,0.304273,-0.001265,0.958229,0.282121,-0.046946
0.411608,0.455808,0.457179,0.867213,0.437265,0.238204
-0.313878,0.022580,0.071345,0.469674,-0.694209,-0.545417
-0.221289,0.055204,0.757186,-0.479288,0.671169,-0.565523
0.429632,-0.173106,0.587527,-0.051694,0.943268,0.327983
0.186480,-0.614113,0.534007,0.930848,0.220761,-0.291181
-0.292796,0.394758,0.738973,0.786662,-0.433956,0.439142
0.122260,0.037184,0.617369,0.121669,-0.635341,-0.762587
0.384931,0.223133,0.528771,-0.494306,0.692039,-0.526064
-0.579283,0.338352,0.638428,0.916900,0.360038,0.172242
0.538488,-0.464648,0.162738,0.430881,0.261503,-0.863688
0.353700,-0.150499,0.591619,-0.577277,-0.370036,-0.727890
-0.620990,-0.366664,0.624156,-0.421625,0.677626,0.602541
-0.344068,-0.771466,0.602524,0.825322,0.316091,-0.467900
-0.312252,-0.662349,0.410992,-0.226241,0.420556,0.878605
-0.243607,0.750483,0.568412,0.423089,0.439249,0.792500
0.396773,0.556645,0.284190,0.237236,-0.837831,0.491690
0.801484,-0.396435,0.521209,-0.595894,-0.769428,-0.229982
-0.204827,-0.011108,-0.169119,-0.482624,-0.311149,0.818694
0.092785,-0.755742,0.214135,-0.482712,-0.414284,-0.771594
-0.604983,0.356930,0.625744,0.988142,-0.072419,0.135389
-0.374065,-0.120785,0.091769,0.090230,0.595833,0.798023
-0.318238,0.216308,-0.594174,0.271783,0.961407,-0.042775
-0.862970,-0.018661,0.713567,0.534784,0.642574,0.548731
-0.786713,-0.609692,0.274836,0.200852,0.777017,0.596576
0.428980,0.372877,0.528593,0.687653,0.715517,-0.123157
-0.505107,-0.659830,0.414754,0.474972,0.854675,0.209601
0.319996,-0.085699,0.585926,-0.600185,-0.396784,-0.694508
0.435227,0.124479,0.342692,0.362927,0.218137,0.905925
0.183617,-0.229959,0.738782,0.853530,0.065207,-0.516947
-0.642852,0.368514,0.491736,-0.450941,0.771948,0.448049
-0.251610,0.146583,0.887941,0.961969,-0.078796,0.261546
-0.192399,0.067963,0.263016,0.750344,0.593172,0.291772
-0.260783,0.287487,0.860069,0.859776,0.506458,0.065455
0.299043,-0.244172,0.625986,0.686527,0.497333,0.530415
0.035592,-0.398841,0.433882,0.734518,-0.403230,-0.545792
-0.403278,-0.314009,0.780914,-0.436792,0.408897,-0.801259
0.286097,-0.674210,0.555931,0.938105,0.331472,0.100424
0.412648,-0.303768,0.201680,0.531955,0.406369,-0.742891
0.107425,0.610141,0.626431,0.115155,0.939651,0.322172
0.262281,-0.838336,0.494659,-0.728060,0.164565,0.665468
-0.844557,0.154810,0.466266,-0.543932,0.505737,-0.669604
0.446093,0.455081,0.641529,0.206036,0.929180,-0.306877
-0.724379,0.352396,0.488292,-0.432121,0.469638,0.769877
0.293187,-0.275732,0.612463,0.942657,-0.328036,0.061561
0.013470,0.480094,0.253154,0.839883,-0.021587,-0.542338
-0.242762,-0.252398,0.665372,0.418860,-0.452097,0.787505
-0.835057,0.694693,-0.998716,-0.161359,-0.005468,0.986881
0.836423,-0.512492,0.372190,-0.153887,0.988085,-0.002817
-0.260849,-0.522341,0.388547,0.308588,0.455078,0.835271
-0.531069,0.049775,0.795708,0.854795,-0.329325,0.401087
0.064350,0.283009,0.666224,-0.199139,-0.046631,0.978861
-0.120372,0.309646,0.594860,0.980147,-0.131093,-0.148746
-0.365149,0.587030,0.438254,0.232713,-0.110997,0.966191
-0.010541,0.209367,0.881777,0.764589,-0.600785,-0.233370
0.413494,0.227891,0.331164,-0.190964,0.452744,0.870951
-0.569912,0.653171,0.569187,0.625500,0.764149,-0.157564
-0.128830,0.385915,0.831256,-0.387729,-0.888146,0.246704
-0.417789,0.343668,0.754034,0.056708,-0.947617,0.314334
-0.060121,-0.766877,0.224710,0.299315,0.349288,0.887923
0.583643,-0.434655,0.659107,0.062654,0.963630,0.259793
-0.245754,0.273721,0.746954,0.224672,0.859677,0.458779
0.289154,-0.159788,0.765650,0.073118,0.823233,0.562976
0.766413,-0.402589,0.553389,0.329549,0.664137,-0.671059
0.301906,-0.249769,0.351626,-0.556904,-0.268890,0.785847
-0.240093,0.382614,0.826185,-0.026209,-0.978938,0.202470
-0.244517,0.603817,0.372089,-0.098009,-0.662134,0.742948
-0.787950,-0.320107,0.574652,0.130642,-0.947549,0.291692
-0.210292,0.082623,0.878548,0.571101,0.473028,0.670886
-0.616955,-0.130801,0.719159,-0.256656,0.528928,0.808927
-0.603163,0.709019,0.550911,0.805447,0.590026,-0.055893
0.518512,-0.561567,0.607887,0.453039,-0.035303,-0.890791
0.088424,0.444056,0.498484,0.918573,-0.385853,-0.085677
0.166830,-0.288156,0.668016,0.855679,0.330318,-0.398376
0.590279,-0.091184,0.465122,0.964774,-0.169102,0.201534
-0.757108,0.260850,-0.991688,-0.182118,-0.040099,0.982459
-0.653914,0.695924,-0.992082,-0.182163,-0.030823,0.982785
0.613965,0.074397,0.349733,0.261508,-0.443842,-0.857099
-0.570304,0.242999,0.721269,0.643049,0.358959,0.676488
0.577982,0.292299,0.486474,0.125263,-0.356178,0.925984
-0.189536,0.795753,0.349097,0.821736,0.497217,-0.278435
0.220900,-0.362412,-0.133570,-0.506538,0.167262,0.845838
0.333725,-0.174505,0.600808,0.707127,0.529437,0.468688
-0.493590,0.778966,0.637183,0.059423,-0.919401,0.388806
0.394561,-0.227496,0.780241,0.487564,0.843899,-0.223863
-0.742013,-0.349317,0.180646,-0.536651,-0.633776,-0.557076
0.707854,0.221902,0.431861,-0.137665,0.974939,-0.174765
0.337563,0.405670,0.603223,0.549670,0.446033,-0.706341
-0.412454,-0.216473,0.775271,0.378827,-0.785189,-0.489865
-0.614354,0.319550,0.620114,0.904932,0.205910,0.372425
0.049972,0.282058,0.889593,0.989181,-0.145675,0.017343
0.098380,-0.478077,0.247104,-0.090940,-0.578547,0.810563
0.025832,0.457263,0.256611,0.851865,-0.014164,-0.523570
0.813976,-0.233820,0.609832,0.496434,-0.149619,-0.855083
0.509207,0.531407,0.612031,0.740311,-0.065537,0.669063
-0.564122,-0.270529,0.616733,0.907154,-0.237647,-0.347268
-0.374714,0.242775,0.340874,-0.557403,-0.098766,0.824346
-0.467109,-0.060182,0.787879,0.454178,0.818064,0.352837
0.441798,-0.472873,0.331317,-0.287959,-0.805133,0.518498
-0.326241,0.143897,-0.058953,0.947638,0.077961,-0.309685
0.227732,-0.132369,0.749153,0.064282,0.741940,0.667378
-0.605960,-0.211885,0.658980,0.636016,0.761443,-0.125251
0.298003,0.069361,0.848249,0.149887,-0.981594,0.118348
-0.738824,-0.122351,0.003870,-0.428548,-0.189593,0.883403
-0.253953,0.127949,-0.156447,0.818901,0.391774,0.419421
0.646758,-0.405668,0.526522,0.223085,0.962452,-0.154656
0.629709,-0.708737,0.176287,0.433483,-0.024564,-0.900827
-0.288698,0.131306,0.778550,-0.514158,0.317516,-0.796759
0.476219,0.415966,0.604735,0.753951,-0.648852,-0.102713
-0.479212,-0.437509,0.539650,0.691874,-0.617016,-0.374970
0.295596,-0.780867,0.526687,0.300848,-0.521103,0.798713
-0.286355,0.199575,-0.925904,0.376181,0.925454,0.044971
-0.189993,-0.013010,0.431988,-0.746803,0.663812,-0.040492
0.533478,-0.712151,0.153702,0.580878,0.580555,-0.570558
-0.148481,0.269132,0.857451,-0.080988,-0.710751,0.698766
0.279979,0.050446,0.703653,-0.152155,-0.933855,0.323671
0.344135,-0.542541,0.489664,-0.019832,-0.885224,0.464742
-0.512459,-0.698945,0.373944,0.740152,-0.044757,-0.670948
0.449868,0.053133,0.347699,0.482289,-0.061641,0.873841
-0.585724,-0.050781,-0.977059,0.172305,-0.065026,-0.982895
-0.149132,0.102544,0.294726,-0.539110,0.422194,0.728775
0.119917,0.141267,0.681107,0.023060,0.289497,0.956901
-0.176524,0.242832,0.871456,-0.543120,-0.832519,0.109236
-0.336197,-0.150276,0.802508,0.528128,0.490767,0.692985
0.031622,0.417644,0.639559,-0.430596,0.558082,0.709318
0.017634,-0.117148,0.033343,-0.578246,-0.087552,0.811151
0.226950,0.669065,0.153168,-0.332937,0.491594,0.804667
0.481555,0.498839,0.661534,0.678915,0.161733,-0.716182
0.151084,0.027225,0.794793,0.873563,0.477822,0.092592
0.591840,0.198961,0.439551,-0.229411,0.968712,0.094698
0.126944,0.622172,0.521450,0.771649,-0.261330,-0.579883
-0.343093,-0.107020,0.093840,0.144168,0.278775,0.949474
-0.964798,-0.563862,0.267032,-0.405518,-0.567327,0.716725
-0.496519,0.389218,0.718828,0.016402,-0.594205,0.804147
0.458195,0.090625,0.720112,-0.383253,-0.111716,0.916863
0.741102,0.131697,0.566823,0.131436,0.507172,0.851764
-0.133646,0.145520,0.932004,0.760528,0.648244,0.037095
0.450777,0.097844,0.552131,0.177690,0.826847,0.533619
-0.249852,-0.029126,0.829350,0.204140,-0.575637,0.791814
-0.306265,0.744776,0.561384,-0.687929,0.615068,-0.385286
-0.802785,-0.412663,0.465834,-0.536684,0.005904,0.843763
0.181274,-0.374219,-0.152139,-0.519086,0.124327,0.845632
0.676947,-0.233764,0.583345,0.614554,0.541708,-0.573477
-0.511093,-0.714780,0.375215,0.470307,0.541526,-0.696822
-0.256099,0.244063,0.298298,0.868015,-0.004509,0.496517
0.095191,-0.749363,0.450430,0.982297,-0.186434,-0.018319
0.200535,0.453793,0.683979,-0.005276,-0.534157,0.845369
-0.457544,0.679808,0.609756,-0.397402,0.414294,-0.818800
-0.330079,-0.215355,0.709551,-0.722380,-0.690829,-0.030370
-0.341987,0.332980,0.706411,0.750504,-0.646158,0.138646
-0.416032,0.713998,0.610442,-0.579590,0.415647,-0.700937
0.085367,0.043172,0.812612,0.272307,0.913951,0.300903
-0.796669,-0.431465,0.630409,-0.693072,-0.594243,-0.408076
-0.495607,0.577236,0.430349,0.431074,-0.111218,-0.895436
-0.633221,0.760723,-0.990608,-0.217206,-0.028224,0.975718
0.104496,-0.087770,0.616212,0.523103,0.187173,0.831462
-0.488777,-0.695027,0.228268,0.029609,0.999413,0.017211
0.723209,0.074844,0.369013,-0.784395,0.257726,0.564183
0.481944,-0.516745,0.606731,-0.271413,-0.036411,0.961774
-0.202290,0.014969,0.136252,0.965122,0.134071,-0.224866
-0.479797,-0.193867,0.113909,-0.818618,0.194539,-0.540388
-0.105537,0.282338,0.226044,-0.098847,-0.294563,0.950506
-0.116988,-0.380990,0.283415,0.900579,-0.369027,-0.229731
-0.084326,0.098739,0.561866,-0.589891,-0.753428,0.290473
0.372828,0.051845,0.748670,0.035265,-0.998270,-0.047044
0.422345,-0.860608,0.602321,-0.735980,0.431156,0.521956
-0.055891,-0.668447,0.591569,0.893302,0.049500,0.446723
0.088946,0.655019,0.608980,0.970304,0.233793,-0.062062
-0.362937,-0.254301,0.517218,0.976829,-0.005106,0.213960
-0.124667,0.771915,0.386171,0.940683,0.338935,-0.015446
0.052119,0.127782,0.825474,0.370571,-0.928637,0.017620
0.073590,-0.491395,0.579609,-0.292790,-0.535592,0.792095
-0.348037,0.751211,0.578923,0.766651,-0.572209,0.291245
0.080942,-0.531685,0.520535,-0.529984,-0.783633,0.324091
-0.611750,-0.527768,0.089481,0.915873,0.110845,-0.385863
-0.490012,-0.321619,0.329995,0.760086,-0.550355,-0.345513
-0.415381,-0.392854,0.635785,0.124653,0.510109,0.851029
-0.249398,0.045690,0.885195,-0.494488,0.200293,-0.845792
-0.164161,-0.630787,0.596398,-0.125507,0.743668,0.656663
-0.724965,-0.501804,0.476840,-0.730743,0.306512,0.609971
0.013013,-0.473210,0.715727,0.769372,-0.482092,-0.419110
-0.045155,0.730059,0.431417,0.805355,0.510624,-0.301110
-0.265599,0.108252,0.877646,0.616722,0.780200,0.104602
-0.343353,-0.448699,0.387556,0.077527,0.389482,0.917765
-0.209186,0.246804,0.852875,0.793663,0.601383,0.091861
-0.345631,0.674940,0.469888,0.652642,-0.131214,0.746218
-0.440237,0.241431,0.512084,0.928793,0.330032,0.168589
-0.522676,0.079546,0.697527,-0.565502,0.485387,0.666789
-0.132280,0.317479,0.700540,0.437649,-0.472246,0.765145
-0.315181,0.092639,0.003133,0.514413,-0.844242,-0.150452
-0.777604,-0.242997,0.004772,0.543789,0.196688,-0.815847
-0.409656,0.345178,-0.978496,-0.343299,-0.009448,0.939179
0.261760,0.252567,0.603020,-0.253824,0.895709,-0.365074
0.570824,-0.079935,0.580371,0.125639,-0.523549,-0.842681
0.747740,-0.172602,0.603071,-0.470497,0.506783,0.722359
0.515323,0.301867,0.452603,-0.506369,-0.781658,0.364144
-0.284274,-0.000252,0.879629,0.299322,0.762788,-0.573202
-0.288958,-0.580369,0.692812,-0.407345,0.813584,0.414911
0.231439,-0.092974,0.602499,0.050891,0.924400,0.378015
0.289869,-0.121793,0.723582,-0.561104,0.315523,0.765250
-0.154467,-0.740633,0.327555,-0.825070,0.484304,0.291049
0.268007,-0.567834,0.130355,-0.248926,-0.351918,0.902325
0.271391,-0.396322,0.684144,-0.619480,-0.708341,-0.338375
0.309714,0.038976,0.850969,-0.683964,0.696188,0.217979
-0.192985,-0.057832,0.897346,0.403299,0.032014,-0.914508
0.099552,0.176576,0.217478,-0.204300,0.633768,0.746056
0.070206,0.407516,0.489537,0.962489,-0.237180,-0.131757
0.037673,-0.228113,0.598508,0.067608,0.977868,-0.198000
-0.184657,0.541983,0.577791,0.657519,0.350027,0.667196
-0.499185,-0.345904,0.323666,-0.396315,0.601634,0.693520
0.359425,-0.550152,-0.124152,-0.290926,0.259728,0.920817
0.063764,-0.346240,0.646245,0.292852,-0.088035,-0.952096
0.299825,-0.734981,0.547225,-0.225267,0.078361,0.971141
-0.029800,0.161411,0.216309,0.147101,-0.291040,0.945334
-0.098055,0.207465,0.785553,-0.123886,-0.654485,0.745856
-0.236775,-0.204330,0.881154,0.934005,0.332612,-0.130397
-0.517209,-0.555412,0.669414,0.677732,0.616714,0.400428
0.194353,-0.423015,0.767112,0.881284,-0.284437,-0.377405
-0.275944,0.127949,-0.254920,0.229556,-0.947261,0.223609
-0.406727,0.082679,0.678679,-0.149151,-0.263243,0.953130
0.454746,-0.256930,0.203243,-0.507584,-0.003389,0.861595
-0.633287,-0.516634,0.689902,-0.459478,-0.887672,0.030315
-0.202941,0.042444,0.080025,-0.300770,0.158331,0.940462
0.047563,0.123248,0.677612,0.338394,-0.653118,-0.677441
-0.023164,0.447358,0.639649,0.250811,-0.641557,-0.724913
-0.398529,0.189951,0.504725,0.973134,-0.080913,0.215556
0.580649,-0.346857,0.221393,-0.550542,0.336918,0.763799
0.233782,0.669791,0.647770,0.084916,-0.169327,0.981895
0.045351,0.492348,0.662729,0.778245,-0.263633,-0.569940
-0.187715,0.264878,0.833125,0.445012,0.159920,0.881130
0.131888,0.578357,0.691389,0.609466,0.523555,-0.595349
-0.214458,-0.576284,0.673583,0.831622,-0.285054,-0.476601
-0.546815,-0.093365,0.786214,-0.644937,0.384715,-0.660341
0.594183,-0.147924,0.577677,0.199711,0.091990,0.975527
0.006637,-0.090120,0.778169,0.378993,0.182779,-0.907169
0.172555,-0.060799,0.717634,-0.049154,0.317565,0.946962
-0.811764,-0.634704,0.402350,-0.039970,-0.991789,0.121475
0.971371,-0.310875,0.390975,0.014464,-0.052804,0.998500
-0.444661,-0.295989,0.793675,0.806608,0.534906,0.251515
0.063244,0.012675,0.834993,0.663815,-0.746451,-0.046490
-0.599648,-0.620211,0.228561,0.863835,0.455791,-0.214577
0.275620,-0.182227,0.797767,0.809314,0.531183,-0.250710
-0.751838,-0.070758,0.695367,0.416720,0.356050,0.836405
0.620340,-0.430905,0.639966,-0.357503,0.747023,0.560489
-0.348883,0.188048,-0.681628,0.366809,0.929945,-0.025543
0.353700,0.269747,0.232157,0.536793,0.031730,-0.843117
0.156874,0.327551,0.667444,0.220099,0.121372,0.967897
-0.753139,-0.631514,0.585722,0.591502,0.519940,0.616269
-0.096689,-0.785345,0.203764,0.400432,0.480264,0.780385
-0.234889,0.017040,0.886250,0.368257,-0.680579,0.633402
0.417464,0.563527,0.565629,0.820819,0.549989,-0.154172
-0.244517,0.340702,0.825423,-0.435827,-0.884506,-0.166444
0.521310,0.225092,0.503441,0.715044,0.037358,0.698080
0.470884,-0.590330,0.172779,0.590729,0.006625,-0.806843
0.164098,-0.153073,0.839530,-0.586679,0.685093,-0.431804
-0.086604,0.095942,0.884191,0.910019,-0.034418,-0.413136
0.192791,0.092304,0.685835,0.889277,0.398381,0.224676
0.333659,0.047482,0.847537,-0.103372,-0.976798,0.187564
0.298459,-0.301138,0.189911,0.684503,0.364469,-0.631362
-0.213936,-0.982149,0.457369,0.730233,0.474929,-0.491124
-0.068969,-0.806049,0.608764,-0.176555,-0.367745,-0.913013
0.412585,0.176521,0.716401,-0.193487,0.838554,0.509303
-0.206648,0.119947,-0.278725,0.672630,-0.738586,-0.045381
0.561456,0.452562,0.255937,-0.075479,0.050151,0.995885
0.245885,-0.241319,0.728348,0.400769,0.384299,-0.831684
0.250180,-0.259002,0.768815,0.764781,0.158704,-0.624438
0.212115,0.543661,0.687665,-0.081677,0.156889,-0.984233
-0.006701,-0.358215,0.637501,-0.178998,-0.090375,0.979690
-0.692888,0.751378,0.579723,0.368627,-0.287863,0.883883
-0.289283,-0.619092,0.698773,-0.426651,0.795363,0.430542
0.245951,-0.332140,0.601317,0.208710,-0.902043,0.377834
0.308999,0.760052,0.666847,0.800427,-0.261241,-0.539509
0.174246,0.096669,0.740943,0.487025,0.553915,0.675266
-0.195717,0.062590,0.193394,0.693452,-0.668400,-0.269010
0.238078,0.266669,0.780495,-0.060191,0.763839,0.642594
-0.106057,-0.578242,0.703424,0.496336,0.805692,0.323280
0.311342,0.465377,0.597656,-0.224048,-0.685395,0.692846
0.673498,-0.529279,0.180633,0.095913,-0.145382,0.984716
0.068451,0.145743,0.804440,0.907424,0.373525,0.192510
-0.013664,-0.350045,0.844995,-0.736361,-0.555160,-0.386743
0.823020,-0.273495,0.603020,-0.676361,-0.083088,0.731869
-0.366581,0.057554,-0.089481,-0.629151,0.761523,-0.155729
-0.041382,0.135782,0.872982,-0.541996,-0.365381,-0.756794
-0.196694,-0.101256,0.543412,-0.584533,0.133332,0.800340
0.819768,-0.435046,0.508296,0.728509,0.413878,-0.545875
-0.138004,-0.434933,0.209776,0.998777,0.048905,-0.007221
-0.227210,0.111106,-0.091019,0.514014,-0.812278,0.275670
-0.779685,-0.493410,0.335193,0.461784,0.869688,0.174352
0.257662,0.496993,0.684932,0.697461,0.329266,-0.636500
0.030517,-0.839120,0.349021,0.476436,-0.104248,0.873007
0.339386,-0.517416,0.680357,0.432445,0.863756,0.258682
-0.288178,-0.618421,0.710402,-0.455191,0.775907,0.436771
0.469321,-0.755911,0.547136,-0.262417,-0.828901,-0.494024
0.281216,-0.370078,0.268011,-0.033042,-0.486603,0.872998
-0.419221,0.169694,-0.356990,-0.615422,-0.245914,-0.748853
-0.401457,0.143337,-0.461932,0.338171,0.934822,0.108390
-0.019975,-0.063260,0.471108,0.389963,0.334450,0.857947
-0.088033,-0.333873,0.807337,-0.288101,0.472224,0.833068
0.338800,-0.261295,0.518998,0.682385,0.608321,0.405334
-0.536405,0.634258,0.570954,-0.544113,-0.807819,0.226648
-0.754114,-0.525307,0.493388,-0.708350,0.333376,0.622174
0.204307,0.061750,0.739265,-0.066367,0.988609,0.135082
-0.845923,0.147926,-0.992819,-0.016127,0.095415,0.995307
0.161103,0.345905,0.812065,0.284204,-0.954915,0.085824
-0.826793,0.402256,0.641911,0.774100,0.253080,-0.580275
-0.040602,-0.472873,0.573038,-0.092386,0.612114,0.785354
-0.138524,0.593856,0.571386,0.402693,0.505157,0.763318
0.244453,-0.122968,0.359151,0.123057,0.008081,-0.992367
0.165204,-0.035169,0.906369,-0.078153,0.987559,-0.136455
-0.236969,0.574774,0.591454,0.370810,0.678029,0.634647
-0.597044,0.702358,0.554584,0.946264,0.127051,0.297392
-0.257596,-0.277580,0.651621,0.630804,-0.295910,0.717303
0.038779,0.646513,0.248210,0.993869,-0.094554,-0.057314
-0.482204,-0.277691,0.793547,0.979342,0.186214,-0.078825
0.417269,0.333594,0.699358,0.796005,-0.314425,-0.517217
-0.354284,0.516690,0.718078,0.746288,0.565326,-0.351370
-0.718394,0.036681,0.822728,0.361940,-0.881413,0.303497
0.725813,0.101089,0.563506,0.131436,0.507172,0.851764
-0.264427,0.130075,0.254056,0.978811,-0.036321,0.201519
-0.440887,-0.290058,0.673672,-0.088791,-0.951863,-0.293382
-0.407964,0.493243,-0.977148,-0.363823,0.057500,0.929691
-0.301321,-0.926750,0.459403,0.714908,0.159843,-0.680704
-0.003708,0.307294,0.559706,0.490278,-0.088353,0.867076
0.651442,0.225316,0.440872,0.370072,-0.914498,0.163522
0.357799,-0.144063,0.747666,0.557808,0.675406,0.482366
0.506215,0.620997,0.261580,-0.751581,-0.653429,-0.090316
-0.440041,-0.279315,0.800728,0.985641,0.054476,0.159824
0.176524,0.357041,0.756995,-0.546340,-0.745472,-0.381816
-0.470167,0.770404,0.612743,-0.152981,-0.724778,0.671784
-0.756263,-0.563414,0.596119,0.047960,-0.139928,0.988999
-0.107489,-0.165887,-0.171711,-0.316187,-0.077438,0.945531
0.938383,-0.367113,0.541112,0.096719,0.850334,0.517278
0.813847,-0.148988,0.351360,-0.156590,0.715378,0.680966
0.378164,-0.397890,0.266448,0.206000,0.694116,-0.689759
-0.697378,0.400521,0.392500,-0.100019,-0.964338,0.245048
-0.094866,0.325761,0.771280,0.305494,-0.951061,-0.046432
0.029800,-0.315575,0.027942,-0.206275,0.098138,0.973560
-0.104171,0.070032,0.689584,-0.609879,0.791265,-0.044136
0.019455,-0.264877,0.766158,0.379260,0.677417,0.630292
0.488451,0.279148,0.712232,-0.108008,-0.633517,0.766153
-0.205479,0.030806,0.879400,-0.443057,0.550225,-0.707781
-0.129222,0.142386,-0.036622,0.907317,-0.417983,-0.045451
0.825038,-0.275229,0.389030,-0.274779,0.043603,0.960518
0.551174,-0.523012,0.606604,-0.475164,-0.008990,0.879851
-0.212440,-0.336336,0.286935,0.707096,0.141123,0.692892
-0.508101,0.506450,-0.985257,-0.155437,-0.018025,0.987681
-0.658532,-0.603201,0.568564,-0.072873,-0.996568,0.039270
0.020040,0.044459,0.947052,0.860127,-0.157216,-0.485247
0.211400,0.217482,0.854222,0.534348,0.770174,0.348287
-0.451754,-0.643378,0.461640,-0.757622,-0.194689,0.622981
-0.084649,0.357321,0.584006,0.877322,-0.478889,0.031156
-0.185438,0.163034,0.808443,0.718809,0.658018,-0.224333
0.134948,-0.100639,0.447189,-0.153930,-0.634672,0.757296
-0.602445,0.418819,0.648265,0.803700,-0.114137,0.583985
-0.210878,-0.228617,0.883276,0.875861,0.474918,-0.085555
-0.184786,-0.836769,0.118446,0.976988,-0.060349,-0.204578
-0.827184,0.432361,0.440682,0.631309,-0.755170,0.176543
0.102999,0.589604,0.655306,-0.596177,0.653689,0.466116
0.038195,-0.200301,0.714139,0.923600,0.188068,-0.334056
-0.098249,-0.301529,0.026773,-0.368224,-0.102402,0.924081
-0.058820,0.351949,0.369928,0.962429,-0.243073,0.121019
0.144251,-0.321786,0.604138,-0.794354,-0.600627,0.090826
-0.870257,-0.307685,0.687538,0.516774,0.592881,-0.617605
0.389355,-0.462858,0.693918,0.209683,0.884377,0.417024
-0.643829,-0.685403,0.215318,0.889472,0.410110,-0.201619
0.308219,-0.795137,0.600808,-0.460863,0.626948,0.628125
-0.368144,0.231303,-0.550644,-0.563729,-0.813433,-0.143303
0.141324,-0.575109,0.571640,0.145934,-0.827405,0.542314
-0.265535,0.024874,0.885183,-0.463574,0.563226,-0.684015
0.408550,0.262752,0.440783,0.722571,0.621721,-0.302249
0.473030,-0.483058,0.622211,-0.533793,-0.805318,0.257931
0.521701,0.143113,0.725183,-0.530585,0.284235,0.798555
-0.519812,-0.056601,0.797386,0.751528,0.294355,0.590391
-0.612922,0.404830,0.644148,0.873730,-0.020382,0.485984
-0.480578,0.382110,0.769933,-0.660391,0.710390,0.243373
-0.490598,-0.687305,0.327237,-0.639039,-0.488614,0.594042
-0.224283,0.198568,0.916092,-0.193912,0.975733,-0.101704
-0.222135,0.331245,0.812650,0.958871,0.258384,0.117493
0.708180,0.076467,0.568857,0.034363,0.428619,0.902832
0.152775,-0.408186,0.752750,0.819147,-0.097153,-0.565295
0.099747,0.626760,0.625045,0.127285,0.958218,0.256157
-0.840002,-0.087938,-0.989769,-0.244813,0.113913,0.962855
0.049841,0.387650,0.765002,0.236894,0.187483,0.953274
-0.714751,-0.283904,-0.001671,0.606805,0.079743,-0.790840
-0.445702,-0.649254,0.462351,-0.757622,-0.194689,0.622981
0.863492,-0.416468,0.395436,-0.079405,-0.168771,-0.982452
0.033640,-0.796479,0.018664,0.735418,0.435398,-0.519220
-0.336391,-0.020060,0.853892,0.920333,-0.333721,0.204003
-0.023684,-0.111161,0.880518,0.548460,-0.783539,0.291991
-0.136509,-0.228393,0.171178,0.727497,0.591793,0.347173
0.128570,-0.807671,0.456136,0.702279,-0.139573,-0.698085
-0.452534,0.620773,0.569302,-0.469340,-0.572936,0.671911
-0.057517,-0.399008,0.627231,0.289420,0.164858,0.942899
-0.169822,-0.800676,0.605409,0.664275,-0.579951,-0.471588
-0.295334,-0.185417,0.871825,0.901811,0.264319,-0.341865
-0.867916,-0.566379,0.415974,-0.355871,-0.913751,0.195996
-0.293579,-0.536667,0.564269,0.377519,0.168884,-0.910471
0.100201,0.579419,0.660594,0.718584,-0.640541,-0.270822
0.434511,0.305224,0.708915,0.541623,-0.102431,-0.834357
-0.763093,0.007192,0.824330,0.372768,-0.905450,0.202989
-0.070531,0.084358,0.939236,0.232429,0.804861,-0.546055
0.141259,0.340535,0.204654,-0.253099,0.752551,-0.607953
0.601602,-0.214347,0.376753,-0.109305,0.326213,0.938955
-0.260654,-0.645169,0.724306,0.196859,-0.947238,-0.252955
0.954584,-0.473210,0.245032,-0.146034,-0.636757,0.757110
0.084977,-0.437005,0.431378,0.766746,-0.324879,-0.553674
-0.324874,-0.201589,0.718790,0.666987,0.656579,0.352183
0.455658,0.445233,0.659755,-0.134903,0.933804,-0.331379
-0.135012,0.124926,0.861276,0.948906,-0.290383,0.123510
-0.337626,-0.218879,0.687550,0.488777,-0.872102,0.023123
-0.048409,0.009876,0.895579,-0.210340,-0.445508,0.870218
0.442189,0.103664,0.561562,-0.536467,0.072037,-0.840841
0.017048,0.527882,0.650769,0.881849,-0.457297,-0.114988
-0.051987,0.631181,0.221952,0.862949,-0.280593,-0.420223
