-0.151307,0.088054,0.639010,0.839898,0.501346,0.207902
-0.136259,0.015312,0.618972,0.224888,0.940792,-0.253643
-0.109293,-0.099173,0.593807,-0.264975,-0.610362,0.746490
-0.054372,-0.316334,0.555016,0.149338,0.874579,0.461313
-0.071067,-0.274963,0.549617,-0.048328,0.734272,0.677133
-0.068375,-0.303086,0.535447,0.588931,0.777691,0.219903
-0.138676,-0.067677,0.555893,-0.182866,-0.735400,0.652493
-0.093310,-0.287899,0.494130,-0.646182,0.702241,-0.298841
-0.089631,-0.320646,0.479128,0.729158,-0.554307,0.401339
-0.194584,0.042373,0.517692,-0.617079,-0.450638,-0.645088
-0.058490,-0.531808,0.394756,0.993515,0.102513,0.049182
-0.378844,0.049808,0.223652,-0.010102,-0.406751,0.913483
-0.435907,0.244221,0.242496,-0.106481,-0.441908,0.890718
-0.403285,-0.286213,-0.064111,-0.068710,0.869092,-0.489854
-0.156799,-0.489750,0.221323,0.274305,0.066279,-0.959356
-0.356107,0.113926,0.234072,0.032065,-0.366954,0.929686
-0.239839,-0.495437,0.045547,-0.487626,0.842609,-0.228543
-0.362203,-0.291275,-0.064126,-0.068710,0.869092,-0.489854
0.113466,-0.205911,0.979054,-0.344169,-0.783355,0.517593
0.108415,-0.205972,0.969013,0.904994,-0.421466,0.057898
0.102373,-0.202035,0.959349,-0.763278,-0.002985,-0.646063
0.104845,-0.227221,0.946555,0.794726,-0.445330,-0.412422
0.091170,-0.196161,0.940203,0.329422,-0.867800,0.372028
0.093257,-0.219533,0.927802,0.107086,-0.818553,0.564362
0.087984,-0.218971,0.917685,0.861747,-0.471825,-0.186475
0.080240,-0.208535,0.909095,0.660042,-0.704050,-0.262027
0.076779,-0.213284,0.898312,-0.198205,0.952104,0.232837
-0.124232,-0.479002,0.217906,-0.311850,0.168674,0.935040
-0.206833,-0.191663,0.249634,0.187197,-0.547169,0.815821
0.146749,-0.177102,0.989263,0.085804,0.990959,0.103143
0.136698,-0.158852,0.981096,0.210002,0.948401,0.237559
0.154877,-0.239344,0.962419,-0.496693,0.822097,0.278301
0.142135,-0.211722,0.955644,-0.350731,0.831965,-0.429910
0.119398,-0.148792,0.952710,0.808646,-0.561760,-0.174691
0.128460,-0.196787,0.937375,-0.281357,-0.674324,-0.682734
0.130932,-0.222533,0.924808,-0.365697,0.909709,-0.196710
0.134447,-0.252091,0.911318,-0.221903,-0.486964,-0.844764
0.106217,-0.171165,0.910078,-0.663112,0.747855,-0.031562
0.112479,-0.209973,0.895514,-0.105577,0.936374,0.334750
0.102264,-0.190288,0.887907,-0.608509,0.788018,0.093507
0.101275,-0.204286,0.876489,0.924297,-0.368724,0.098574
0.094519,-0.198223,0.866871,-0.662477,0.656463,0.360805
0.091223,-0.203534,0.856406,-0.550442,0.769714,0.323347
0.078043,-0.174415,0.849434,-0.323325,0.580447,0.747357
0.073209,-0.174476,0.839090,-0.067773,-0.975936,0.207258
0.087764,-0.243906,0.820775,-0.145689,0.941302,-0.304509
0.059370,-0.161166,0.820443,0.883549,-0.462466,0.073935
0.074803,-0.231969,0.802219,-0.062052,0.995489,-0.071777
0.051461,-0.167726,0.799331,0.535089,-0.792166,0.293518
-0.228745,0.016625,0.428677,0.385509,0.632045,-0.672237
-0.237369,0.028748,0.419392,-0.250380,-0.643550,0.723293
-0.254833,0.073992,0.414824,0.520616,0.073677,0.850606
0.034326,-0.123857,0.794552,0.321391,0.882766,-0.342684
0.047891,-0.190099,0.776298,0.212997,0.756913,-0.617830
0.060523,-0.252904,0.758407,-0.573822,-0.801249,-0.169494
0.045529,-0.217346,0.752162,-0.543452,-0.822134,-0.169575
0.029823,-0.179100,0.746657,0.270117,-0.530257,-0.803657
0.008733,-0.121107,0.743602,-0.308410,-0.667721,0.677519
0.009281,-0.141855,0.730672,0.123397,0.596436,0.793119
-0.013510,-0.078363,0.728373,0.767447,0.522787,0.371104
0.013126,-0.190661,0.704055,-0.001675,0.852232,0.523161
-0.028943,-0.077301,0.696977,-0.655269,-0.685115,-0.318182
0.000769,-0.200973,0.671419,-0.495612,0.204962,-0.844014
-0.036633,-0.085238,0.675729,0.757538,0.565719,0.325727
-0.081008,0.055682,0.682958,0.595198,0.798797,0.087536
-0.097100,0.096365,0.678058,0.586584,0.797089,-0.143416
-0.097155,0.077681,0.665158,0.126012,-0.914620,0.384175
0.067718,-0.513560,0.589693,-0.408789,0.319623,0.854829
-0.082930,0.007938,0.645695,-0.588876,-0.758715,0.278527
-0.085237,-0.002185,0.633823,0.569744,0.783413,-0.248307
-0.085347,-0.018934,0.621422,-0.404820,-0.828601,0.386707
-0.093035,-0.028057,0.599342,-0.407451,-0.656594,0.634718
-0.027076,-0.284213,0.555364,-0.013053,0.890641,0.454520
0.073429,-0.666541,0.493934,0.843878,0.078392,-0.530777
-0.089740,-0.096048,0.558555,0.710352,0.683420,0.168337
-0.112808,-0.031619,0.556362,0.134317,-0.491893,0.860233
-0.084469,-0.169853,0.516996,0.702288,0.414346,0.578885
-0.078207,-0.212597,0.500285,0.968778,-0.003562,-0.247904
-0.090126,-0.187911,0.493102,0.912949,-0.393290,0.108848
-0.159325,0.044684,0.513926,0.494064,0.372941,0.785376
0.000990,-0.539243,0.434046,0.997377,-0.069914,0.018757
-0.179481,0.099678,0.510660,-0.447176,-0.510602,-0.734383
-0.047396,-0.421008,0.417138,0.806636,-0.518242,0.284189
-0.027679,-0.512435,0.393591,0.973093,-0.066658,0.220558
-0.025098,-0.542180,0.378105,0.755715,0.173920,0.631384
-0.134995,-0.158416,0.421252,0.869205,0.149485,-0.471315
-0.184754,-0.014496,0.419422,-0.458352,-0.523405,0.718304
-0.193211,-0.002748,0.410076,0.541003,0.278654,0.793516
0.179756,-0.167164,1.000000,-0.089466,0.911341,-0.401812
0.177230,-0.174352,0.989610,-0.025754,-0.930900,0.364366
0.170640,-0.168665,0.980552,0.119430,0.982587,-0.142336
0.171409,-0.188537,0.968347,0.531508,0.789704,-0.306378
0.169101,-0.197037,0.957761,0.563955,-0.747584,-0.350818
0.161358,-0.187038,0.948702,-0.005427,0.916762,0.399398
0.153175,-0.175414,0.939885,0.938407,-0.212589,-0.272394
0.147133,-0.172227,0.930086,-0.270339,0.724498,0.634050
0.154603,-0.214908,0.915643,0.855582,0.340286,0.390109
0.152406,-0.224095,0.904845,-0.343203,0.859851,0.377979
0.139665,-0.196661,0.897662,-0.197812,0.969150,0.147033
0.128791,-0.175101,0.890266,-0.038881,0.414603,0.909171
0.102703,-0.101923,0.888285,0.191598,0.933390,0.303435
0.109732,-0.144231,0.873344,0.408584,0.841090,-0.354439
0.107426,-0.153166,0.862107,0.897325,-0.350618,-0.268095
0.105284,-0.162728,0.851112,0.771330,-0.573371,0.276219
0.105503,-0.179789,0.839301,0.386116,-0.855888,0.344049
0.104515,-0.194910,0.827248,0.429745,-0.739758,0.517762
0.104515,-0.212097,0.815361,-0.538610,0.842315,0.020135
0.092487,-0.187038,0.807921,-0.628949,0.209792,0.748606
0.074418,-0.141294,0.802915,-0.295236,0.917650,-0.265997
0.075626,-0.162791,0.790015,0.259576,-0.825980,0.500378
0.077988,-0.189286,0.776964,0.059869,-0.691748,0.719653
0.099847,-0.284026,0.755655,0.379485,-0.798323,0.467623
0.105668,-0.322271,0.740547,-0.031732,0.999474,0.006698
0.088148,-0.277338,0.735859,-0.513988,-0.836746,-0.188873
0.047232,-0.151230,0.740623,-0.504187,0.321791,0.801403
0.059865,-0.214096,0.722505,0.996630,-0.000929,0.082021
0.050252,-0.215534,0.701665,0.051729,0.919124,0.390558
0.015653,-0.109359,0.704675,0.722344,0.133599,-0.678506
0.060743,-0.289461,0.671782,0.074109,0.230361,0.970279
0.014774,-0.143106,0.679858,0.857421,0.483191,-0.177076
-0.000438,-0.107235,0.673793,0.832423,0.144610,0.534939
-0.033007,-0.008622,0.675638,0.653352,0.757054,0.000858
-0.045584,0.018562,0.668561,0.814152,0.548227,-0.191321
-0.067442,0.078493,0.666156,0.642257,0.727793,-0.240467
-0.050307,-0.001060,0.645861,0.494043,0.846044,-0.200327
-0.053053,-0.009247,0.634216,-0.568206,-0.816337,0.103616
-0.037950,-0.081613,0.614647,-0.398128,-0.853874,0.335253
-0.045640,-0.091675,0.592022,-0.114930,-0.668527,0.734754
0.108743,-0.687600,0.492270,0.848530,0.056885,-0.526081
0.100561,-0.676977,0.482969,-0.689170,0.676891,0.258579
-0.075681,-0.057991,0.554351,-0.017990,-0.333396,0.942615
-0.074693,-0.079362,0.541148,-0.234667,-0.668879,0.705359
0.108854,-0.745530,0.451861,0.266143,-0.942198,-0.203543
-0.045365,-0.204599,0.513458,0.111108,0.886704,-0.448789
-0.057996,-0.178664,0.506062,0.850415,-0.310962,-0.424378
-0.073814,-0.140855,0.500300,-0.692016,0.211812,-0.690108
-0.122363,0.018187,0.511522,0.493954,0.185414,0.849489
-0.002088,-0.439631,0.438235,0.701305,-0.249642,0.667721
-0.154546,0.098115,0.501283,0.621967,0.642323,0.447859
-0.030921,-0.353641,0.438931,-0.696122,0.473843,-0.539339
-0.261259,0.469507,0.542403,-0.608923,-0.755402,0.242036
-0.261862,0.452696,0.529488,-0.608923,-0.755402,0.242036
0.044487,-0.669852,0.373084,0.782173,0.375455,0.497231
-0.258951,0.422824,0.514667,-0.589386,-0.781275,0.205508
0.045640,-0.694848,0.358203,-0.768181,-0.469787,-0.434969
-0.272189,0.452072,0.508104,-0.589386,-0.781275,0.205508
-0.260765,0.391704,0.489336,-0.735471,-0.551233,0.393985
-0.180470,0.058682,0.420707,0.161256,0.603995,-0.780504
-0.158777,-0.264091,0.240575,0.177802,-0.624833,0.760243
-0.182887,-0.193224,0.240227,0.429985,-0.048584,0.901528
0.132744,-0.204036,0.808964,-0.528654,0.847906,-0.039758
0.130163,-0.212034,0.797924,-0.653984,0.753011,-0.072656
0.115280,-0.178164,0.791512,0.438688,0.801973,-0.405453
0.113138,-0.187974,0.780366,-0.140040,0.939468,-0.312711
0.119178,-0.227531,0.765243,-0.768121,0.640017,-0.019173
0.132305,-0.291775,0.747035,0.302325,-0.889174,0.343468
0.132469,-0.309835,0.734452,-0.317355,0.935520,-0.155202
0.107976,-0.241469,0.732622,-0.008093,0.463521,0.886049
0.076285,-0.146355,0.734074,0.505807,-0.768323,-0.392223
0.081283,-0.182663,0.719178,0.619642,-0.775429,-0.121463
0.055197,-0.106798,0.718361,0.340133,-0.907579,0.246190
0.072606,-0.186725,0.697990,0.376536,-0.905820,0.194192
0.104954,-0.321146,0.670754,0.537355,-0.372732,-0.756518
0.091662,-0.292587,0.663676,-0.424855,0.396974,0.813578
0.065302,-0.215658,0.663071,-0.442327,0.040844,-0.895923
0.012687,-0.045679,0.674141,0.384428,0.624207,0.680133
-0.000054,-0.017932,0.667094,0.348525,0.888260,0.299207
0.054153,-0.230781,0.629861,0.483404,-0.874078,-0.048048
0.012523,-0.100298,0.635834,0.677630,0.593009,-0.434923
0.011589,-0.170414,0.584930,0.032950,-0.350980,0.935803
0.133128,-0.628733,0.514032,0.704142,0.023493,-0.709670
0.034821,-0.292148,0.547772,-0.001274,0.518468,0.855096
0.035644,-0.314833,0.533753,-0.071320,0.789397,0.609726
-0.021969,-0.124795,0.548090,-0.217814,-0.695181,0.685041
-0.003955,-0.209721,0.525874,-0.019913,-0.987926,0.153641
0.133019,-0.706785,0.459362,-0.217925,0.817023,0.533837
-0.016091,-0.183599,0.518902,0.220092,0.868932,-0.443303
-0.002746,-0.251529,0.499212,0.162783,-0.969274,0.184418
-0.051077,-0.094985,0.509631,0.295408,0.446778,0.844466
-0.046354,-0.130420,0.494312,0.350555,-0.451047,0.820773
0.001154,-0.323520,0.456927,-0.218682,0.462020,-0.859486
-0.002855,-0.328145,0.445207,0.179464,-0.397592,0.899841
-0.089795,-0.030494,0.475302,-0.756090,-0.654237,0.017357
0.028340,-0.462940,0.415444,0.967214,-0.229188,0.109412
-0.294431,-0.312522,-0.071249,-0.068710,0.869092,-0.489854
-0.244673,0.065744,0.225800,0.084811,-0.331116,0.939771
0.209633,-0.180601,0.982336,-0.411928,-0.897095,0.159803
0.196067,-0.151041,0.975455,-0.323108,0.908836,0.263853
0.194366,-0.161729,0.964158,0.130319,-0.050727,0.990174
0.189149,-0.160291,0.954615,0.172570,0.865642,-0.469983
0.186127,-0.165728,0.944437,0.404091,0.875353,-0.265455
0.183712,-0.175414,0.933261,-0.359942,0.858012,0.366411
0.174210,-0.159041,0.925307,0.053469,0.473525,0.879156
0.158007,-0.119421,0.919484,-0.502064,0.847510,0.172215
0.160205,-0.144793,0.906403,0.305640,0.332408,0.892238
0.148617,-0.121170,0.898841,-0.725130,0.533120,0.435855
0.137632,-0.100422,0.891416,0.022301,0.999641,-0.014861
0.139060,-0.122108,0.879181,0.535210,0.736824,-0.413088
0.138071,-0.135857,0.867340,-0.550539,-0.783668,-0.287700
0.126757,-0.112422,0.860277,-0.541637,-0.808570,-0.229878
0.131811,-0.148604,0.845865,-0.093757,0.953470,-0.286538
0.130053,-0.160228,0.834265,-0.703148,0.547851,0.453257
0.136643,-0.201160,0.819233,-0.346456,0.936746,0.049757
0.234348,-0.150917,0.965292,0.939100,0.343291,-0.015590
0.225175,-0.135044,0.957277,0.967881,0.190503,0.164055
0.211940,-0.106922,0.950260,-0.490031,-0.787381,-0.374033
0.203921,-0.096110,0.941352,0.135140,-0.957939,-0.253161
0.200132,-0.099736,0.930812,0.502959,0.864098,-0.019154
0.197276,-0.106235,0.920346,0.856326,0.507740,0.094378
0.200078,-0.131918,0.907764,0.854370,0.349364,-0.384704
0.184865,-0.096860,0.901503,0.570803,0.781846,-0.250801
0.187610,-0.123170,0.888815,0.625302,0.779057,0.045482
0.191400,-0.153291,0.875204,0.896328,-0.386511,-0.217270
0.174758,-0.112546,0.869563,0.260674,-0.948925,-0.177739
0.182558,-0.156917,0.854258,-0.759843,-0.599082,-0.252467
0.175802,-0.150542,0.845139,0.038638,0.992456,0.116356
0.157843,-0.104547,0.840556,0.387138,-0.275903,0.879773
0.152242,-0.102047,0.830545,0.198520,-0.979760,-0.025702
0.164544,-0.161603,0.813713,0.742790,-0.559558,-0.367639
0.157238,-0.154354,0.804246,-0.489666,0.775212,0.399091
0.179976,-0.252341,0.782363,0.348619,0.912184,0.215374
0.150153,-0.165039,0.782272,0.773769,-0.613528,-0.157687
0.146749,-0.169664,0.771686,0.910716,-0.310796,0.272032
0.138785,-0.158479,0.763020,-0.667745,0.411866,0.620067
0.128571,-0.140855,0.754717,-0.563549,0.816993,-0.122206
0.125604,-0.147667,0.743844,-0.215992,-0.943515,-0.251251
0.122199,-0.153728,0.732668,0.255276,0.934119,0.249513
0.103253,-0.104172,0.728222,-0.296223,0.746144,0.596256
0.137467,-0.243218,0.700652,-0.272601,-0.209927,0.938946
0.099847,-0.127545,0.704826,0.292741,-0.867417,0.402355
0.106821,-0.169977,0.689431,0.433310,-0.888199,0.152788
0.085072,-0.110358,0.686300,0.602051,-0.727264,-0.329577
0.101603,-0.186975,0.666504,0.190351,-0.900857,0.390157
0.101769,-0.205472,0.653574,-0.788448,0.528306,-0.315027
0.066730,-0.099610,0.656311,-0.625010,-0.673219,0.395145
0.077218,-0.155542,0.638662,0.188961,-0.849775,0.492113
0.084030,-0.197287,0.623010,-0.299218,0.794400,0.528581
0.053603,-0.106296,0.624416,-0.581373,-0.226097,-0.781592
0.113632,-0.339956,0.583553,0.869306,-0.386275,-0.308380
0.195300,-0.652543,0.532604,0.704142,0.023493,-0.709670
0.072990,-0.646167,0.379043,-0.652074,-0.363795,-0.665171
-0.231712,0.451883,0.521548,-0.608923,-0.755402,0.242036
-0.227482,0.417014,0.505987,-0.574676,-0.743982,0.340936
-0.201999,0.305402,0.479930,0.612830,-0.646776,0.454006
-0.196287,0.264845,0.463324,0.575662,0.748061,-0.330177
-0.198265,0.253284,0.450954,0.698130,0.576067,-0.425160
-0.300088,0.435448,0.370271,-0.658877,0.329956,-0.676026
-0.279438,0.338023,0.344638,-0.450591,0.461279,-0.764323
0.114455,-0.168289,0.616613,-0.010122,0.877984,0.478583
0.099956,-0.135794,0.610034,-0.140088,-0.980745,0.136068
0.055197,-0.167539,0.584809,-0.175178,0.983397,0.047362
-0.104843,0.390392,0.647207,-0.516372,0.802513,-0.298886
0.095782,-0.332831,0.552385,-0.312852,0.826840,0.467396
-0.106437,0.360582,0.622783,0.683531,0.680656,-0.263616
0.059095,-0.237407,0.543598,-0.641224,0.253844,0.724151
0.013676,-0.091675,0.552521,0.447038,0.833384,0.325005
0.012632,-0.106235,0.539772,0.335847,0.887759,-0.314788
0.035755,-0.209035,0.515575,0.023494,-0.972213,0.232918
0.010161,-0.154417,0.501102,0.962575,0.097523,0.252859
-0.004888,-0.118796,0.495007,-0.224780,-0.689300,0.688723
0.061073,-0.377202,0.449109,-0.600720,0.519221,-0.607903
0.042509,-0.328957,0.445086,-0.715294,0.466947,-0.519919
0.041740,-0.346143,0.431581,-0.640958,0.529603,-0.555602
0.012578,-0.258654,0.433078,0.717200,-0.431699,0.547047
-0.115608,0.171106,0.471113,0.491722,0.301476,0.816897
0.034765,-0.379826,0.393788,0.880103,-0.469953,-0.067543
-0.155535,0.298778,0.478236,-0.821819,0.438353,-0.363951
0.075517,-0.587987,0.331254,0.947970,-0.317741,-0.019815
-0.215509,0.269281,0.334112,-0.381942,0.250915,-0.889473
-0.190575,0.034872,0.220734,0.201723,0.006567,0.979421
-0.162181,-0.154979,0.145647,-0.003913,-0.856815,0.515609
-0.125549,-0.401199,0.047997,0.598652,-0.763079,0.243568
-0.222650,-0.433507,-0.175085,-0.492236,0.832793,-0.253297
-0.177175,-0.276651,-0.063536,-0.710803,-0.388421,0.586420
0.248134,-0.115796,0.930660,0.825951,0.515806,-0.227485
0.257470,-0.165352,0.915129,0.615408,0.770584,-0.165753
0.263181,-0.201848,0.900883,0.123595,-0.581041,-0.804435
0.257853,-0.201099,0.890781,-0.078618,-0.897702,-0.433533
0.242367,-0.163977,0.885079,0.257101,-0.598197,-0.758986
0.231657,-0.142543,0.877638,0.089759,0.922491,0.375439
0.223089,-0.129794,0.868761,0.078069,-0.129010,0.988566
0.229679,-0.170103,0.854288,0.336557,0.887066,0.315980
0.215015,-0.136419,0.847861,-0.486450,-0.757784,-0.434890
0.229406,-0.204473,0.829698,0.209929,0.946786,-0.243979
0.200626,-0.120607,0.829033,0.993495,0.018480,0.112364
0.188434,-0.094236,0.822182,0.250777,0.955814,-0.153397
0.189149,-0.114297,0.809902,0.846863,-0.313212,-0.429792
0.190411,-0.136543,0.796911,0.606592,-0.792408,0.064306
0.178055,-0.110109,0.790090,0.881540,-0.041016,-0.470325
0.173935,-0.112796,0.779338,-0.585315,0.808631,0.059351
0.174979,-0.133793,0.766423,0.836393,-0.249011,-0.488303
0.157624,-0.091112,0.761130,-0.684599,0.284395,0.671151
0.168443,-0.146542,0.744403,-0.262951,0.949779,0.169636
0.156471,-0.120983,0.737386,-0.445765,0.501250,-0.741648
0.146200,-0.102360,0.729280,-0.196233,0.634892,0.747265
0.138512,-0.092048,0.720448,0.933654,-0.197073,0.299086
0.144113,-0.130420,0.705265,-0.653590,0.650744,-0.386463
0.125055,-0.081050,0.700894,0.975120,0.077050,-0.207857
0.134336,-0.131545,0.684047,-0.569066,0.816819,-0.094712
0.137193,-0.159665,0.670239,-0.396207,0.876227,-0.274311
0.134722,-0.167789,0.658988,-0.526944,0.834906,-0.158943
0.130877,-0.173352,0.647645,0.328217,-0.876468,-0.352245
0.126813,-0.176600,0.636968,-0.460580,0.878574,-0.126390
0.119783,-0.169414,0.627154,-0.563033,0.738604,0.370755
0.261040,-0.170164,0.848693,0.659223,0.719316,-0.219110
0.247748,-0.140356,0.842235,0.882007,-0.031732,0.470167
0.249616,-0.163227,0.829683,0.766453,-0.069487,0.638530
0.250605,-0.183725,0.816949,0.935003,0.329987,-0.129915
0.229295,-0.126420,0.813713,-0.501827,-0.672643,0.543802
0.191674,-0.012058,0.816768,0.941148,-0.335200,0.043370
0.195519,-0.043244,0.802809,0.902708,-0.430218,0.005585
0.196453,-0.063552,0.790045,-0.275000,-0.861705,0.426426
0.192278,-0.065364,0.779897,0.926066,0.308058,-0.217950
0.188710,-0.070488,0.769326,0.956474,0.160240,-0.243887
0.176186,-0.044056,0.762128,0.981906,-0.165265,0.092456
0.183931,-0.088049,0.746808,0.945857,0.043111,0.321707
0.194530,-0.143542,0.729598,-0.537194,0.640709,0.548556
0.115169,0.120238,0.751330,-0.066777,-0.569818,0.819053
0.118575,0.089805,0.737280,0.156624,0.972872,-0.170262
0.106931,0.113739,0.730248,0.193210,0.852589,0.485553
0.114016,0.071868,0.715034,-0.587339,-0.688112,0.426069
0.108140,0.074681,0.704932,-0.257017,0.671902,-0.694615
0.160699,-0.148293,0.656371,0.615438,-0.774141,0.148127
0.153229,-0.140230,0.646768,-0.379060,0.911227,0.161181
0.153615,-0.159478,0.633626,0.062086,-0.997337,-0.038253
0.143783,-0.141481,0.625671,0.066594,-0.945209,-0.319603
0.139335,-0.144105,0.615055,-0.005549,-0.952608,0.304151
0.124451,-0.241718,0.586003,-0.392262,0.050604,0.918460
-0.077713,0.466694,0.667956,0.611301,-0.694084,0.380208
0.103142,-0.183225,0.583236,0.032653,0.565623,0.824017
-0.070792,0.423387,0.651910,0.750212,-0.545570,0.373544
-0.065960,0.388517,0.637286,-0.143579,0.884665,-0.443569
-0.059040,0.346084,0.621165,0.050184,-0.793999,0.605844
-0.065466,0.350833,0.611289,0.370710,-0.752467,0.544396
-0.059204,0.310152,0.595319,-0.001867,-0.976056,0.217510
-0.064202,0.309651,0.585051,-0.088824,0.992723,-0.081305
0.086611,-0.235845,0.511794,0.209631,-0.615464,0.759775
0.048166,-0.114859,0.517768,0.325594,0.426741,0.843730
0.057228,-0.166414,0.499862,-0.544200,-0.768347,0.336880
0.052175,-0.165978,0.489412,0.007735,-0.878363,0.477931
0.023947,-0.083300,0.489760,0.861406,0.072018,0.502786
0.061896,-0.240843,0.457094,-0.458483,0.599955,-0.655627
0.067113,-0.279651,0.440549,0.664059,-0.633481,0.397149
0.083205,-0.357391,0.419104,0.895945,-0.443084,0.030983
-0.004558,-0.055678,0.450409,0.382060,0.762792,-0.521708
-0.055195,0.110426,0.462674,-0.727167,0.361882,-0.583326
-0.045529,0.056245,0.444511,0.727321,0.338657,-0.596921
-0.036083,0.002689,0.425925,-0.237702,-0.574928,0.782915
0.092982,-0.511497,0.330301,0.950527,-0.192129,0.244100
-0.003460,-0.215221,0.339662,-0.026054,-0.950705,0.309000
-0.040147,-0.139856,0.317159,0.156705,0.291755,0.943569
-0.093310,0.017437,0.318202,0.224049,-0.030736,0.974093
-0.158116,0.218350,0.326127,-0.281061,0.056442,-0.958029
-0.038828,-0.264528,0.231290,-0.291731,-0.144179,0.945571
-0.068431,-0.196787,0.218480,0.093439,0.393230,0.914680
-0.089685,-0.157354,0.202299,0.802222,0.309898,0.510297
-0.132744,-0.017183,0.212219,-0.442822,-0.850741,0.283105
-0.099900,-0.224471,0.133639,-0.106558,-0.844134,0.525436
-0.076669,-0.332831,0.105162,-0.403785,0.694779,-0.595180
-0.087818,-0.311523,0.097102,-0.392498,0.682038,-0.617065
-0.091498,-0.472065,-0.024035,0.791064,-0.502290,-0.349175
-0.104459,-0.003810,0.209316,-0.504075,-0.852648,0.137476
-0.069145,-0.220033,0.129859,-0.058369,-0.911105,0.408021
-0.048275,-0.319584,0.102743,-0.403785,0.694779,-0.595180
-0.058381,-0.366514,0.048027,-0.260640,0.323468,-0.909635
-0.062610,-0.460878,-0.027105,0.808984,-0.484031,-0.333554
-0.109566,-0.370140,-0.060134,0.893368,0.412665,0.177768
-0.162072,-0.212971,-0.057744,-0.228814,-0.431463,0.872631
-0.147956,-0.312772,-0.099348,-0.544928,0.768360,0.335673
0.293937,-0.198973,0.896376,-0.312254,0.856943,0.410057
0.286247,-0.189536,0.887196,-0.028463,0.955937,0.292188
0.265213,-0.132544,0.883718,-0.186198,0.897700,0.399330
0.264226,-0.145856,0.871998,0.631476,0.771487,-0.077756
0.241158,-0.083363,0.868807,-0.654631,0.539012,0.530022
0.319531,-0.170539,0.891673,0.024911,0.662656,0.748509
0.311457,-0.159228,0.882629,0.525519,-0.180454,0.831424
0.277187,-0.056490,0.884020,-0.010678,0.516896,0.855982
0.294981,-0.135731,0.865207,0.864536,-0.446374,-0.230927
0.289269,-0.132357,0.855740,0.904631,-0.425470,-0.024870
0.238413,0.027873,0.863786,-0.694442,-0.447209,-0.563697
0.293882,-0.182226,0.829759,0.362505,-0.696955,0.618743
0.266147,-0.102047,0.828670,-0.473437,0.737432,0.481717
0.255272,-0.082238,0.820654,-0.192964,0.564193,0.802777
0.215895,0.038434,0.824435,-0.736891,0.660320,0.144803
0.211940,0.035623,0.814242,-0.695048,0.693097,-0.191114
0.239950,-0.079425,0.790726,-0.338777,-0.182354,0.923026
0.222705,-0.035682,0.785554,-0.536573,0.245799,0.807263
0.209414,-0.006497,0.779066,0.899144,-0.334748,-0.281929
0.197276,0.018812,0.771731,0.816755,-0.555374,-0.156434
0.154548,0.118301,0.753039,0.188786,0.915474,-0.355341
0.150153,0.116176,0.742876,0.447080,-0.885195,-0.128643
0.142685,0.124987,0.733560,0.663290,-0.656541,-0.359165
0.145157,0.099615,0.720388,-0.236891,-0.699008,0.674737
0.156085,0.042560,0.702845,0.425743,0.708315,-0.563057
0.136479,0.059058,0.673808,-0.032631,0.825205,0.563890
0.110171,0.136048,0.673446,-0.859164,0.505096,0.081951
0.098363,0.160608,0.666081,0.854333,-0.278622,-0.438731
0.097155,0.146671,0.654164,0.817215,-0.565481,-0.111310
0.128680,0.015438,0.626685,0.814869,-0.363829,0.451239
0.175033,-0.169414,0.592053,0.845081,0.530884,0.063253
0.157404,-0.124919,0.587077,0.936341,0.318423,-0.147891
0.143124,-0.091486,0.581103,0.467113,0.569688,0.676210
0.154657,-0.150418,0.562971,0.994490,-0.093803,0.046795
0.139060,-0.161729,0.602064,0.663035,0.747230,-0.045068
0.133789,-0.160790,0.591886,0.386235,0.916615,-0.103151
0.122034,-0.137293,0.584174,0.218607,0.925028,0.310700
0.101275,-0.081613,0.580710,-0.270716,0.822684,0.499903
-0.032843,0.383767,0.631358,-0.630824,-0.769870,0.096758
-0.030260,0.356770,0.617717,0.267969,0.945789,-0.183508
-0.029932,0.338399,0.605180,0.412923,-0.670655,0.616211
-0.030041,0.319650,0.592128,-0.517047,0.809508,0.278137
-0.033116,0.312900,0.581043,-0.614901,0.788119,-0.027661
0.102703,-0.178727,0.514940,-0.492883,0.782993,0.379459
0.091498,-0.156665,0.506985,-0.316682,0.916586,0.244095
0.118081,-0.271903,0.480444,0.206811,0.786229,0.582299
0.088587,-0.184664,0.481306,-0.240547,0.443856,0.863209
0.046738,-0.051305,0.489019,0.823907,0.252493,0.507370
0.087600,-0.218658,0.455324,-0.589270,0.604634,-0.535891
0.094190,-0.262466,0.438190,0.851910,-0.439222,0.285191
0.088367,-0.260216,0.427830,0.840296,-0.288930,0.458717
0.012137,-0.000623,0.452935,0.811496,0.439129,-0.385539
0.023067,-0.060116,0.433638,0.651159,0.647095,-0.396561
-0.032238,0.123549,0.448519,-0.101033,-0.833105,0.543809
-0.034271,0.111614,0.436345,0.198754,0.880202,-0.430976
0.131041,-0.494499,0.350385,0.982866,-0.159584,-0.092231
0.107096,-0.426132,0.349220,0.930401,0.047265,-0.363483
-0.004613,-0.035869,0.393697,0.658108,0.680377,0.322461
-0.020100,0.002064,0.388434,0.767013,0.593195,0.244562
0.050308,-0.277214,0.336985,0.079806,0.976387,-0.200749
0.030262,-0.222846,0.333522,0.534593,0.842171,0.070416
0.037291,-0.268653,0.315526,-0.844514,0.487483,0.221711
-0.002910,-0.140230,0.323435,0.102797,0.493714,0.863527
-0.072386,0.058120,0.319745,0.078064,-0.044261,0.995965
-0.090290,-0.036744,0.215758,0.626603,0.601781,0.495204
-0.002032,-0.037307,0.317401,0.030895,0.020432,0.999314
-0.028120,0.039060,0.317416,0.008788,-0.098423,0.995106
0.008788,-0.177725,0.240227,-0.153340,0.279015,-0.947965
-0.046682,-0.052991,0.213565,-0.270825,-0.571607,0.774544
-0.084083,0.048746,0.207093,-0.302078,-0.953269,0.005172
-0.032733,-0.208098,0.132384,-0.152013,-0.864503,0.479090
-0.028888,-0.243967,0.114902,0.054693,-0.847647,0.527734
-0.020320,-0.297961,0.094485,-0.392560,0.724507,-0.566556
0.062829,-0.632858,0.029486,-0.398071,-0.816201,0.418754
-0.029548,-0.435382,-0.022674,0.772644,-0.507155,-0.381858
-0.139443,-0.036744,0.031482,0.045894,0.756997,0.651805
-0.161083,0.024686,0.029728,0.020120,0.652432,0.757580
-0.070353,-0.367889,-0.059604,0.907309,-0.298183,-0.296442
-0.066508,-0.405511,-0.078297,0.600329,-0.586471,-0.543743
-0.126043,-0.199411,-0.055854,0.114517,-0.909910,0.398685
-0.113302,-0.291838,-0.095325,-0.492569,0.661236,0.565812
-0.117092,-0.369451,-0.158086,0.169504,-0.777396,0.605742
-0.079416,-0.392636,-0.172484,-0.485724,0.865857,0.119848
0.332327,-0.124919,0.876111,-0.621180,-0.239384,-0.746211
0.316564,-0.104422,0.858417,-0.129593,0.840980,0.525318
0.308217,-0.091987,0.849585,-0.023650,0.961497,0.273794
0.287017,-0.035056,0.845834,-0.126997,0.701757,0.701006
0.269333,0.010564,0.841161,0.873931,0.476563,-0.095566
0.262907,0.015812,0.831951,-0.695242,-0.044529,0.717396
0.246706,0.055370,0.826341,0.820230,0.362998,-0.442103
0.270047,-0.042931,0.804926,0.421491,-0.777601,0.466564
0.270211,-0.061052,0.792495,0.192997,-0.044416,0.980194
0.285150,-0.130543,0.773909,-0.354278,0.826312,0.437830
0.291411,-0.170915,0.758710,-0.158364,-0.521902,0.838176
0.223474,0.051683,0.775406,-0.665208,0.713224,0.220928
0.215345,0.064119,0.766967,-0.351505,0.919603,0.175428
0.220013,0.029561,0.752298,0.500675,-0.813860,0.294883
0.221332,0.008689,0.739791,0.319702,-0.907440,0.272661
0.181569,0.131236,0.744388,0.466302,-0.883665,0.041201
0.166356,0.167294,0.738490,-0.528947,-0.842286,0.103777
0.146200,-0.138856,0.553625,0.915485,-0.402142,-0.012971
0.007030,0.345708,0.607660,0.902661,-0.382296,0.197617
0.004174,0.337147,0.595954,0.979877,-0.153224,-0.127920
0.135270,-0.136543,0.532649,-0.605049,0.668944,-0.431775
0.135820,-0.157666,0.518932,-0.355432,0.933973,0.036905
0.131427,-0.160291,0.507605,-0.335094,0.937285,0.095959
0.129614,-0.172227,0.495431,-0.521248,0.852398,0.041459
0.129724,-0.190412,0.482410,0.676682,-0.279231,-0.681272
0.108690,-0.133919,0.479128,0.245858,-0.944052,-0.219819
0.099133,-0.118109,0.470583,0.256855,-0.863000,-0.435036
0.093915,-0.118359,0.459559,0.667997,0.628330,0.398725
0.075132,-0.069552,0.455249,-0.561360,-0.535435,0.631019
0.088314,-0.136356,0.434893,0.831806,0.529601,0.166198
0.070958,-0.091738,0.430507,0.613073,0.788789,0.044199
0.048824,-0.028870,0.428738,0.908908,0.327710,0.257861
0.119069,-0.386388,0.321968,0.888534,0.121437,-0.442449
0.061348,-0.192475,0.339103,-0.295048,0.756585,0.583547
0.071122,-0.247343,0.320229,0.401217,-0.065793,-0.913617
0.254669,-0.924633,0.221535,0.155470,0.088826,-0.983839
0.052285,-0.198786,0.315949,-0.221058,0.200797,0.954366
0.029162,-0.132481,0.314739,-0.068087,0.165834,0.983800
0.201670,0.024562,0.710391,0.532048,0.630060,-0.565641
0.190027,0.049372,0.703420,0.472325,0.734847,-0.486733
0.173771,0.089366,0.698369,0.935846,-0.305362,-0.175913
0.145377,0.155171,0.686164,0.432856,0.448607,-0.781913
0.129833,0.193229,0.680508,-0.284404,-0.542176,0.790670
0.127582,0.184042,0.668984,0.276571,-0.709188,0.648506
0.131316,0.134423,0.642050,0.463847,-0.885712,-0.018968
0.109238,0.196290,0.639993,-0.259445,0.554758,0.790526
0.087819,0.254970,0.637089,0.976370,-0.130663,-0.172131
0.081777,0.258845,0.627396,0.934274,-0.349548,-0.070339
0.087600,0.220413,0.611804,0.858436,-0.509869,-0.055880
0.163830,-0.091612,0.549118,0.857986,-0.443167,-0.259738
0.024605,0.393016,0.603425,0.971218,0.210305,0.111834
0.162841,-0.106235,0.536732,-0.098041,-0.044832,0.994172
0.168773,-0.145793,0.520989,0.102973,-0.965519,0.239101
0.161413,-0.137668,0.511174,-0.771990,0.511404,0.377489
0.160369,-0.151604,0.498803,0.036265,0.997922,0.053266
0.153395,-0.145917,0.488625,0.138333,0.987426,-0.076514
0.148286,-0.146418,0.477661,0.100631,-0.993305,0.056730
0.143729,-0.149229,0.466319,-0.303524,-0.905142,-0.297643
0.140763,-0.156917,0.454689,-0.421898,-0.906643,0.000740
0.124726,-0.117171,0.449623,-0.514654,-0.852844,0.088253
0.124562,-0.153417,0.422779,-0.601834,0.385939,0.699176
0.117861,-0.149229,0.412223,-0.406745,0.911320,-0.063667
0.121651,-0.182850,0.396344,0.633718,-0.773530,-0.007246
0.100011,-0.123170,0.393652,-0.429208,0.893958,-0.128916
0.133403,-0.283837,0.349114,-0.531489,0.191538,0.825126
0.116708,-0.241905,0.343836,-0.637437,0.099006,0.764115
0.104075,-0.214908,0.336849,0.861986,-0.334704,-0.380728
0.101275,-0.224032,0.324221,-0.654419,0.529777,0.539511
0.085733,-0.187350,0.318187,-0.307711,0.272802,0.911533
0.064477,-0.128795,0.315480,-0.293547,0.083143,0.952322
0.031415,-0.026056,0.319700,-0.158031,0.049106,0.986212
0.016587,0.009439,0.314134,-0.047438,-0.064489,0.996790
-0.047177,0.207414,0.321605,-0.237654,-0.042734,0.970409
0.086226,-0.288212,0.247426,0.921825,-0.170906,-0.347893
0.079691,-0.283713,0.236658,0.959332,-0.238583,-0.150866
0.055689,-0.215658,0.235403,-0.028985,-0.176446,0.983883
0.056295,-0.238593,0.220371,0.983551,-0.152667,0.096547
0.000715,-0.071177,0.223652,0.133231,0.388527,0.911754
0.037841,-0.230970,0.187553,0.805957,-0.564528,-0.178163
-0.020814,-0.072489,0.177587,0.443357,0.717402,0.537373
0.008788,-0.267152,0.101109,0.251373,-0.756045,0.604323
0.072003,-0.547743,0.032692,-0.037351,-0.272174,0.961523
-0.185468,0.384329,0.159001,0.515430,0.008822,0.856886
-0.228142,0.526438,0.171009,0.550566,-0.137943,0.823316
-0.268288,0.658982,0.181610,0.577199,-0.137267,0.804984
-0.104954,-0.026619,0.034537,0.030193,0.680831,0.731818
-0.044212,-0.346518,-0.066213,0.795007,-0.537860,-0.280481
-0.096935,-0.166477,-0.048141,0.169144,0.322444,-0.931354
-0.135600,-0.038556,-0.038175,-0.721099,0.185018,0.667671
-0.092102,-0.228907,-0.082788,-0.457807,0.733155,-0.502889
-0.119178,-0.214722,-0.129050,-0.561175,0.819599,-0.115495
-0.106051,0.255096,0.148611,0.342095,-0.140673,0.929076
0.083041,-0.460754,0.033448,0.004810,-0.272586,0.962119
-0.134336,0.341272,0.150925,0.322592,-0.104407,0.940762
0.022847,-0.254904,0.054575,0.300775,-0.107287,0.947641
-0.182721,0.504253,0.166215,0.530775,-0.135860,0.836552
-0.221441,0.630425,0.175289,0.577199,-0.137267,0.804984
-0.065466,-0.025370,0.033176,0.001942,0.677439,0.735576
-0.037347,-0.221720,-0.047173,0.173061,0.556704,-0.812484
-0.064641,-0.139480,-0.045555,-0.124874,-0.339955,0.932114
-0.047012,-0.250529,-0.088414,-0.308882,0.799924,0.514504
-0.218530,0.344835,-0.021902,0.835805,0.507056,-0.210536
-0.054866,-0.288399,-0.131152,0.100255,-0.738233,0.667054
0.357810,-0.086487,0.870712,-0.543178,-0.722514,-0.427704
0.354899,-0.092861,0.860156,0.310797,0.913320,0.263156
0.345563,-0.076488,0.852141,0.570518,0.821285,0.000714
0.348255,-0.103548,0.838651,-0.596770,-0.802197,-0.018606
0.338148,-0.084426,0.830923,-0.330206,-0.939201,0.094160
0.334303,-0.089111,0.820065,-0.272199,-0.961727,-0.031428
0.346386,-0.149105,0.802688,0.792640,-0.587625,0.162539
0.333261,-0.120108,0.795686,-0.607172,0.782222,-0.139539
0.289050,0.018875,0.802113,0.718619,-0.435563,0.542099
0.301022,-0.040930,0.785070,0.895833,0.038228,0.442745
0.328921,-0.156728,0.760857,-0.346957,-0.351934,0.869346
0.252966,0.093741,0.780865,0.153121,-0.907842,0.390356
0.257744,0.059807,0.766377,-0.039902,-0.995980,0.080202
0.259117,0.037998,0.753477,-0.272960,0.691698,-0.668615
0.258898,0.020250,0.740910,0.763680,-0.427215,-0.484025
-0.195353,-0.077926,-0.190889,0.730663,0.491834,0.473530
0.259062,0.002689,0.728766,0.634253,-0.623078,0.457708
0.258514,-0.012497,0.716864,0.860149,0.328717,-0.389987
0.264610,-0.051492,0.701514,-0.304497,-0.815785,0.491707
0.156799,0.314152,0.736766,0.807717,-0.589326,0.016968
0.151637,0.314026,0.726437,-0.670690,0.627709,0.395167
0.153834,0.288403,0.712917,-0.546869,-0.834018,0.073131
0.155152,0.266344,0.699699,0.920596,-0.385700,-0.061142
0.145705,0.282842,0.691760,0.493935,0.806090,-0.325955
0.152461,0.242223,0.676576,-0.586951,-0.726229,-0.357882
0.136479,0.280405,0.671011,0.801472,0.440650,0.404315
0.123682,0.308838,0.664629,0.959865,-0.149457,-0.237323
0.116597,0.315900,0.655071,0.996005,0.029964,-0.084126
0.107426,0.330774,0.646617,-0.850042,0.489385,0.194757
0.104954,0.321587,0.634927,0.355354,-0.900351,-0.251181
0.102317,0.314026,0.623872,0.776031,0.472640,-0.417598
0.095343,0.322400,0.614843,-0.626961,0.668311,-0.400350
0.224188,-0.160916,0.540120,0.501600,0.638016,0.584237
0.180086,-0.020370,0.548301,0.977327,-0.187203,0.098929
0.183545,-0.051741,0.533269,0.814452,-0.196184,0.546058
0.212270,-0.173789,0.505896,-0.281576,0.150143,0.947719
0.178822,-0.071427,0.508800,-0.719203,0.556541,-0.415943
0.247145,-0.338081,0.462009,0.995519,0.056099,-0.076121
0.181734,-0.119421,0.481215,0.503423,-0.685710,-0.525707
0.175966,-0.136480,0.457260,-0.068660,-0.996310,-0.051498
0.178164,-0.163916,0.442394,0.159687,0.978685,-0.129133
0.169376,-0.150854,0.433093,-0.563445,-0.826067,0.012000
0.155262,-0.118483,0.426469,0.415744,0.628830,0.657062
0.144333,-0.097735,0.418756,0.693904,0.141247,0.706078
0.149880,-0.137232,0.402454,-0.233108,0.950783,0.204137
0.142026,-0.128169,0.392593,0.395933,-0.917388,0.040458
0.137303,-0.129857,0.381584,-0.281443,0.958759,0.039645
0.131041,-0.126544,0.370967,-0.743800,0.664267,0.074235
0.140598,-0.180912,0.351897,-0.876288,0.408903,0.254790
0.128077,-0.154417,0.344456,-0.690719,0.556403,0.461869
0.119617,-0.143168,0.335261,0.467322,-0.690762,-0.551777
0.117092,-0.153104,0.322921,-0.440652,0.669767,-0.597694
0.092707,-0.083613,0.321635,0.448388,0.490615,0.747158
0.072003,-0.026495,0.319185,0.377946,0.788079,0.485889
0.070958,-0.042681,0.305469,0.558862,0.786834,0.261851
-0.086445,0.520812,0.378045,0.341354,-0.671380,0.657820
-0.074087,0.455259,0.357235,-0.067765,-0.754733,0.652522
-0.072386,0.430512,0.342899,0.535504,0.595744,-0.598602
0.104020,-0.224970,0.244326,0.879690,-0.256558,-0.400405
-0.074967,0.420200,0.330649,0.055244,-0.846057,0.530222
0.086281,-0.179539,0.240061,0.821146,-0.469028,-0.325165
0.105778,-0.273089,0.214306,0.941283,-0.337184,0.017135
0.071397,-0.164790,0.219660,0.909112,-0.322491,-0.263658
0.051296,-0.110671,0.216393,0.176755,0.844595,0.505388
0.050583,-0.128169,0.202057,-0.148484,-0.966942,0.207306
-0.134940,0.544998,0.294444,-0.694001,-0.643996,0.321918
0.012084,-0.045492,0.180884,0.447534,0.884132,-0.134254
0.070628,-0.286274,0.131673,-0.797105,0.465773,0.384291
0.040917,-0.195036,0.134668,-0.209514,0.343911,0.915330
0.048385,-0.244779,0.115023,0.028269,-0.944768,0.326518
0.046024,-0.257403,0.101170,0.260318,-0.713929,0.650031
-0.060193,0.205290,0.141685,0.570146,0.192685,0.798628
-0.096716,0.322274,0.148974,0.445056,-0.100500,0.889845
-0.138401,0.459382,0.159621,0.570772,0.004416,0.821097
-0.156360,0.507315,0.156369,0.543745,-0.066463,0.836615
0.039764,-0.302523,-0.010968,0.857867,-0.405678,-0.315421
-0.030207,-0.102986,-0.014235,0.459005,0.746016,-0.482466
0.000385,-0.242155,-0.049260,-0.094482,-0.356811,0.929386
-0.025484,-0.164540,-0.047960,0.081385,0.258478,-0.962583
-0.020320,-0.227907,-0.082773,-0.471495,0.817249,0.331356
-0.033116,-0.202348,-0.090758,0.411385,-0.848126,-0.333833
-0.049649,-0.207223,-0.128324,-0.633864,0.756888,-0.159178
-0.022956,-0.333144,-0.162124,0.678651,-0.712808,0.177026
0.377307,-0.085362,0.840950,-0.592188,-0.805793,-0.003288
0.388785,-0.143792,0.823921,0.876581,-0.473322,0.087018
0.370826,-0.097861,0.819308,-0.513201,-0.852928,0.095598
0.372145,-0.119295,0.806862,-0.756722,0.653657,-0.010163
0.375879,-0.149605,0.792934,0.985896,0.052502,-0.158910
0.357096,-0.118546,0.776192,0.856129,-0.078591,-0.510751
0.312226,0.021625,0.782514,0.988524,-0.145117,-0.041961
0.302944,0.036497,0.773939,0.999185,0.017299,-0.036483
0.285424,0.081680,0.769417,-0.159843,0.954787,-0.250663
0.285974,0.063431,0.757273,0.309951,-0.910950,0.272213
0.282185,0.058245,0.746264,0.890966,-0.445646,0.087058
0.280096,0.048433,0.735057,0.931300,-0.363833,-0.017469
0.301132,-0.044056,0.713265,-0.154404,-0.806957,0.570070
0.305250,-0.076175,0.698747,0.318104,0.783028,-0.534488
0.306734,-0.099047,0.685363,0.497692,-0.643256,0.581828
0.322770,-0.174289,0.665839,0.474358,0.880148,0.018020
0.213587,0.196603,0.702210,0.979056,0.193787,0.062422
-0.084523,-0.196848,-0.127795,0.760767,-0.639558,-0.110455
-0.047946,-0.362391,-0.169202,0.584757,-0.811170,0.007922
-0.205514,0.113800,-0.159009,0.653240,0.744264,-0.139101
0.488961,-0.855330,0.458530,0.215552,0.586494,0.780745
0.485391,-0.862453,0.446674,0.215552,0.586494,0.780745
0.301132,-0.217346,0.521488,0.358805,0.140355,0.922800
0.334633,-0.234157,0.648114,0.048257,-0.362687,0.930661
0.214521,0.175668,0.689113,0.988986,-0.077063,0.126366
0.195684,0.225537,0.685378,0.817600,0.477397,0.321905
0.179042,0.267282,0.680236,0.570930,0.813311,-0.112089
0.157513,0.325712,0.677332,0.975762,0.212373,0.052788
0.136918,0.381205,0.674081,0.814781,0.500739,0.292219
0.133183,0.377144,0.663555,-0.555009,-0.831839,-0.002938
0.131152,0.366708,0.652061,0.553743,0.745832,-0.370275
0.131041,0.348771,0.639237,-0.677824,0.733837,0.045130
0.127691,0.343960,0.628515,-0.733322,0.679232,-0.029707
0.130438,0.316213,0.614314,0.817037,-0.526709,0.234581
0.129010,0.302028,0.601852,-0.378047,0.744474,-0.550307
0.218805,-0.040118,0.545730,0.803824,-0.033640,0.593915
0.202219,0.002314,0.541012,0.929208,-0.044578,0.366860
0.201285,-0.012497,0.528641,0.903851,-0.369611,-0.215500
0.199637,-0.025120,0.516089,0.937131,-0.099160,-0.334592
0.181789,0.020563,0.511839,0.886899,-0.084234,-0.454219
0.199309,-0.062114,0.489699,-0.583356,-0.304043,-0.753163
0.288884,-0.426632,0.417456,0.743145,0.253207,0.619372
0.245057,-0.286150,0.426167,0.550095,0.498369,0.670092
0.231987,-0.257092,0.419422,-0.639863,-0.444003,-0.627245
0.201560,-0.165228,0.421131,-0.274005,-0.958445,-0.079405
0.185579,-0.126232,0.415974,-0.557219,-0.817716,-0.144385
0.156360,-0.039305,0.417138,0.971358,-0.236809,0.019610
0.153395,-0.048116,0.404752,0.955815,-0.088212,-0.280423
0.166906,-0.117670,0.383701,0.113446,0.992641,0.042344
0.162402,-0.120171,0.372600,0.026900,0.998585,0.045867
0.160260,-0.130795,0.360305,0.131718,-0.945932,0.296418
0.156251,-0.135607,0.348358,0.231940,-0.903978,-0.359204
0.147408,-0.122984,0.339360,0.088837,-0.970067,-0.226003
0.136095,-0.101674,0.331072,-0.487247,0.511582,0.707724
0.121485,-0.067927,0.324690,0.601200,0.521456,0.605510
0.122254,-0.091299,0.309900,-0.551370,-0.832267,-0.057636
0.116433,-0.089048,0.299329,-0.675964,-0.732781,0.078131
-0.065630,0.566495,0.385909,0.379899,0.791658,-0.478491
-0.056568,0.514063,0.367247,0.341354,-0.671380,0.657820
0.127088,-0.188163,0.251222,-0.125587,-0.481203,0.867566
0.110171,-0.145917,0.246095,0.694539,-0.639294,-0.330028
0.099902,-0.128482,0.237203,0.930543,-0.346733,-0.117756
0.098583,-0.144542,0.223259,0.073340,0.876437,0.475899
0.075901,-0.079864,0.222064,0.148655,-0.132884,0.979920
0.033393,0.059495,0.232348,0.500888,0.344702,-0.793909
-0.025978,0.261096,0.251993,0.839258,0.442199,-0.316395
-0.103470,0.532436,0.283177,-0.251326,-0.793633,0.554059
-0.059918,0.348022,0.243237,0.904933,0.400954,-0.142590
-0.056787,0.315526,0.226843,0.904933,0.400954,-0.142590
-0.070739,0.347333,0.220461,0.904933,0.400954,-0.142590
0.060359,-0.187600,0.113707,0.836459,-0.522487,0.165358
0.007634,-0.009371,0.130237,0.016730,-0.189526,0.981733
-0.113631,0.465695,0.148279,-0.546013,-0.136353,-0.826606
0.069969,-0.299210,-0.012768,0.917967,-0.370185,-0.142474
0.000165,-0.098548,-0.014825,0.072125,0.976380,0.203664
0.033666,-0.249217,-0.051771,-0.715462,0.658314,0.233958
0.002910,-0.153728,-0.047929,-0.092175,-0.069743,0.993297
-0.127580,0.304715,0.005425,-0.576760,-0.410823,0.706096
-0.152406,0.378330,0.006514,-0.554974,-0.365985,0.747033
-0.174374,0.441697,0.005924,0.565647,0.354930,-0.744357
-0.191400,0.485004,0.001433,0.490121,0.287192,-0.822984
-0.133128,0.214350,-0.069041,-0.650734,-0.662108,-0.371697
-0.147408,0.246848,-0.075544,0.610790,0.676613,0.411255
-0.105503,0.038684,-0.136218,0.623376,0.533553,-0.571598
0.383073,-0.073614,0.790711,0.917832,0.221711,-0.329286
0.328098,0.102052,0.801614,-0.592021,0.787054,0.173369
0.322715,0.103990,0.791981,0.299686,-0.939732,-0.164595
0.319200,0.099178,0.781077,0.160048,-0.973150,0.165422
0.327493,0.052745,0.765546,-0.367217,0.903609,-0.220551
0.314477,0.081304,0.758513,-0.245440,0.969335,0.012239
0.313763,0.065056,0.746158,-0.528285,0.702537,0.476819
0.314916,0.042996,0.733046,0.840386,0.203522,-0.502325
0.518180,-0.676601,0.644953,-0.652081,-0.502365,-0.567821
0.351111,-0.102047,0.705129,0.355617,0.783491,-0.509586
0.347705,-0.107361,0.694421,0.423333,0.889429,-0.172354
0.356437,-0.156228,0.677771,0.766232,0.002945,-0.642558
0.374671,-0.239531,0.657188,0.318626,0.631349,-0.707019
0.209030,0.331649,0.718240,0.040340,-0.968609,0.245293
0.434040,-0.469315,0.617641,0.628069,0.643339,-0.437772
0.268783,0.101302,0.678799,-0.435064,0.468565,0.768874
0.265818,0.094053,0.667260,-0.102729,-0.850364,0.516070
0.250988,0.128486,0.661513,-0.147683,-0.904805,0.399396
0.242695,0.140610,0.652923,0.111211,-0.639583,0.760635
0.264445,0.044308,0.629936,0.756887,-0.503667,0.416464
0.173330,0.352771,0.659653,0.986404,0.143073,-0.080848
0.305909,-0.122482,0.598132,0.844680,-0.329393,0.421919
0.155921,0.396953,0.654965,0.664482,0.742716,0.082685
0.147408,0.409639,0.646148,0.513237,0.850803,-0.112793
0.150648,0.379644,0.631751,-0.761591,-0.617326,-0.197200
0.151528,0.359333,0.618957,-0.344492,0.895258,-0.282558
0.300252,-0.248405,0.408609,-0.388991,-0.586447,-0.710469
0.267080,-0.147730,0.411543,-0.170473,0.946187,-0.275080
0.270266,-0.178475,0.396525,-0.305038,0.379728,0.873360
0.210731,0.018938,0.413282,-0.495949,0.158176,-0.853824
0.200737,0.036247,0.404798,0.385180,-0.122671,0.914652
0.122365,0.304339,0.432065,-0.187462,-0.599697,0.777960
0.086886,0.415762,0.437630,-0.681999,-0.327023,0.654166
0.060468,0.494690,0.438583,0.655760,0.434178,-0.617632
0.230559,-0.130233,0.348237,0.276581,-0.602370,-0.748768
0.044212,0.534373,0.433517,0.655760,0.434178,-0.617632
0.034326,0.551934,0.425532,0.655760,0.434178,-0.617632
0.227264,-0.158852,0.321787,0.572027,0.797119,0.193357
0.212050,-0.123045,0.315631,-0.554591,-0.830670,-0.049150
0.186676,-0.049930,0.315011,0.312222,-0.233504,-0.920865
0.160480,0.026687,0.315042,0.904075,-0.026114,0.426575
0.347375,-0.664165,0.212779,0.270824,0.181488,-0.945366
0.158063,0.016625,0.302656,0.985246,-0.123430,-0.118558
0.136039,0.079493,0.301280,0.945458,0.028865,0.324464
0.063269,0.308964,0.313681,0.713064,0.256539,0.652478
0.186896,-0.150355,0.244447,0.847409,0.443050,0.292582
0.171629,-0.114171,0.238382,-0.116509,0.940729,0.318519
0.164214,-0.107610,0.227887,-0.183891,0.970164,0.158008
0.160535,-0.114796,0.215244,0.076385,-0.978030,0.193966
0.153395,-0.107734,0.205202,-0.759767,0.640835,-0.109931
0.144552,-0.094173,0.196143,0.776074,-0.601444,-0.189669
0.201285,0.125424,0.556891,0.838328,-0.137619,-0.527510
0.226000,0.017624,0.531636,0.936382,-0.101848,0.335880
0.209469,0.057807,0.526267,0.926160,-0.353640,-0.131024
0.202824,0.062557,0.516044,-0.684896,0.471843,0.555231
0.194255,0.075055,0.507242,0.842104,-0.376757,-0.385894
0.215729,-0.021371,0.483559,0.258725,0.323252,0.910258
0.313654,-0.397137,0.420753,0.745905,0.175397,0.642543
0.238302,-0.141481,0.445358,0.171009,0.954228,-0.245368
0.265213,-0.259216,0.417819,0.440879,0.407460,0.799751
0.231382,-0.154916,0.421267,-0.285774,0.958078,0.020506
0.226659,-0.158353,0.409637,0.410735,0.903510,-0.122341
0.194091,-0.058365,0.413040,0.803334,0.241764,0.544247
0.175966,-0.010996,0.409078,-0.788605,0.611237,0.067010
0.119728,0.175418,0.424549,0.818774,-0.020771,0.573739
0.207547,-0.165602,0.365054,-0.344917,-0.868543,0.355901
0.096771,0.221725,0.409592,0.843604,-0.030748,0.536084
0.200737,-0.160603,0.354513,-0.167650,0.859130,0.483517
0.188434,-0.135105,0.346921,-0.186568,0.905128,0.382015
0.178548,-0.119545,0.337863,0.097146,0.992278,0.077111
0.178164,-0.137419,0.324539,0.292905,0.932670,0.210554
0.163116,-0.101548,0.318868,0.749761,0.655921,0.087322
0.144663,-0.053929,0.314558,0.954873,-0.258815,0.145712
0.137523,-0.046930,0.304758,0.921353,-0.263170,0.286097
0.141421,-0.081176,0.288304,0.883631,-0.386684,0.263955
0.016257,0.363269,0.343216,0.647417,0.729713,-0.219930
0.142521,-0.105547,0.273120,-0.462977,0.884605,0.055912
-0.017355,0.467506,0.347723,-0.244466,-0.718801,0.650816
0.140104,-0.118109,0.259782,0.775399,-0.621704,0.110641
-0.008458,0.414826,0.329121,0.449252,0.873768,-0.186286
0.136039,-0.122921,0.247986,0.459519,-0.826881,-0.324205
0.124615,-0.100422,0.240379,-0.326059,-0.807616,-0.491367
0.115499,-0.087237,0.230836,-0.251196,-0.965569,0.067650
-0.063708,0.562246,0.319231,0.955970,0.141341,-0.257187
0.076176,0.039622,0.239305,-0.670117,-0.363182,0.647335
-0.084083,0.618988,0.316872,0.336063,0.806634,-0.486213
0.043443,0.141859,0.243570,-0.546274,-0.194372,0.814742
0.109787,-0.127044,0.190623,-0.265365,0.941332,0.208508
-0.040531,0.415139,0.263048,-0.547373,-0.560054,0.621870
0.103800,-0.126607,0.179054,0.142185,-0.988146,0.057882
-0.079910,0.542874,0.271986,0.452559,-0.517121,0.726482
0.093201,-0.127982,0.156248,-0.648959,0.759458,-0.045556
0.101494,-0.180788,0.136225,-0.725556,0.280479,0.628411
-0.053822,0.384080,0.214079,0.898332,0.405781,-0.168348
0.078702,-0.136606,0.120074,0.987202,-0.125684,-0.098166
0.016421,0.077118,0.142381,-0.713894,-0.305833,-0.629938
-0.001263,0.123236,0.138086,-0.645287,-0.178448,-0.742806
-0.028668,0.205789,0.140127,0.469840,0.073343,0.879699
-0.073429,0.355084,0.153042,-0.503219,0.093272,-0.859111
0.104900,-0.321833,0.043778,0.071922,-0.272653,0.959420
-0.100561,0.436636,0.154721,0.606289,0.236330,0.759316
-0.061566,0.240222,0.007013,-0.285747,0.066564,0.955991
-0.075240,0.271344,0.000298,-0.284185,-0.090106,0.954526
-0.085347,0.287904,-0.008367,-0.578596,-0.402355,0.709463
-0.047452,0.119174,-0.049275,0.778826,0.614295,-0.126776
-0.048221,0.099302,-0.064852,0.740061,0.661842,0.119477
-0.068650,0.155483,-0.067363,-0.567911,-0.729326,-0.381524
0.038884,-0.283524,-0.155500,0.760647,-0.598332,0.251821
-0.056734,0.041497,-0.123243,-0.615328,-0.549303,0.565366
-0.130108,0.282343,-0.104913,0.743002,0.454887,0.490944
0.016476,-0.289024,-0.205906,0.330606,-0.189053,0.924640
-0.039048,-0.120108,-0.201203,-0.204882,0.205246,0.957025
-0.111819,0.072617,-0.215570,-0.358054,0.164567,0.919084
0.371651,0.133861,0.825917,0.692868,-0.705662,0.148238
0.367312,0.132110,0.815482,-0.110321,-0.945621,0.305991
0.376868,0.081118,0.799618,0.431433,-0.900374,0.056500
0.365334,0.104053,0.792041,0.073934,-0.993849,0.082452
0.358249,0.111738,0.782635,-0.065040,0.997808,0.012172
0.359074,0.091240,0.769825,-0.388391,0.907757,-0.158523
0.349792,0.107239,0.761689,-0.257732,0.948055,-0.186459
0.350506,0.086928,0.749273,-0.410443,0.840544,0.353584
0.391752,-0.076864,0.718815,-0.465383,-0.751910,0.466958
0.407294,-0.148667,0.699866,0.176228,0.965215,-0.193143
0.424430,-0.227471,0.679586,-0.295464,-0.840831,0.453546
0.432503,-0.274027,0.663177,0.532923,0.768811,-0.353445
0.415972,-0.234594,0.657415,0.411395,0.818583,-0.400843
0.411469,-0.236405,0.646920,0.246623,0.617670,-0.746767
0.300144,0.124674,0.671555,-0.112123,0.992231,-0.053902
0.289269,0.145172,0.664024,-0.017864,-0.999755,0.013039
