-0.269521,-0.337895,-0.975999,-0.105749,0.184420,0.977142
0.473520,-0.214404,0.620855,0.216830,-0.975866,-0.025903
0.321090,-0.142826,0.705406,-0.376314,-0.176664,0.909493
0.113631,0.523379,0.728246,-0.074928,0.977793,0.195720
0.390334,-0.486926,0.208814,-0.276376,-0.125771,0.952784
-0.267819,-0.444377,0.400207,-0.355206,0.227690,-0.906634
-0.202301,-0.226814,0.655889,0.372233,0.783719,0.497219
0.072967,-0.384322,0.378216,-0.793487,0.363024,0.488459
-0.142744,0.297397,0.462251,-0.085184,-0.111170,-0.990144
0.552185,-0.137507,0.522618,0.798712,-0.019076,-0.601411
-0.448881,0.435680,0.404397,0.220421,-0.219453,0.950397
-0.050085,-0.609529,0.400895,-0.689419,-0.272964,-0.670963
-0.704563,0.508422,0.410209,-0.045204,-0.277085,0.959781
-0.785407,0.282050,0.313369,-0.123884,-0.265383,0.956151
0.172389,0.307425,0.934874,0.966020,-0.224418,-0.128226
0.445739,-0.719280,0.301368,0.834383,-0.382936,-0.396441
0.007023,-0.315180,0.535897,0.630122,-0.363852,-0.685973
-0.100540,0.418615,0.691235,0.468544,0.882222,-0.046379
0.592313,-0.673242,0.233158,-0.250442,0.127483,-0.959701
0.173717,0.061164,0.881038,0.208267,0.961096,0.181437
0.318322,0.728977,0.498832,-0.169988,-0.338899,0.925339
0.174942,0.815681,0.487616,0.588599,-0.661603,-0.464579
0.886635,0.031911,0.270696,0.257105,0.175288,0.950353
-0.883442,-0.150858,0.330354,0.116652,-0.549168,0.827530
-0.248230,0.010860,0.237166,-0.143967,0.362925,-0.920630
-0.173825,0.055458,0.762593,-0.651730,0.675272,0.345336
0.261588,-0.117673,0.733339,-0.117582,-0.918661,0.377142
-0.448296,-0.027090,-0.439872,0.994172,-0.100471,0.039086
-0.844217,-0.102050,-0.016249,0.185087,-0.298692,0.936230
-0.464636,-0.116011,0.475476,-0.115841,-0.048960,0.992060
-0.134600,-0.728422,0.555578,-0.260255,0.069377,0.963044
0.065356,-0.829252,0.078916,0.058162,-0.041986,0.997424
-0.063228,0.233685,0.528075,0.852627,0.184970,-0.488685
0.456914,-0.723159,0.168612,-0.683163,0.650054,-0.332743
0.595080,0.325319,0.310027,0.819732,-0.281422,0.498840
0.115758,0.083601,0.684972,0.914205,0.049941,-0.402164
0.560488,-0.418725,0.545512,0.272718,0.773155,0.572588
0.246258,0.060056,0.661906,0.736694,-0.132210,0.663176
-0.685348,-0.030027,0.314916,-0.703464,0.377837,-0.601978
-0.513652,-0.034016,0.482534,0.178957,0.113814,0.977252
0.225023,0.206039,0.795328,0.323252,-0.439217,0.838210
-0.916070,-0.197839,0.226895,0.134348,-0.036576,0.990259
-0.767258,-0.287479,-0.062317,-0.060468,-0.908646,0.413167
0.474586,0.228089,0.717417,0.468902,0.776929,0.420133
0.289901,0.260554,0.871445,-0.431429,0.666806,-0.607651
-0.083401,-0.638670,0.417880,-0.682564,-0.166025,-0.711718
0.354354,-0.215290,0.365947,-0.529200,0.386964,0.755120
0.225290,0.363379,0.757790,-0.001949,-0.154881,0.987931
0.346317,0.102881,0.805899,-0.261198,-0.882871,-0.390275
-0.479751,-0.745485,-0.973120,-0.064594,0.179537,0.981628
-0.070147,0.582105,0.429924,-0.572767,0.756522,-0.315615
-0.010060,-0.057728,0.397403,0.919616,0.028604,-0.391776
-0.316994,-0.325706,0.557813,-0.117525,-0.220459,0.968290
-0.099526,0.525652,0.590817,0.557768,0.459368,-0.691285
0.368884,-0.078892,0.622327,0.126156,0.393622,-0.910575
-0.161000,0.686982,0.181118,-0.314120,0.623703,0.715767
-0.191922,0.145429,-0.977428,0.121028,-0.198657,-0.972568
-0.886902,-0.237452,0.318590,-0.367064,0.544485,-0.754188
0.217679,0.185596,0.971412,0.743665,-0.456949,-0.488016
0.505667,-0.176177,0.786486,-0.588016,0.741730,0.322605
0.171005,0.197950,0.845703,-0.569050,0.820414,0.055707
0.012454,0.315845,0.605191,0.559239,0.503267,0.658767
0.016177,-0.187811,0.712088,-0.717799,0.696220,0.006526
-0.005217,-0.901606,0.419707,-0.432030,0.131188,0.892266
-0.683166,0.110360,0.070923,-0.461465,0.720153,0.518102
-0.052479,0.617397,0.749690,0.169760,0.583348,-0.794284
-0.027092,-0.410858,0.179162,-0.825336,0.480464,0.296604
-0.212147,-0.366150,0.375530,-0.074375,-0.855286,0.512790
-0.566982,0.020167,0.379892,-0.302583,0.216047,-0.928314
0.566978,-0.608587,0.390764,0.469009,-0.604158,-0.644224
-0.591569,0.419613,0.402754,0.162170,-0.022343,0.986510
0.578689,-0.490305,0.487960,-0.551925,0.396924,0.733370
0.377668,-0.480222,0.373317,0.362942,0.039164,-0.930988
-0.673904,-0.035845,-0.832704,0.737879,-0.674137,-0.032765
0.659000,0.047868,0.302271,-0.200741,0.560698,0.803319
0.348182,-0.049973,0.777408,0.903103,-0.366889,0.223153
0.532067,-0.110969,0.704202,0.584794,0.019762,-0.810941
-0.325138,-0.517729,-0.974442,0.252766,-0.052118,-0.966123
-0.713077,-0.083988,-0.877568,-0.762888,0.636657,0.112558
-0.507532,-0.239667,-0.978760,0.030106,-0.000909,0.999546
-0.346905,0.305152,-0.308749,0.942395,0.324220,-0.082294
-0.340467,0.666816,0.333319,0.016031,-0.151176,0.988377
-0.698921,-0.178615,-0.839558,0.982361,-0.121475,-0.142162
0.274682,0.260499,0.854073,-0.232760,0.751265,-0.617596
-0.117039,0.362383,0.372296,0.211873,0.890633,0.402346
-0.318007,0.039446,-0.213412,0.982687,-0.127037,0.134866
-0.893555,-0.167091,-0.020439,0.274374,0.633916,-0.723097
-0.644847,0.344820,0.401239,-0.103592,-0.191748,0.975962
0.578900,-0.098228,0.643223,0.810049,-0.012858,-0.586221
0.301823,-0.354515,0.657533,0.924213,-0.338938,0.175931
-0.153707,0.716952,0.463722,-0.162336,0.340450,0.926143
0.272233,0.748921,0.256321,-0.187789,0.153322,0.970169
-0.712866,-0.179613,0.314744,-0.608670,0.111038,-0.785615
-0.671403,0.228311,0.368557,0.021661,0.276528,0.960762
-0.051520,-0.458117,0.243709,0.595907,-0.159580,0.787038
0.139284,-0.053684,0.812807,-0.270059,-0.764400,-0.585458
-0.778914,0.785873,0.073200,0.166383,-0.152042,-0.974269
-0.150407,-0.119724,0.490785,-0.372210,-0.924511,-0.082097
0.421415,0.316122,0.482341,0.215814,0.652719,0.726211
-0.268988,0.418228,-0.104130,-0.682849,0.477056,0.553295
0.130234,-0.510526,0.183105,-0.711908,-0.442073,0.545673
-0.172814,-0.299612,0.608210,0.372339,0.244599,0.895285
0.694288,0.556289,0.329602,0.216425,-0.134722,-0.966959
0.515672,0.354072,0.472446,0.108827,0.839318,0.532637
0.143435,-0.345485,0.240228,-0.437229,0.020995,0.899105
-0.231040,0.411634,0.549412,0.821457,-0.100234,-0.561393
-0.354409,-0.022992,-0.285285,0.931434,-0.072036,-0.356710
0.459948,0.116232,0.503817,-0.280540,-0.948398,-0.147775
-0.397149,0.685430,0.565215,-0.157455,-0.715773,0.680351
-0.091064,0.284321,0.572596,0.768664,0.545536,-0.333985
-0.076430,0.131579,0.399939,0.985375,0.126693,-0.113948
0.296662,-0.310304,-0.086500,-0.081504,0.112869,0.990261
0.071372,0.612908,0.763065,-0.435217,-0.678703,0.591565
0.280377,0.025596,0.891664,0.973657,-0.043589,0.223813
0.590503,-0.065042,0.647520,0.810049,-0.012858,-0.586221
0.531213,0.299779,0.313197,0.174114,-0.198368,0.964538
0.692105,0.024820,0.297565,0.108372,0.561728,0.820193
0.398423,0.025263,0.794791,0.423972,0.451398,0.785167
-0.470597,-0.074958,-0.498767,0.996115,-0.021518,-0.085393
0.519080,-0.005485,0.631040,-0.284713,0.435518,0.853969
-0.816914,0.185209,0.190271,0.221117,-0.187350,0.957083
-0.546757,0.896010,0.442225,0.751838,0.357377,-0.554095
0.119751,-0.236620,0.189744,0.384098,0.095728,-0.918317
-0.420834,0.834515,0.312649,-0.397225,0.621377,0.675354
-0.012828,0.025430,0.825613,-0.436841,-0.660664,0.610486
-0.837298,0.614626,0.323457,0.184834,-0.324052,0.927807
0.205864,0.391968,0.819329,0.604291,0.648707,0.462614
0.103996,0.151469,0.813560,-0.524126,0.548016,-0.651898
0.151365,-0.113295,0.462036,-0.127911,-0.236983,0.963057
-0.787483,0.137563,0.312230,-0.067419,0.224418,0.972158
-0.508808,0.044544,-0.991642,-0.129951,0.154706,0.979377
0.497630,-0.565595,0.382911,-0.133412,0.454852,0.880518
-0.017724,-0.622162,0.557641,-0.032020,0.280299,0.959379
-0.370538,-0.085263,0.025478,0.068739,-0.170244,0.983001
-0.066584,-0.734238,0.170439,0.561992,-0.099926,0.821085
-0.503754,-0.135900,0.296964,0.223737,0.237926,0.945163
0.459256,0.867092,0.511154,0.654921,-0.140378,-0.742544
0.609503,0.370526,0.684467,0.429888,0.118150,-0.895118
-0.857471,0.106703,-0.009159,-0.257565,-0.337925,-0.905244
0.268985,0.899446,0.179678,0.219298,0.955382,0.197874
-0.108576,-0.238781,0.392870,-0.054955,0.356489,0.932682
-0.491299,-0.751801,0.030646,-0.413581,0.297685,0.860427
0.910424,-0.187978,0.207224,-0.554462,-0.390697,-0.734798
-0.236682,-0.006371,-0.052240,0.228947,-0.509072,0.829716
-0.366013,0.321718,-0.336746,0.844738,0.269305,-0.462485
-0.385279,0.042106,-0.472209,0.192191,-0.981237,-0.015356
-0.086594,0.048642,0.701087,0.888178,0.458785,0.025605
-0.692745,-0.098671,0.290689,0.670156,0.132734,0.730255
-0.028742,0.789420,0.614259,0.439077,0.058459,-0.896546
0.794613,-0.276288,0.281934,0.133976,-0.155117,0.978769
-0.145726,-0.484210,0.365678,-0.652468,-0.100527,0.751119
-0.058813,0.555735,0.741557,0.575950,0.272759,-0.770639
0.266539,-0.510249,-0.066614,-0.045767,0.220509,0.974311
0.230292,-0.322438,0.500852,0.898802,0.097158,-0.427452
-0.596575,-0.000609,0.458480,0.913705,-0.088690,-0.396582
-0.440471,-0.259668,-0.977750,-0.018191,0.149515,0.988592
-0.509023,-0.124488,0.292913,-0.310673,-0.150351,-0.938550
-0.835222,0.286095,0.312692,0.348367,-0.255200,0.901950
0.859225,-0.162715,0.287348,0.526710,-0.258757,0.809704
0.001225,0.760333,0.438894,0.602796,0.606867,-0.518024
-0.307203,-0.903657,0.146449,-0.590847,-0.806605,0.016995
0.783435,0.548199,0.335608,-0.119035,-0.353061,0.927997
-0.133749,-0.453130,-0.967308,-0.101712,0.119757,0.987579
0.361913,0.616344,0.590763,0.780343,-0.238515,0.578079
-0.252489,-0.524044,0.616257,-0.290813,0.468186,0.834404
0.385864,-0.074294,0.716998,0.082827,-0.583861,0.807618
-0.162595,-0.386870,-0.075789,0.428852,0.267213,-0.862950
-0.363726,-0.531579,0.397307,-0.472482,0.200011,-0.858345
0.295596,-0.593352,0.237370,-0.100764,-0.359929,0.927522
-0.172870,0.366482,0.459382,-0.693143,-0.412830,-0.590867
0.327106,-0.426149,0.488722,0.808385,-0.256892,0.529642
-0.136464,-0.328587,0.545275,-0.186756,0.804942,-0.563197
-0.322477,-0.238172,-0.097652,0.454549,0.275721,-0.846973
-0.644100,0.318283,0.247512,-0.157723,0.186083,0.969792
-0.736814,0.032521,0.390807,-0.111373,-0.367185,-0.923456
0.346584,-0.916345,0.224220,-0.642275,0.612841,0.460337
0.132150,0.806260,0.641988,0.359187,0.362475,0.859998
0.594496,-0.080886,0.525304,-0.665145,0.129396,0.735417
-0.128161,0.144765,-0.979964,-0.104937,0.070280,0.991992
0.292884,-0.125540,0.866449,-0.450943,0.341365,-0.824695
0.076267,-0.771967,0.165851,-0.238122,-0.098827,-0.966194
-0.525203,0.195458,0.254269,-0.176017,-0.012307,0.984310
-0.834693,-0.252853,0.221115,-0.042221,-0.105484,0.993524
-0.601363,-0.087923,0.489399,-0.254068,-0.147869,0.955816
0.308210,-0.853573,0.232245,0.756046,0.579061,0.305094
-0.137475,0.515680,0.737496,0.946141,-0.254039,-0.200703
-0.191655,-0.549917,-0.969790,0.118326,-0.100526,-0.987873
-0.316250,0.302327,0.687604,0.707626,0.492121,0.507033
-0.934271,0.079224,0.325304,0.083822,0.489393,0.868026
0.043909,0.047700,-0.974635,0.049029,-0.061227,-0.996919
-0.381872,-0.485872,-0.980748,0.212709,0.004089,-0.977107
-0.227262,0.153462,-0.985077,-0.242317,0.163546,0.956313
0.523283,0.360887,0.630427,0.413832,0.556009,-0.720831
-0.144286,-0.130194,0.730244,0.022770,0.620408,0.783948
-0.169462,-0.529917,0.185533,0.161954,-0.270888,0.948889
0.693970,-0.655790,0.122201,0.426732,0.561679,-0.708813
-0.063335,0.204045,0.678085,0.248519,0.963704,-0.097538
0.188033,0.554239,0.589753,-0.049948,0.208759,0.976691
-0.875672,0.706318,0.346695,0.011086,-0.172442,0.984957
-0.661187,0.078227,0.131859,0.048607,0.894161,0.445099
0.486615,-0.484377,0.145202,0.332936,-0.020777,0.942720
-0.962107,-0.039390,0.342010,0.967216,0.143167,0.209755
0.626694,-0.527757,0.489657,-0.494175,0.482648,0.723078
0.195700,0.482604,0.786443,0.642780,0.738922,-0.202062
-0.196181,-0.397064,-0.972723,-0.156659,0.141309,0.977491
-0.570334,0.387425,0.406256,0.023673,-0.198775,0.979759
-0.135292,-0.615957,0.659983,-0.651704,-0.438212,-0.619073
0.086006,-0.080886,0.688302,-0.147447,-0.989068,-0.002083
0.546383,0.057507,0.499723,0.133525,0.339655,0.931024
-0.334773,-0.120221,0.546608,0.805233,0.385836,0.450256
-0.766089,0.295901,0.195084,0.015292,-0.093277,0.995523
0.631434,-0.339778,0.273446,-0.485216,0.329748,-0.809834
-0.044975,0.015403,0.415979,0.666022,0.145772,-0.731550
0.450794,-0.070415,0.701946,0.024169,0.488023,0.872496
-0.569908,0.726870,0.255365,-0.379058,0.101765,0.919760
0.087711,0.010692,0.483888,0.409141,0.890502,-0.199022
-0.036883,0.879945,0.607802,-0.527176,-0.059037,0.847703
0.174143,0.494737,0.482867,0.977814,-0.079764,0.193695
0.161477,-0.580000,0.393869,-0.091087,-0.114366,0.989254
-0.047902,-0.325152,0.393772,0.079297,-0.086600,0.993082
-0.363193,0.047148,0.586294,-0.085675,-0.007472,0.996295
-0.414658,-0.014016,-0.604256,-0.011393,-0.960901,0.276658
-0.090106,0.566982,-0.066743,0.349372,-0.431209,0.831865
-0.017672,0.933906,0.462949,-0.576493,0.772461,0.266385
-0.276226,-0.395513,0.546447,0.212317,0.292405,-0.932427
0.238063,0.231635,0.849163,-0.247954,0.935756,-0.250757
-0.272022,0.083879,-0.289131,0.785251,-0.599459,0.155012
-0.133378,-0.800887,-0.965310,0.170104,-0.080331,-0.982146
0.622173,-0.385873,0.142033,0.139267,-0.119242,0.983049
-0.122360,0.161606,0.713538,-0.696681,-0.239497,0.676222
-0.035925,0.603214,0.744458,0.220614,0.221769,-0.949815
0.674063,-0.400166,0.374692,0.624951,-0.476844,-0.618107
0.114959,-0.651746,0.404967,-0.130738,-0.463523,-0.876387
0.569109,0.029529,0.430740,0.806101,0.436130,0.399989
-0.200599,0.131302,0.656222,0.166535,-0.422440,0.890960
0.431316,0.278449,-0.053948,0.908335,0.097633,-0.406688
-0.007667,-0.970471,0.436961,0.253540,-0.733248,-0.630923
0.107403,0.266151,0.908176,-0.711664,-0.543629,0.444975
-0.020439,0.952633,0.447145,0.295921,-0.751281,-0.589922
0.387781,-0.407091,0.554740,0.195789,0.159309,0.967619
0.546117,0.063213,0.501894,0.208014,-0.297286,-0.931854
0.665816,-0.660776,0.122673,0.422961,0.597675,-0.681094
-0.238118,0.063269,-0.979813,-0.230539,0.071148,0.970459
-0.518177,-0.000333,0.478752,-0.159791,0.333767,0.929014
0.099952,0.405208,0.595286,-0.055145,0.036950,0.997794
-0.624197,0.842326,0.125220,0.001341,0.580483,0.814271
0.100163,-0.888199,0.421179,-0.301647,-0.311779,-0.901001
0.172918,-0.136676,0.640988,-0.672763,-0.564635,-0.478097
-0.574326,-0.066483,-0.654493,0.915211,-0.333818,-0.225732
-0.250465,-0.768808,0.075123,0.451131,0.018784,-0.892260
-0.276015,0.328865,0.551958,0.960635,0.222018,0.167000
0.219488,-0.710194,0.183137,0.485545,0.783956,-0.386858
-0.573420,-0.199612,0.235329,-0.484540,0.055762,-0.872990
-0.069244,-0.143823,0.731394,0.624528,-0.285680,0.726878
-0.336101,-0.198726,-0.091926,0.454935,-0.546418,0.703180
-0.746660,0.562881,0.413014,-0.065223,-0.071583,0.995300
-0.105169,-0.408422,0.391527,-0.051111,-0.500540,0.864203
-0.441429,0.260221,-0.342902,0.829931,0.271465,-0.487361
0.166321,0.351857,0.969435,0.787979,0.501772,-0.356811
0.261481,-0.297618,0.689538,0.588491,0.797621,0.132204
-0.260578,0.296509,0.241775,-0.436198,0.139655,-0.888947
-0.407366,-0.299889,-0.127003,0.777139,0.367296,-0.511028
-0.970780,0.142992,0.198296,0.099381,-0.343135,0.934014
0.024162,-0.070305,0.824131,-0.555423,-0.471513,-0.684968
0.015433,-0.206094,0.661379,0.410275,0.081108,-0.908348
0.757623,0.063103,0.277905,-0.465758,-0.472016,-0.748512
-0.613392,-0.536787,-0.982413,-0.078333,0.022789,0.996667
-0.262017,-0.050914,0.390893,0.033979,0.043659,0.998469
-0.106552,-0.120887,0.620157,0.156222,-0.964414,0.213308
-0.739422,0.443048,0.196889,0.247926,0.031299,0.968273
-0.914364,0.200554,0.198629,0.217279,-0.236219,0.947096
0.046940,0.273629,0.870478,0.024272,-0.207154,0.978007
-0.257225,0.149252,-0.035276,-0.472506,-0.206439,0.856809
-0.265051,-0.505429,-0.102282,-0.139859,0.118788,0.983020
-0.365746,-0.453740,0.354591,0.499720,0.820364,-0.278000
-0.345788,0.050139,0.587078,-0.120938,0.121118,0.985243
-0.155572,-0.140222,0.459318,0.225282,0.777970,-0.586524
0.435945,-0.088088,0.812431,-0.226352,0.062107,0.972064
0.588908,-0.189307,0.449917,0.806212,0.336830,0.486383
-0.988825,0.442160,0.326196,-0.528943,0.307651,-0.790930
-0.219225,0.585652,0.575669,0.693264,0.623327,-0.361729
0.361062,0.978284,0.309866,-0.570045,-0.309818,-0.760961
0.557772,0.431690,0.672692,0.268500,-0.877118,-0.398210
0.243705,-0.268587,0.671360,-0.332591,-0.912600,-0.237793
-0.836769,0.614183,0.084491,0.040978,0.121689,0.991722
0.272870,0.034626,0.856307,0.926917,-0.324355,0.188729
0.283515,0.612188,0.328635,0.023473,-0.304568,0.952201
0.621585,-0.597508,0.228883,0.013687,0.108016,0.994055
0.108999,0.042714,0.577463,-0.558468,-0.287777,-0.778009
0.185587,0.536843,0.712851,0.474807,-0.258596,0.841241
-0.262121,0.068311,0.052680,-0.388248,-0.713263,0.583540
-0.631648,0.153851,0.176702,0.430362,-0.673288,0.601225
-0.559903,0.286649,-0.048641,0.254530,0.594544,0.762714
0.544840,-0.081883,0.710885,0.774334,0.081769,-0.627472
-0.164778,0.325485,0.187972,-0.165627,-0.149454,0.974798
-0.633510,0.181440,0.072104,-0.589759,0.573529,0.568550
0.497948,-0.090138,0.827612,-0.670177,0.521439,0.528170
0.173610,0.499003,0.602022,-0.110179,-0.372660,-0.921404
0.548991,0.328587,0.317849,0.098993,0.003651,0.995081
0.052638,0.071967,0.594716,0.890798,0.397901,0.219440
-0.326788,0.656012,0.186156,-0.080039,0.614206,0.785076
0.698173,-0.480998,0.491182,-0.323903,0.577714,0.749221
0.436852,-0.299169,0.641053,0.071087,0.609027,0.789957
-0.193198,-0.089473,0.588281,0.215938,0.597387,0.772334
-0.710150,-0.161995,-0.843275,0.978910,-0.122322,-0.163621
-0.573475,-0.108976,0.312541,-0.100378,0.461877,-0.881245
-0.173614,0.662105,0.333878,-0.178808,-0.252881,0.950831
-0.179523,-0.573352,0.363089,-0.534684,-0.293174,0.792567
0.855340,-0.344044,0.279860,0.010779,-0.117016,0.993072
0.346424,0.278782,0.795091,0.582274,-0.339086,0.738903
0.119751,-0.009252,0.297758,0.108920,-0.525482,0.843804
0.608919,0.090415,0.292107,0.296852,0.093711,0.950314
-0.006601,0.007037,0.616698,0.436313,-0.366072,-0.821962
0.269251,-0.113407,0.700593,0.233924,0.439008,0.867498
-0.378893,0.008531,-0.333878,-0.789675,0.605868,0.096625
-0.109002,-0.127313,0.634166,0.413137,0.179457,-0.892812
-0.315292,-0.212577,-0.980898,-0.190268,0.100632,0.976561
0.119910,0.766981,0.646575,-0.374126,-0.254630,-0.891736
-0.004259,0.798063,0.652011,0.447631,-0.079711,-0.890659
0.149341,0.490527,0.788516,-0.648885,0.394099,0.650872
-0.879239,-0.177839,0.292838,-0.227121,0.667206,0.709403
-0.335783,0.047756,-0.404032,-0.023283,-0.997000,0.073822
-0.316675,-0.167755,0.550883,-0.790257,-0.537589,0.294093
0.548777,-0.079501,0.700539,0.596354,0.017698,-0.802527
-0.333174,-0.155900,0.606663,0.804587,-0.332893,-0.491754
-0.139339,-0.127036,0.387101,-0.044247,-0.323309,0.945258
0.191226,0.333352,0.893780,0.941708,-0.336412,-0.003602
0.013942,0.251191,0.459790,0.203497,-0.354890,-0.912492
-0.464847,-0.179279,0.461627,0.261697,-0.425535,0.866276
-0.368781,-0.510083,0.403130,0.311679,-0.471811,0.824773
-0.489331,-0.031911,-0.518148,0.965306,-0.118460,-0.232705
0.088881,0.180776,0.780502,0.513931,0.855252,-0.066470
0.517111,0.047535,0.498026,0.016389,0.516017,0.856422
-0.221086,0.431690,0.694877,-0.353556,0.283752,-0.891338
-0.558997,0.352078,0.361080,-0.007096,0.751315,0.659905
-0.223003,0.156898,0.575507,-0.090578,0.375307,0.922464
0.533022,0.649087,0.242301,0.109420,0.777813,0.618898
-0.443664,0.054460,0.478581,-0.025414,0.460667,0.887209
0.403532,0.399723,0.678891,0.913496,-0.119635,-0.388859
-0.396990,0.607757,-0.986227,-0.094780,-0.011952,0.995426
0.243813,0.496399,0.751376,0.065695,0.933810,0.351687
-0.244504,0.658504,0.374488,0.184172,0.775982,0.603268
-0.049659,-0.034293,0.379634,0.852356,-0.106323,-0.512039
-0.684709,-0.113351,-0.055796,-0.426871,0.720214,-0.546875
0.403747,0.652854,0.241796,0.118046,0.784213,0.609159
0.082654,0.874572,0.656652,-0.249907,0.708841,-0.659614
-0.162543,-0.155457,0.739870,0.068716,0.435039,0.897786
0.428653,-0.140886,0.716901,-0.168373,-0.900174,0.401668
-0.113683,-0.576343,0.625862,-0.191265,0.688428,0.699632
-0.744425,-0.401606,-0.981833,-0.126411,-0.262907,0.956504
0.281598,0.285097,0.876376,0.283068,-0.586666,0.758746
-0.005750,0.228865,0.790171,0.160575,-0.450267,0.878337
-0.488850,-0.122106,0.296555,-0.244494,-0.364731,-0.898440
-0.361384,-0.442715,0.131891,0.736854,-0.314103,0.598653
0.478256,-0.690693,0.209265,0.318614,-0.255823,-0.912710
-0.173506,0.392355,0.678859,0.514600,-0.559626,-0.649619
0.791313,-0.329862,0.282266,0.034390,-0.048119,0.998249
-0.576350,0.376178,0.182482,-0.132156,-0.144813,-0.980594
0.238810,-0.188144,0.513572,0.853674,0.210819,-0.476232
-0.408324,-0.166371,0.141120,0.102341,-0.098617,0.989849
-0.498644,-0.153352,0.299961,0.223737,0.237926,0.945163
0.554686,0.295069,0.377216,-0.498481,0.614457,-0.611522
0.561284,-0.442328,0.555267,0.225967,0.962684,0.148923
0.287881,0.655403,0.499788,-0.004774,-0.364149,0.931328
-0.831178,-0.070693,-0.986453,-0.675916,0.348009,0.649636
-0.613019,0.165152,0.373897,0.033628,0.307009,0.951112
-0.059291,0.049141,0.700721,0.772876,0.161552,0.613648
-0.232264,-0.359279,0.544642,0.158835,-0.197332,-0.967384
0.331417,-0.856843,0.216957,0.816682,-0.544618,-0.190846
-0.444622,-0.152576,0.216807,-0.210129,0.196999,0.957621
0.719301,0.007923,0.290807,0.768621,0.384141,0.511524
-0.045612,-0.622826,0.179420,0.375707,0.038132,0.925954
0.345041,-0.914904,0.231579,-0.374441,0.739470,-0.559445
0.299696,-0.105650,0.816793,0.971462,-0.235771,-0.025973
0.019266,0.220056,-0.977804,-0.048673,0.110667,0.992665
-0.106552,0.188643,0.852611,-0.116696,-0.651220,0.749863
0.514769,0.119391,0.773938,0.811650,0.302869,-0.499495
-0.012987,0.175014,-0.976719,-0.048673,0.110667,0.992665
-0.545373,-0.015401,-0.666729,0.680126,-0.730011,-0.067168
0.635319,-0.520610,0.490635,-0.434693,0.497331,0.750802
0.427698,-0.099890,0.627409,-0.204455,-0.415052,0.886527
0.523017,-0.116011,0.624261,-0.411864,-0.411426,0.813079
-0.228113,0.288920,0.691783,-0.552871,-0.292936,-0.780078
-0.309064,-0.471968,0.397092,-0.179033,0.249551,-0.951668
-0.440685,0.351745,0.476904,0.099292,0.624275,0.774869
-0.700145,-0.152909,0.369933,-0.241735,-0.061234,-0.968408
0.354942,0.171690,0.742062,-0.155985,0.859299,0.487108
-0.066476,-0.556565,-0.967555,0.007064,0.064604,0.997886
0.692586,0.023435,0.292107,0.505186,0.824689,0.254315
-0.131195,-0.594626,0.364808,0.343844,0.319771,-0.882903
-0.438395,-0.466926,0.212069,0.214162,-0.442969,-0.870582
-0.018364,-0.018615,0.396770,0.962812,0.244416,-0.115123
0.309330,-0.189473,0.359307,0.135112,-0.248392,-0.959190
0.253870,0.510694,0.751387,-0.314177,-0.902190,0.295545
0.570759,-0.433074,0.479032,0.041861,0.220308,0.974532
-0.521422,-0.003823,-0.580245,0.885483,-0.463997,0.025049
0.799135,0.411136,0.327442,-0.245549,0.118463,0.962119
-0.306829,0.039502,0.223339,0.207546,-0.256619,-0.943966
-0.369365,0.656678,0.442085,-0.667720,-0.473654,0.574284
-0.182553,-0.293130,0.104560,0.243468,0.149807,0.958270
-0.643996,-0.300996,0.228507,-0.052041,-0.070290,-0.996168
-0.028050,0.870250,0.612636,0.456161,0.057540,-0.888035
0.419661,0.321828,0.314604,0.129268,-0.174782,0.976085
-0.582311,-0.596288,-0.981865,-0.076245,0.126385,0.989047
0.011867,-0.930859,0.079958,0.089906,0.090929,0.991791
-0.600778,0.340832,0.168311,-0.183600,-0.114465,-0.976314
0.022885,0.295623,0.906973,-0.095160,-0.486241,0.868628
-0.636329,-0.059502,-0.789419,0.966648,-0.233557,-0.105085
-0.662411,0.185540,0.049135,-0.223105,0.778198,0.587054
0.421789,0.760113,0.311617,0.958599,-0.277462,0.064050
0.525148,0.169695,0.721424,0.832215,0.548735,0.079424
0.232527,-0.724266,0.403065,0.026837,0.357741,0.933435
0.066580,0.341275,0.756684,-0.583423,-0.536284,0.609932
-0.982439,0.594904,0.082944,-0.024571,-0.061500,0.997805
0.525148,0.278339,0.626248,0.355653,-0.312642,0.880776
0.471659,-0.018503,0.764666,0.841291,0.432104,-0.324832
0.168607,0.367757,0.811765,-0.249545,0.257771,0.933425
-0.040239,0.001995,0.304613,-0.325580,-0.653599,0.683233
-0.055938,0.082049,0.136060,0.982184,-0.074708,-0.172432
-0.082868,0.581552,0.742728,0.508690,0.520439,-0.685841
-0.539038,0.845153,0.125144,-0.072478,0.410861,0.908812
-0.553517,-0.401995,0.212177,0.040523,-0.349918,0.935903
-0.636492,-0.188864,-0.788377,0.818361,0.539719,-0.197457
0.375167,0.481884,0.411971,-0.433914,0.762166,-0.480438
0.340090,-0.738338,-0.079163,-0.001954,-0.561338,0.827584
0.238862,0.316233,0.874378,0.540809,0.431220,0.722201
-0.148012,0.082272,0.002519,-0.837256,0.521875,0.163243
0.533288,-0.007424,0.516086,0.792658,0.123549,0.597016
0.599232,-0.019612,0.292043,0.136128,0.185055,0.973254
-0.188569,0.312411,0.701882,0.126371,-0.673863,0.727969
0.622439,-0.168089,0.295384,0.436631,0.028430,0.899191
-0.405186,0.638394,0.544824,-0.052095,0.710429,-0.701838
0.362816,0.823712,0.343558,0.065223,-0.144628,0.987334
0.525944,-0.150693,0.584542,0.911409,0.305162,-0.276062
0.113468,0.288089,0.720618,0.532576,0.516910,0.670199
-0.316091,-0.816898,-0.969951,-0.078488,0.055578,0.995365
0.591195,0.876455,0.335500,0.020909,0.775510,0.630989
-0.167493,-0.165595,0.738409,-0.507135,-0.170336,-0.844866
-0.234022,-0.046537,-0.048834,-0.023807,-0.524287,0.851209
0.596519,-0.347978,0.289980,0.904795,-0.307915,0.294169
-0.191496,0.521440,0.559328,0.727908,-0.015852,-0.685491
-0.910002,0.423324,0.209674,-0.171482,-0.589060,0.789685
-0.493482,0.182881,-0.991717,0.122384,-0.036226,-0.991822
0.461066,0.145872,0.741536,-0.280746,0.959186,-0.033810
-0.121827,-0.123656,0.386230,-0.074015,-0.410244,0.908967
-0.137208,0.855957,-0.097684,0.843264,0.316466,-0.434459
-0.836236,0.049418,-0.997454,0.140532,-0.292907,-0.945757
-0.495236,-0.051192,0.487766,0.178598,-0.164903,0.970005
0.541591,-0.128810,0.135372,-0.264693,-0.132500,-0.955187
-0.518710,-0.109917,0.474272,-0.186560,0.214391,-0.958766
0.135399,-0.097617,0.314378,0.704248,0.679165,0.206808
-0.079408,-0.629640,0.177164,-0.351003,0.295776,0.888433
-0.856727,0.057563,0.191227,0.430246,0.266631,-0.862436
0.379422,-0.857950,0.134029,0.572918,-0.450214,-0.684888
0.196392,0.466870,0.793985,0.535778,0.698015,-0.475097
0.043854,-0.393684,0.408415,0.956020,-0.013625,0.292984
-0.426739,-0.094958,-0.488647,0.983832,0.178837,-0.009594
0.475969,0.613740,0.241914,0.109420,0.777813,0.618898
-0.159723,0.155457,0.655137,0.499431,-0.033884,0.865691
0.325774,0.794239,0.520340,-0.547263,0.696281,-0.464432
0.562934,0.058283,0.439915,0.713597,0.491431,0.499275
-0.300709,0.854794,0.448789,0.074860,0.272276,0.959303
0.340305,-0.127591,0.759843,0.767811,0.640530,-0.013658
0.089306,0.323324,0.899517,0.305380,-0.950325,0.060210
0.113202,-0.527978,0.180204,0.673794,0.445746,-0.589332
0.307199,0.291358,0.399971,-0.632326,0.379108,-0.675605
-0.393690,0.197619,0.114025,0.003450,0.347614,0.937631
0.114001,-0.115679,0.598240,0.298538,0.799551,0.521146
0.137153,-0.078448,0.748336,0.593806,-0.795171,-0.122872
-0.057589,-0.465043,0.063800,-0.292163,0.389526,0.873447
-0.213105,-0.141716,0.540505,0.052588,0.581205,0.812056
-0.557135,-0.483434,0.205333,0.335037,0.079247,-0.938866
0.472987,-0.523214,0.570060,-0.330840,0.691887,0.641746
-0.772313,0.245818,0.370513,0.303549,-0.126500,-0.944381
-0.106286,0.951747,0.118602,-0.177741,0.965658,-0.189507
-0.437492,0.480166,0.200746,0.094021,0.530356,-0.842546
0.534568,0.423270,0.690956,0.319120,0.938993,0.128278
-0.410721,0.045208,-0.437584,0.611486,-0.790859,-0.025035
0.615412,-0.075070,0.296104,-0.113313,-0.007813,0.993529
0.164245,0.427813,0.708220,-0.730277,0.172109,-0.661115
0.206715,0.413021,0.707200,-0.560374,-0.072253,-0.825082
-0.414873,-0.628476,-0.977965,-0.162513,0.162339,0.973260
0.703975,-0.626759,0.122609,0.426732,0.561679,-0.708813
-0.933527,0.742935,0.332363,-0.013840,-0.282879,0.959056
0.010908,-0.957674,0.440946,0.055606,0.558372,0.827725
-0.667200,0.069807,0.221932,0.927534,-0.305413,-0.215417
-0.045826,0.025540,0.628257,-0.585587,0.692870,-0.420737
0.575547,-0.044709,0.741321,-0.017126,0.527845,0.849168
-0.426366,0.721108,0.338691,-0.027757,-0.131128,0.990977
-0.796852,-0.179002,0.320116,-0.245835,0.831300,-0.498503
0.588535,-0.168920,0.524143,0.830604,0.144435,-0.537807
-0.862207,-0.138504,0.323951,0.186571,-0.667369,0.720978
0.514022,0.387425,0.681255,-0.019241,-0.678317,0.734517
0.163179,0.329807,0.965363,0.787979,0.501772,-0.356811
0.635157,-0.537341,0.139347,-0.356759,-0.494178,0.792787
0.067431,0.003713,0.588904,0.617921,0.267118,0.739474
-0.591251,0.909587,0.426314,0.732294,0.415886,-0.539244
-0.426847,0.018449,-0.453677,0.544756,-0.827811,-0.134054
-0.035181,-0.485541,0.224080,-0.374873,0.849447,-0.371362
0.647400,-0.190803,0.225498,-0.387551,-0.057011,-0.920084
-0.095056,-0.086814,0.730706,0.135380,-0.989054,0.058690
0.217412,-0.117894,0.699765,-0.047418,-0.156886,0.986478
-0.504390,-0.085319,-0.550207,0.997885,0.043178,-0.048589
0.181436,0.054183,0.961947,0.719059,0.222126,-0.658494
-0.256589,-0.004321,0.133041,0.211880,-0.091983,0.972957
0.453721,0.828476,0.348564,-0.488950,-0.422329,0.763260
0.079675,-0.654460,0.402635,0.051484,0.453164,0.889939
-0.408912,-0.084930,0.289411,0.337829,-0.298444,0.892638
0.252752,-0.840997,0.238380,0.992222,0.124407,0.004395
0.543667,0.058227,0.438196,0.757333,0.537604,0.370714
0.905103,0.506095,0.326099,-0.081915,0.300592,0.950229
-0.041460,0.128754,0.498520,0.816225,0.549092,-0.179653
0.034859,0.257286,0.714108,0.266378,0.949941,0.163262
-0.676087,0.035845,0.075198,0.451740,-0.872623,-0.185633
0.468732,0.233187,0.299252,0.086071,-0.446590,0.890589
0.153333,0.086704,0.772917,-0.199195,-0.688762,0.697086
-0.027995,0.492798,0.746295,0.233326,0.503541,-0.831868
0.400553,-0.211080,0.763183,0.862200,0.390976,-0.322101
0.344508,0.383325,0.522338,0.817019,-0.072119,0.572083
-0.159564,0.360554,-0.119912,-0.041121,0.002478,0.999151
0.338229,0.082161,0.773712,0.666845,0.507817,-0.545380
-0.057322,0.576068,0.597424,0.273303,0.439987,-0.855405
0.016551,-0.287812,0.137574,0.913229,0.346855,-0.213788
-0.703124,0.184211,0.049844,-0.026556,0.676024,0.736401
-0.501304,-0.017507,-0.678182,-0.114512,0.993310,0.014883
0.258076,-0.614127,-0.062027,-0.215034,-0.152727,0.964591
-0.445847,0.019834,-0.453720,0.964465,-0.262337,-0.031403
-0.730853,-0.110913,0.301626,0.286179,0.246293,0.925981
0.749586,0.038948,0.275262,0.500482,0.357283,0.788585
0.475278,-0.197342,0.150091,-0.198599,-0.119554,-0.972762
0.424608,0.684544,0.238498,0.135875,0.855359,0.499899
0.070306,0.854794,0.663614,0.600951,0.036787,-0.798439
0.738090,0.421662,0.325681,-0.123026,-0.214063,0.969042
0.031614,0.078172,0.907822,0.765222,0.431824,-0.477455
-0.366919,0.183214,0.218472,-0.642997,0.760410,-0.091274
0.139709,-0.377784,0.710842,0.608198,0.459879,0.646999
-0.327480,-0.758781,0.077734,-0.611144,-0.126221,0.781391
-0.815637,0.083546,0.188799,0.253592,-0.025728,0.966969
0.311884,-0.089806,0.629450,0.226581,0.541530,-0.809571
0.273669,-0.167646,0.269987,-0.050905,-0.539133,0.840681
-0.875938,0.173851,-0.014552,0.253546,0.463802,0.848883
0.425407,0.279502,0.855007,-0.683951,-0.171253,0.709143
-0.908725,-0.019335,0.293311,0.829575,0.393749,-0.395939
-0.049818,-0.535901,0.566515,0.776576,0.143017,-0.613576
-0.274043,-0.648532,0.087629,0.742708,0.615099,-0.264647
0.466549,-0.072520,0.785111,0.747243,-0.360936,0.557991
0.138059,0.299225,0.931629,-0.817210,0.421036,0.393568
0.725317,-0.086426,0.293074,-0.563331,0.054573,-0.824427
-0.098198,-0.511081,-0.100854,-0.031974,-0.233004,0.971950
-0.072437,0.058171,0.611562,0.362682,-0.269979,-0.891949
0.617436,-0.319944,0.463142,0.720677,0.663807,0.199963
-0.448829,-0.506317,0.155645,0.263548,0.418115,0.869323
0.309594,0.292411,-0.076316,0.464862,-0.221325,-0.857274
-0.027251,-0.474681,0.180258,0.946170,-0.273053,0.173794
-0.136890,-0.199390,0.739258,0.410432,0.154843,0.898649
0.411143,0.389418,0.521049,0.817019,-0.072119,0.572083
-0.527117,0.399667,0.404225,0.133006,-0.077848,0.988053
-0.294534,-0.385374,0.114659,0.784623,-0.314029,0.534558
-0.450476,0.033297,-0.470437,0.900129,-0.402301,-0.167095
0.066528,0.577508,0.760261,-0.406796,-0.616829,0.673824
-0.387141,-0.649031,0.234330,0.038283,0.340333,0.939525
0.341740,-0.204321,0.682006,0.804110,-0.512140,0.301861
0.586992,-0.061940,0.433308,-0.646196,0.070269,-0.759929
-0.656022,-0.074016,-0.977815,-0.393485,-0.573222,-0.718739
-0.491406,0.866372,0.127508,-0.164880,-0.338932,-0.926250
0.193357,0.068476,0.954126,0.931005,0.018825,-0.364520
0.283622,0.038836,0.880813,0.980220,0.197881,0.003450
-0.197990,-0.467590,-0.971992,-0.202559,0.137467,0.969573
-0.183885,0.083989,-0.035297,0.672413,0.021348,-0.739868
0.339560,0.085984,-0.029206,0.962677,0.149980,-0.225297
0.550535,-0.050083,0.711153,0.840000,-0.000510,-0.542586
-0.213105,-0.310637,0.398940,0.003537,0.114494,0.993418
-0.020706,0.939059,0.458523,-0.302307,0.847288,0.436709
-0.626698,-0.160942,-0.024769,0.230264,-0.178103,0.956691
0.136250,-0.310914,0.194375,-0.168706,-0.276080,0.946213
0.577253,-0.003324,0.502871,-0.621857,-0.261856,-0.738055
0.003086,0.749861,0.607383,-0.211007,-0.044935,0.976451
-0.041249,-0.198449,0.636992,0.104140,0.437604,0.893117
0.344829,0.126926,0.777838,-0.343959,0.285017,0.894683
-0.399862,0.776121,0.435661,0.525575,0.699822,-0.483756
-0.742190,0.156012,0.050972,0.326667,-0.431277,-0.841005
-0.743200,0.058504,-0.993769,-0.019847,0.481816,0.876048
0.147106,-0.128754,0.759875,-0.434288,0.854644,0.284566
-0.112832,0.042437,0.701624,0.889127,0.388050,0.242630
-0.127681,0.323436,0.651012,0.705306,-0.657711,-0.264499
-0.486137,-0.520055,0.154356,-0.281350,-0.246915,-0.927295
-0.732396,-0.088697,-0.900946,-0.476896,0.878567,-0.026280
-0.109161,0.760833,0.463658,-0.151562,0.235968,0.959869
0.362124,0.422217,0.320642,0.064794,-0.152682,0.986149
-0.236364,0.337396,0.562991,-0.586984,0.388163,0.710478
-0.213423,-0.652520,0.662959,0.213383,0.703443,0.677964
-0.042951,0.111246,0.314733,-0.049944,-0.504942,0.861707
0.687369,-0.446759,0.139712,-0.048993,0.340493,-0.938970
0.789289,-0.145485,0.139089,0.360023,0.113604,-0.926001
0.557720,0.038505,0.430998,0.792421,0.425383,0.437171
-0.207514,-0.473518,-0.971079,0.180250,-0.112444,-0.977173
-0.748365,-0.095734,-0.018344,-0.153204,0.432533,-0.888506
0.313693,0.258837,0.794597,0.582274,-0.339086,0.738903
-0.340467,-0.139169,0.552108,0.966489,0.039683,-0.253621
0.149075,-0.215956,0.279710,0.179794,0.408109,-0.895054
-0.975624,0.116675,-0.008804,-0.450608,0.063437,-0.890465
-0.113420,-0.116176,0.456922,-0.508853,-0.711917,0.483986
-0.167438,-0.360055,0.546017,0.067507,-0.392956,0.917076
-0.013254,0.499336,0.735530,0.835646,0.231031,-0.498317
-0.174465,0.955514,0.138187,-0.186006,0.951098,-0.246607
-0.720689,0.074681,-0.995531,0.071710,-0.143477,-0.987052
-0.268403,-0.586205,0.657458,-0.031184,0.894077,0.446826
-0.060301,-0.400499,0.581792,0.919209,0.198255,0.340219
-0.501785,-0.447922,-0.980211,-0.063524,-0.043395,0.997036
0.174036,0.150084,0.630008,0.040357,-0.053470,0.997754
-0.175741,0.068975,-0.978320,-0.076822,0.076396,0.994114
-0.557083,-0.672631,-0.978685,-0.077581,0.187083,0.979276
0.695354,-0.648753,0.228517,0.109204,0.059868,0.992215
0.399647,-0.002660,0.793748,-0.309674,-0.236033,-0.921081
0.220554,-0.704099,0.402227,0.075928,0.422552,0.903153
0.403107,0.316289,0.478731,-0.225327,-0.674056,-0.703474
0.509607,-0.076012,0.779986,0.211334,-0.192266,-0.958317
0.446110,0.196454,0.725818,0.365567,0.850584,0.377978
-0.459952,0.010361,-0.600464,0.039256,0.980550,-0.192303
0.222311,0.540665,0.785208,-0.240188,0.773437,0.586605
-0.715952,-0.267091,0.234727,-0.335888,-0.199696,-0.920489
-0.057108,-0.195181,0.722187,0.837999,-0.074866,0.540511
-0.080315,0.106260,0.181805,0.938170,0.345021,0.028229
0.258554,-0.433407,0.457577,-0.427100,-0.391758,0.814930
-0.591835,-0.059446,0.487229,-0.029860,-0.018923,0.999375
-0.724733,-0.027811,0.398177,0.219062,-0.260209,0.940374
0.747352,-0.384987,0.282320,-0.087940,0.140228,-0.986206
-0.145245,0.372521,0.573036,-0.647582,0.193223,0.737091
-0.145352,-0.294847,0.044859,-0.194408,0.228806,0.953862
-0.288255,0.070804,-0.042839,0.243224,0.353260,-0.903354
-0.196233,-0.080221,0.225799,-0.172322,-0.152025,-0.973239
-0.543297,-0.595014,-0.981070,-0.101918,0.115593,0.988054
0.367981,0.269918,0.661078,0.237463,0.929687,-0.281591
0.227791,0.076067,0.970853,0.670145,0.264700,-0.693427
0.166106,-0.557674,0.571908,-0.162780,-0.291108,0.942740
0.021342,0.089419,0.900506,0.935939,-0.262893,-0.234320
-0.954015,0.331026,0.320008,0.007459,-0.256629,0.966481
-0.465753,0.262937,0.471962,0.293301,0.077362,0.952885
-0.725905,-0.339002,-0.980039,-0.141449,-0.254508,0.956670
-0.506414,-0.129362,0.473660,0.078159,-0.045402,0.995906
0.339879,-0.673517,-0.066571,-0.195856,0.373675,-0.906646
-0.286552,0.044765,-0.151584,0.887380,-0.406467,-0.217582
-0.081377,-0.696509,0.561090,-0.305508,0.000330,0.952190
-0.679865,0.064211,-0.994199,0.077349,-0.187947,-0.979129
-0.174039,-0.535125,-0.969392,-0.164300,0.086134,0.982643
0.471711,0.595403,0.411778,-0.099738,-0.389092,0.915784
-0.167598,-0.583268,-0.968855,0.087763,-0.051682,-0.994800
0.632178,-0.227313,0.531255,0.949067,-0.196338,0.246419
-0.442546,-0.149362,0.476604,-0.182458,0.851966,-0.490777
0.166691,-0.181827,0.594545,0.811397,0.285094,0.510250
0.062695,-0.306704,0.233760,-0.213889,0.033726,0.976276
0.474371,0.113130,0.721692,0.469898,-0.605261,0.642538
0.172707,0.496788,0.751376,-0.388470,-0.809599,0.440046
0.530258,-0.269030,0.507437,0.954234,-0.227153,0.194521
0.208524,-0.053185,0.621543,0.085129,-0.996366,-0.002829
0.233593,-0.919834,0.169214,0.143656,-0.690953,0.708482
0.480547,0.128588,0.732393,0.578298,-0.551829,0.600879
0.364840,0.506205,0.426432,-0.134334,-0.050908,0.989628
-0.939488,0.508920,0.231826,-0.195920,-0.662936,0.722586
0.392676,0.437009,0.468106,0.280543,0.767246,0.576739
0.070680,-0.640499,0.094870,0.338105,-0.740217,0.581175
0.624193,-0.650914,0.232686,0.076976,-0.052125,0.995669
0.119004,0.113906,0.761271,0.462581,0.558243,0.688755
0.266379,0.245429,0.916298,0.612117,0.728584,-0.307372
-0.904518,-0.040665,0.294579,0.836555,0.375858,-0.398630
-0.135399,-0.329473,-0.972540,-0.157239,0.062166,0.985602
0.034648,0.163158,0.881522,-0.173200,0.212807,0.961621
0.193728,-0.080830,0.853514,-0.150181,0.760622,0.631585
-0.368995,-0.374127,-0.975398,0.063539,-0.057667,-0.996312
-0.744425,0.872523,0.068355,0.125671,-0.587747,-0.799225
0.067590,0.113740,0.613840,0.952044,-0.088148,-0.292988
0.108625,0.804600,0.661906,-0.640487,0.057538,-0.765810
-0.258717,-0.018393,-0.098318,0.790970,-0.575911,-0.206623
-0.035288,0.801718,-0.030388,0.290815,0.855764,-0.427896
-0.151047,0.180554,0.211887,-0.514404,-0.831486,-0.209809
0.151046,-0.524820,0.400573,-0.145631,0.040458,0.988511
-0.067542,-0.120775,0.390571,-0.159170,-0.525758,0.835610
0.607428,-0.501163,0.292537,0.897780,-0.249460,0.362988
0.064293,-0.349696,0.190701,-0.456392,-0.296797,0.838819
0.586937,-0.607258,0.394739,-0.156383,0.641482,0.751030
0.295170,-0.624987,0.400207,-0.137300,0.124952,0.982617
-0.199159,-0.510969,-0.970509,-0.122946,0.122608,0.984810
0.225182,0.184377,0.899732,0.708910,0.311114,-0.632973
-0.246739,0.311357,0.674916,0.847532,-0.108312,0.519575
-0.063920,-0.679724,-0.966545,-0.080439,0.058569,0.995037
0.625632,-0.065374,0.742417,0.402243,0.637101,0.657498
0.187182,-0.157839,0.238358,-0.311628,0.149260,0.938408
-0.036354,-0.720886,0.561960,0.241891,-0.050977,-0.968963
0.179837,0.631248,0.785541,-0.520851,-0.695231,0.495347
-0.253499,-0.898282,-0.966953,-0.137939,0.130196,0.981846
0.120336,0.585319,0.598821,0.129014,0.149730,0.980274
-0.350472,-0.192964,0.355977,-0.130182,0.169806,-0.976841
-0.691735,-0.144819,0.113144,-0.601688,0.624513,0.497951
0.133268,0.481995,0.483630,-0.057289,-0.705282,0.706609
-0.646390,0.386316,0.324810,-0.042235,-0.037728,0.998395
-0.330195,0.060388,0.249359,-0.760205,0.454910,-0.463838
0.542072,0.124432,0.787625,0.976117,0.124094,-0.178314
-0.324501,0.037174,0.142968,-0.166189,0.148212,-0.974892
-0.350846,0.215015,0.571790,-0.192306,0.052722,0.979918
-0.472672,0.285983,0.392311,0.268050,-0.865480,0.423194
0.098516,0.176289,-0.079592,0.624794,-0.091132,-0.775453
0.102664,0.118449,0.745908,-0.788876,0.556678,-0.260355
-0.255523,0.459446,0.700732,0.365170,-0.098017,0.925766
-0.673160,-0.045595,0.237520,-0.558994,-0.112286,0.821534
-0.762363,0.759224,0.339024,-0.106599,-0.369025,0.923286
-0.544895,0.651136,0.254678,0.253048,-0.155748,-0.954835
0.865079,-0.444985,0.280838,-0.264140,0.074502,-0.961603
-0.556284,-0.282272,0.357610,0.272853,-0.483600,0.831674
-0.106286,0.938559,0.447145,-0.416245,0.529528,0.739148
-0.903934,0.002326,0.334759,0.897385,0.095233,0.430850
-0.254831,-0.798448,-0.968425,-0.111144,0.009856,0.993755
0.394752,0.323823,0.626839,-0.738411,0.265046,-0.620081
0.387940,0.323935,0.315840,0.210852,-0.099251,0.972466
0.188459,-0.364155,0.505643,0.726658,0.187851,-0.660818
0.128690,0.597120,0.326895,0.281977,-0.105461,0.953607
0.165307,0.305152,0.884949,0.809195,-0.566101,-0.157267
-0.163767,-0.133297,0.500207,0.244529,0.969606,0.008399
-0.541277,0.782329,0.435134,0.726965,0.485885,-0.485220
0.098516,-0.633241,0.401905,0.078900,0.121149,0.989494
0.122304,-0.088865,0.282277,0.443453,0.477814,-0.758316
-0.144608,0.761662,0.458716,-0.196428,-0.085965,-0.976743
-0.187238,0.708587,0.189540,-0.044218,0.612463,0.789261
-0.388898,0.035512,-0.384501,-0.599154,0.785594,0.154458
0.080259,0.035237,0.772240,0.226082,0.559309,-0.797534
0.320294,-0.137008,0.398317,0.095788,-0.901263,0.422552
0.246739,-0.927757,0.215002,-0.162804,0.500404,0.850348
0.948587,0.043934,0.255967,0.209159,0.047803,0.976712
-0.371282,-0.741441,-0.972841,0.092894,-0.073676,-0.992946
-0.305926,-0.237728,0.606502,0.776880,0.599340,-0.193002
0.101387,0.446871,0.478666,-0.067353,-0.500210,0.863281
0.413752,0.569031,0.251390,-0.062533,-0.498346,-0.864720
-0.709140,-0.157119,-0.836142,0.978667,-0.139468,-0.150864
0.009580,0.150583,0.780824,0.394124,0.832044,-0.390344
-0.415669,-0.109584,-0.450723,0.983691,-0.176819,-0.032985
-0.622920,-0.091911,0.142893,-0.668364,0.586968,0.456900
0.268507,-0.850969,0.215335,-0.045514,0.619590,0.783605
-0.713662,-0.073075,-0.850645,0.843268,-0.533154,-0.068157
0.003619,0.840277,0.607770,-0.178439,-0.074986,0.981089
0.214060,-0.079114,0.700238,-0.021301,-0.365088,0.930729
-0.041356,0.232022,0.526238,0.852627,0.184970,-0.488685
-0.797969,-0.258338,0.231730,0.816453,-0.190871,-0.544952
0.389749,-0.168200,0.757070,0.805155,0.386103,-0.450168
0.020810,0.334571,0.406815,0.223864,0.334203,-0.915529
0.443608,-0.573131,0.214057,0.330487,-0.249677,-0.910187
0.771832,0.671692,0.329194,0.491879,0.127065,-0.861342
-0.330621,-0.221717,-0.095654,-0.292406,-0.596040,0.747820
-0.073181,-0.625761,0.416806,0.762617,0.237182,0.601798
-0.398426,-0.031911,0.219289,0.505062,-0.286885,-0.814008
-0.041249,0.372300,0.592826,-0.387385,0.529076,0.754991
-0.243283,0.918172,0.453527,0.211303,0.562582,0.799282
-0.279474,0.407867,0.118537,0.855129,0.517697,-0.027285
0.706583,0.090692,0.278732,0.575264,0.357210,0.735848
0.256959,-0.003436,0.904996,0.174770,-0.419901,0.890583
0.518069,0.461108,0.323188,0.062146,-0.429352,0.900997
0.403055,-0.040719,0.626388,-0.105429,-0.505810,0.856178
0.000318,-0.202659,0.667610,0.410275,0.081108,-0.908348
-0.178935,-0.360444,0.692632,-0.491610,-0.707294,-0.507991
0.130607,-0.711801,0.412885,0.221651,0.653755,0.723516
0.023522,-0.451192,0.065562,-0.002684,0.382097,0.924118
-0.200170,-0.462437,0.369052,0.406179,0.786052,-0.465983
0.193994,0.238061,0.952450,0.826745,0.309905,-0.469524
0.260152,0.349253,0.666353,0.014608,0.851535,0.524095
-0.006120,0.297784,0.772992,0.889844,0.031886,0.455150
0.089465,0.239502,0.527194,-0.016221,-0.338473,0.940836
-0.217789,0.251634,0.666944,0.841331,-0.197810,0.503024
0.167172,0.482937,0.623552,0.896326,0.412778,0.161906
-0.178457,0.882329,0.452227,0.085924,0.580098,0.810002
-0.026559,0.237730,0.879234,0.945728,-0.093416,0.311243
0.148704,0.300388,0.830147,0.501457,0.233756,-0.833006
-0.650808,-0.080443,-0.906951,-0.408462,0.902443,-0.136952
0.144978,-0.482716,-0.067130,-0.379361,-0.100316,0.919794
0.260948,0.279945,0.562089,0.647816,0.313348,0.694368
0.472455,-0.199500,0.475744,-0.473591,0.879608,-0.044729
0.232794,-0.248865,0.260640,0.428822,0.802556,-0.414748
-0.896855,0.488200,0.229409,0.293571,-0.680636,0.671231
-0.102719,0.682049,0.751065,-0.670034,0.714265,-0.202187
-0.425248,-0.306814,0.309018,-0.388182,0.233357,0.891549
0.233752,-0.747536,0.203732,0.027654,0.658055,0.752462
-0.396509,0.461663,-0.975494,-0.156951,-0.044303,0.986612
-0.938689,0.337508,0.319503,-0.103299,0.239957,-0.965272
-0.846507,0.563989,0.420480,-0.510243,-0.394901,-0.764006
-0.510140,-0.340056,0.142645,-0.152521,-0.078017,-0.985216
-0.514292,0.010638,-0.624443,0.218512,-0.975379,-0.029792
-0.372455,-0.007701,0.321996,0.511457,0.255381,-0.820483
0.317630,0.157674,0.621940,0.282409,-0.098894,0.954183
0.135077,0.164100,0.800023,0.373477,0.718217,0.587093
-0.202885,-0.589972,0.668631,-0.148023,-0.815059,-0.560150
0.165788,0.597286,0.779761,0.445507,0.512688,-0.733945
-0.350950,-0.328254,0.406363,-0.099710,-0.296366,-0.949855
-0.029061,0.579280,0.650056,-0.513185,-0.160440,0.843149
0.425781,0.372134,0.395717,0.156029,-0.367559,0.916818
-0.414018,0.185484,0.383824,0.468377,0.519031,-0.715003
-0.396457,-0.138005,0.364292,-0.495900,-0.139912,0.857034
0.098675,0.560998,0.767943,-0.751731,0.265611,0.603615
-0.262283,-0.593685,0.644856,0.195064,0.891674,0.408493
-0.174413,-0.675125,0.094762,-0.605143,0.435464,-0.666464
-0.835385,-0.103766,0.162682,0.869056,-0.301651,0.392108
0.200436,0.177839,0.960658,0.843665,-0.303070,-0.443145
-0.287137,-0.227424,0.616493,0.705039,0.074480,-0.705247
0.522858,-0.690360,0.305010,0.792677,-0.417331,-0.444407
-0.873226,0.265762,0.313584,0.190041,-0.269066,0.944186
0.320986,0.637507,0.608533,-0.108110,-0.130547,0.985530
-0.337966,-0.365318,0.541752,0.900019,0.423209,0.104212
-0.561073,-0.108864,-0.645715,0.972903,0.225430,-0.051398
-0.227314,-0.333573,0.095342,0.832338,-0.476857,0.282526
-0.003619,-0.038006,0.528559,0.218938,0.041801,0.974843
-0.490182,-0.718173,-0.975677,-0.078691,0.177326,0.981001
-0.207462,-0.006592,0.767771,0.206827,0.456058,0.865583
0.486933,0.404655,0.441527,0.330859,0.827917,0.452865
0.538239,-0.130526,0.799378,0.995301,-0.025088,0.093521
0.186812,-0.061994,0.736379,0.460567,0.857280,0.230107
-0.483581,-0.604598,-0.979351,0.078065,-0.134403,-0.987847
-0.218747,-0.043600,-0.042571,0.608135,0.275969,-0.744320
0.510777,-0.453740,0.296222,0.466800,0.104145,0.878209
0.167864,-0.960111,0.224725,-0.207304,0.324601,0.922854
0.047739,-0.695624,0.565838,0.124254,0.338650,0.932672
-0.795945,-0.162715,0.323940,0.081453,-0.351148,0.932770
0.174624,0.354461,0.822831,-0.043420,-0.700149,0.712675
-0.112887,0.684599,0.595501,0.595541,0.005719,-0.803304
0.212410,0.204654,0.843791,-0.596294,0.697907,-0.396685
0.317205,0.083546,0.755416,0.236921,-0.963485,-0.124761
0.309223,0.768090,0.336241,0.026767,0.398203,-0.916907
0.720526,0.026205,0.301239,0.324828,0.561122,0.761334
-0.132686,0.830471,0.460220,0.188154,0.377441,0.906717
0.144445,-0.453297,0.235887,0.329811,0.572342,-0.750766
0.005535,0.890472,0.117463,0.169035,-0.964261,0.204028
-0.346798,-0.406538,0.405944,0.296434,0.111810,0.948486
-0.235406,0.077784,-0.113982,0.875773,-0.361733,-0.319640
0.008303,-0.420832,0.181214,-0.771331,0.464676,0.434885
-0.188514,-0.170692,-0.980436,-0.181998,0.226725,0.956803
0.045079,0.452577,0.649218,-0.078039,-0.043366,0.996007
-0.227635,0.033740,-0.248135,0.943406,-0.319073,-0.090429
-0.177658,0.397231,0.333974,-0.609448,-0.399980,0.684535
0.193728,-0.336067,0.253173,0.748918,0.238149,-0.618391
-0.940709,0.028864,0.354741,0.991219,-0.128526,-0.031092
0.599713,-0.465761,0.486423,0.467684,-0.129381,-0.874375
-0.499388,0.557784,0.080162,0.440110,0.337482,-0.832111
0.624940,-0.528144,0.494040,-0.431066,0.448299,0.783078
0.238703,0.541108,0.323446,0.121738,-0.157682,0.979957
-0.743629,-0.233574,0.312939,-0.519964,0.233663,-0.821608
0.469317,-0.027036,0.704460,0.222879,-0.006556,-0.974824
0.249081,0.611302,0.714140,-0.459983,0.098098,-0.882492
0.013357,0.005153,0.738463,-0.853321,0.013896,-0.521200
0.393901,-0.154847,0.590677,0.652925,0.756315,0.040949
0.154503,0.438948,0.604880,0.514730,-0.459108,-0.724067
0.306241,-0.666039,-0.060770,0.046151,-0.344216,0.937755
0.180955,-0.083324,0.364668,0.481348,0.683830,-0.548343
-0.075682,0.062050,0.716138,0.825073,0.283024,-0.489031
-0.921339,0.417951,0.216721,-0.292688,-0.607286,0.738605
