0.049615,0.122907,0.849376,0.871968,-0.379652,-0.309089
0.003544,-0.313968,0.286379,-0.013552,-0.318842,0.947711
-0.482110,-0.542668,0.588528,0.834488,-0.144695,0.531689
0.548216,-0.598886,0.657523,0.848609,-0.131575,-0.512397
0.066994,-0.467736,0.588599,-0.764123,0.552830,0.332408
-0.269406,-0.810960,0.605347,0.691537,0.530983,0.489729
-0.392082,0.788555,0.445638,0.987959,0.151684,0.030482
0.117426,0.680778,0.079932,-0.150110,-0.112940,0.982197
-0.499693,0.290451,0.691611,0.198238,0.293150,0.935289
0.325972,-0.109479,0.929837,0.504154,-0.511126,-0.696117
0.737613,-0.870867,0.706726,-0.769267,0.378022,0.515100
0.550057,-0.583929,-0.969588,0.574334,0.180324,-0.798513
-0.574116,0.263106,0.422565,0.789880,0.219727,-0.572547
0.529612,-0.501756,0.832290,-0.105572,-0.360672,0.926699
-0.024536,-0.102315,0.859321,0.910746,-0.142415,0.387633
-0.574593,0.293580,0.435045,-0.468790,-0.039397,0.882431
0.533019,0.383266,0.900749,-0.144809,-0.860742,0.488010
0.255638,0.218576,0.897833,-0.505625,0.673754,0.538887
0.598582,-0.656916,0.801216,-0.687824,0.593733,0.417587
0.096571,-0.308261,0.613954,-0.086355,0.147805,0.985239
0.033257,-0.765733,0.718967,0.238849,0.932315,-0.271552
0.084712,0.291771,0.499391,0.311817,-0.911429,-0.268452
0.432290,-0.453611,0.852419,0.287088,0.726281,0.624577
0.511551,-0.055907,0.908722,0.282839,0.210756,-0.935726
-0.255230,0.439831,0.725249,0.920954,-0.387337,-0.042593
0.731070,-0.235902,0.850222,-0.068616,-0.434616,0.897998
0.292168,-0.192068,0.366431,0.826805,0.366778,0.426460
0.265521,0.363646,0.845320,-0.571368,-0.802199,0.173247
0.212294,0.333380,0.492742,0.397639,-0.133307,0.907807
0.245416,0.418335,0.788003,0.276290,0.961011,-0.011055
0.311523,0.526875,0.735588,0.160360,0.871984,0.462524
-0.019561,-0.324823,0.836178,-0.198861,-0.069147,-0.977585
-0.313025,0.353000,0.699668,-0.088764,0.790043,0.606591
0.154570,0.452287,0.738307,0.010780,0.923093,0.384427
0.394942,0.045261,0.958883,0.615907,0.620186,-0.485827
-0.082874,-0.390434,0.842221,0.831156,0.079833,0.550279
0.289169,-0.383198,0.858758,0.571677,0.820350,-0.014558
-0.064405,-0.641331,0.571723,0.360654,0.406988,0.839219
0.088121,0.865368,0.690231,0.407395,-0.880077,0.243912
-0.272133,-0.421672,0.715980,0.409430,0.593921,0.692550
0.336126,0.027238,0.931654,-0.618064,-0.758237,0.207544
0.162338,0.760098,0.520365,0.379657,-0.040477,0.924241
0.202207,-0.177387,0.626040,-0.673235,0.150526,-0.723945
0.255913,-0.007967,0.234317,0.092041,-0.611005,-0.786258
0.816056,-0.591165,-0.955558,-0.343142,-0.151599,0.926969
-0.419001,0.284743,0.654832,-0.581184,0.752474,0.309851
0.060178,-0.181702,0.623476,-0.161721,0.456071,0.875126
-0.021400,0.005877,0.650000,0.510393,0.326415,0.795583
-0.157365,-0.197007,0.296691,-0.297511,-0.140882,-0.944267
0.448373,-0.195062,-0.023249,0.994441,0.048504,-0.093457
-0.158386,0.517201,0.692597,0.554828,-0.831483,-0.028309
0.379403,0.338251,0.771480,0.306185,0.797317,0.520131
0.264022,-0.462237,0.881394,0.125871,0.691523,0.711304
0.399168,-0.042687,0.189030,-0.194737,-0.979321,-0.054846
0.559189,-0.208630,0.719685,0.871434,0.408687,0.271252
0.544606,-0.319328,-0.568103,0.798205,-0.602302,0.010035
0.613030,-0.454792,0.759323,-0.082671,-0.965987,0.245019
-0.138827,-0.131120,0.759112,0.456020,0.589667,0.666587
-0.379200,-0.572102,0.582443,0.296224,-0.094183,0.950463
-0.436722,0.426752,0.430791,-0.444909,0.311140,0.839790
0.405233,0.018541,0.348852,0.931990,-0.051227,0.358845
0.650037,-0.561944,-0.933330,-0.189622,-0.965518,-0.178378
0.077830,-0.008175,0.895805,0.164339,-0.326354,0.930852
0.171743,-0.084920,0.925555,0.266819,-0.182627,-0.946285
0.287876,0.563889,0.804258,0.666225,-0.182648,0.723038
-0.154162,0.611829,0.497574,0.493109,0.869946,0.006090
-0.428338,0.016804,0.566962,-0.548656,-0.133995,0.825241
0.372725,-0.068571,0.855293,0.877610,0.428853,-0.214212
0.701083,-0.656496,-0.960122,0.231806,0.146117,-0.961725
0.723982,-0.053958,0.690864,-0.243270,0.214279,0.945994
0.560620,-0.563821,0.823683,0.006513,-0.901287,0.433173
0.501873,-0.528404,-0.974645,0.592930,0.028400,-0.804753
-0.020992,0.848390,0.705585,0.887750,-0.430715,0.162435
0.242144,0.730876,0.526943,0.392526,-0.019652,0.919531
0.054452,-0.274309,0.636238,-0.205376,0.089038,0.974625
0.673277,0.063348,-0.397167,0.705919,0.068109,0.705010
-0.123356,0.008451,0.572611,-0.171455,0.595166,-0.785099
0.586656,-0.407272,-0.963827,-0.623553,0.665116,0.410856
-0.148505,-0.224980,0.516181,0.468573,-0.716195,-0.517208
0.456485,-0.302142,-0.413803,0.854579,-0.515983,-0.058797
0.621277,-0.902870,0.669524,-0.394241,-0.833742,0.386585
-0.214817,0.343122,0.806188,0.923055,0.007816,0.384589
-0.008315,0.758008,0.674863,-0.432304,0.635664,0.639566
0.483745,-0.691076,0.788933,0.799948,-0.193915,0.567873
0.123083,0.065157,0.840601,-0.158132,-0.106755,-0.981630
-0.317727,0.090276,0.722404,0.991323,-0.014828,-0.130611
-0.084442,-0.187129,0.621631,-0.378166,0.354458,0.855190
0.279357,0.420628,0.827078,0.276798,-0.841168,0.464564
0.352347,0.709864,0.778382,-0.130501,-0.827295,0.546400
-0.525729,-0.500019,0.570639,-0.223405,-0.589527,-0.776240
0.547264,-0.519707,-0.839601,0.991249,0.070355,0.111694
0.361616,0.497649,0.770184,0.936242,-0.088608,0.340000
0.119608,0.582676,0.692484,-0.070411,-0.512284,0.855925
-0.065291,0.721275,0.679384,0.872951,-0.204684,0.442787
0.174060,-0.432599,0.533493,-0.234021,0.972142,-0.013172
0.334832,0.600555,0.800779,0.915723,-0.156452,0.370101
0.513936,-0.406087,-0.561708,0.998775,0.023692,-0.043435
-0.067266,-0.196731,0.679229,0.296256,0.588360,0.752372
-0.439174,0.270691,0.710557,0.972248,-0.012611,0.233613
0.575751,-0.028839,-0.668890,0.970813,-0.041552,-0.236209
-0.128944,-0.711044,0.715572,0.203926,0.703763,0.680538
0.308321,-0.633538,0.424804,0.304330,-0.552139,0.776225
0.015811,-0.350358,0.732461,0.465926,-0.155975,-0.870968
0.005655,-0.900573,0.545664,0.072071,0.804780,0.589182
0.501669,-0.493755,-0.973532,0.774897,-0.109285,-0.622569
0.011040,-0.371647,0.283492,0.057305,-0.082302,-0.994959
0.669868,-0.285788,-0.968658,0.470130,-0.308903,-0.826775
0.421591,0.687734,0.794792,0.632811,-0.636590,0.440799
0.537449,0.340684,0.888015,-0.754592,-0.325012,0.570051
0.506917,-0.353072,0.843460,0.767312,0.629082,-0.124451
0.105773,0.128823,0.840939,0.050833,0.217246,-0.974792
0.322565,0.076219,0.878746,0.847856,-0.506588,0.156553
0.160021,-0.248498,0.290169,-0.055677,-0.589024,0.806195
0.092073,-0.065857,0.392138,0.161800,0.691710,0.703816
0.640428,0.645153,0.697823,-0.379564,-0.139205,0.914633
0.543720,-0.495913,0.668904,-0.752184,-0.046721,0.657295
0.076603,-0.671389,0.750308,-0.538465,0.416574,-0.732477
0.026510,-0.787998,0.760169,0.488197,0.861908,0.137034
-0.008929,-0.340060,0.650282,0.330275,-0.205289,-0.921290
-0.021264,0.302906,0.054323,-0.149833,0.130128,-0.980111
0.307913,0.128402,0.945148,-0.748295,-0.648713,-0.138658
0.428132,0.049992,0.891649,-0.513964,0.689052,0.510930
-0.181764,-0.237919,0.855941,-0.760045,-0.410896,-0.503484
0.306958,-0.363926,0.397717,-0.059154,0.035144,-0.997630
0.026171,0.086658,0.896481,-0.327320,-0.679723,0.656383
-0.313160,0.935918,0.538494,0.030576,-0.908017,0.417817
0.123014,0.353280,0.064634,0.253738,-0.352520,0.900748
0.184079,0.230335,0.864857,-0.412076,0.764994,0.494952
0.314932,0.080606,0.908693,0.083732,0.334758,0.938577
0.756968,-0.729764,0.689611,-0.365193,0.423778,0.828883
-0.308117,0.140374,0.707853,0.799977,0.588952,0.114771
0.200572,-0.648495,0.743941,0.325426,0.848755,-0.416789
0.876031,0.635484,0.441581,0.476461,0.607771,0.635295
0.162883,-0.263663,0.875675,0.800414,0.216300,-0.559063
-0.205277,-0.887285,0.613940,0.493978,0.326383,0.805891
0.215770,0.396209,0.861054,0.615595,0.662209,0.427226
0.258637,-0.308890,0.887240,0.839974,-0.216357,0.497628
-0.220405,0.595616,0.724291,-0.453931,0.403226,-0.794579
0.230490,0.052149,0.898636,-0.386919,0.050103,-0.920752
-0.021127,-0.619414,0.766043,-0.609049,-0.692190,-0.387211
-0.548900,-0.095915,0.430171,-0.042628,0.046847,0.997992
0.610917,0.426684,0.701035,-0.383289,0.161126,-0.909466
0.631023,-0.441712,-0.806273,0.730106,-0.656564,0.189392
-0.148981,0.430786,0.750097,0.326347,0.730102,0.600374
0.464935,-0.380276,0.847756,-0.471283,0.047327,0.880712
0.321883,0.022091,0.939063,0.664218,0.745622,-0.053506
0.772507,-0.138424,0.575823,-0.111599,0.478468,-0.870985
0.182579,-0.717376,0.431087,0.707831,-0.050821,0.704551
-0.257616,-0.534599,0.718389,-0.395002,-0.132725,-0.909042
-0.421318,0.008731,0.294197,0.453448,0.199024,0.868778
-0.365639,0.644321,0.629801,-0.185963,0.605700,-0.773658
-0.383494,0.309654,0.576794,0.937565,-0.174043,-0.301131
0.714169,0.238127,0.544749,0.836831,0.291249,0.463560
0.500579,-0.603200,0.826557,0.724979,-0.688366,0.023595
0.355483,-0.603272,0.771621,0.389514,-0.367977,0.844317
0.489469,-0.103636,0.155702,0.904199,-0.423981,0.051625
-0.179582,0.027446,0.666101,0.089648,-0.089432,-0.991950
0.205547,0.068915,0.213357,-0.656645,-0.339439,0.673498
-0.384994,-0.078449,0.429664,-0.143379,0.376216,0.915371
-0.179172,0.382153,0.722826,0.112173,-0.107079,0.987902
0.885026,0.450061,0.434270,-0.485006,0.762225,-0.428698
0.398417,0.075107,0.970616,-0.448786,0.889190,0.089063
0.390035,-0.752861,0.775339,0.905373,-0.042920,-0.422443
0.174811,0.543293,0.853546,0.562929,0.802267,0.198691
0.392421,-0.096607,0.122923,0.952345,-0.302528,0.038947
0.021603,0.293788,0.489361,0.662372,0.523704,-0.535721
-0.170722,-0.461056,0.701626,0.933633,0.015275,-0.357905
0.531247,0.304155,0.687977,-0.397461,0.426928,-0.812254
0.692087,0.589981,-0.479205,0.970439,-0.241311,0.004162
0.132555,0.090556,0.371798,0.278142,0.389420,0.878060
0.460095,-0.043868,0.905411,-0.133006,-0.379782,0.915465
0.132830,0.014439,0.370502,-0.049268,0.480500,0.875610
0.358686,0.203271,0.895664,0.494877,-0.414476,-0.763745
-0.153821,-0.340684,0.869196,0.764158,0.223206,0.605179
0.366251,0.564861,0.770592,0.916135,-0.361800,0.172618
-0.437129,-0.493407,0.588303,-0.722783,0.399927,-0.563598
-0.090779,-0.909898,0.585936,0.456229,0.079656,0.886290
-0.141827,-0.293512,0.855898,0.493776,0.390856,0.776799
-0.766920,-0.476569,0.627801,-0.473839,-0.829057,-0.296886
-0.086896,-0.157560,0.862702,0.939577,0.090801,0.330077
-0.183126,0.053746,0.801526,-0.734385,0.548696,-0.399515
0.471409,-0.325868,-0.404253,0.929859,-0.353398,-0.102337
0.352006,0.560339,0.785298,0.682769,-0.583500,0.439721
0.460981,-0.152897,-0.100512,0.928459,-0.370874,-0.020424
-0.124448,-0.262550,0.838248,0.979569,-0.095721,-0.176868
0.236761,-0.199376,0.397773,-0.002049,0.096339,0.995346
-0.491719,-0.442337,0.575076,-0.286984,-0.499023,-0.817689
-0.425544,0.315846,0.582415,0.793897,0.471313,-0.384177
-0.130716,0.512122,0.697006,0.484858,0.816166,0.314302
0.566754,0.503565,0.386546,0.531703,0.528358,0.661914
0.233217,0.629152,0.798004,0.160874,-0.965907,0.202835
-0.064405,0.164095,0.817739,-0.368366,0.925221,-0.090957
-0.186601,0.078589,0.015178,-0.504653,-0.068055,0.860636
0.154842,-0.110316,0.913609,0.249895,-0.908146,0.335892
-0.059567,0.946840,0.556862,0.064667,-0.555916,0.828719
0.225175,-0.476433,0.402844,0.170305,0.329025,0.928837
0.369112,-0.173977,0.908989,0.915750,-0.391837,-0.088684
-0.009542,-0.594227,0.660903,-0.272121,0.451131,-0.849959
0.062699,-0.587687,0.834586,0.913099,0.201193,0.354644
-0.220337,0.084640,0.790341,0.932086,-0.267749,0.243978
0.287603,-0.456185,0.884606,-0.181684,-0.941421,-0.284109
-0.040347,-0.497862,0.655917,-0.198161,0.592968,0.780462
0.520411,0.186225,0.435820,0.965948,0.197349,0.167326
0.612962,0.237503,0.880282,0.954027,0.277166,-0.114071
0.003748,0.119985,0.296014,0.340744,-0.314694,0.885924
0.614257,-0.140722,0.700176,0.134136,0.520131,0.843488
0.477815,0.310418,0.878648,-0.196922,0.298592,0.933844
0.004838,0.349522,0.773198,0.121616,-0.470365,0.874052
-0.017448,-0.043800,0.863928,-0.368361,-0.094885,-0.924828
-0.106251,-0.062031,0.664833,-0.209766,0.469854,0.857459
-0.475908,-0.588451,0.596304,0.296291,-0.544587,0.784625
0.141280,0.065229,0.919061,-0.725722,-0.428701,-0.538091
0.688134,-0.077476,0.697330,-0.109757,0.261786,0.958865
-0.355551,0.776307,0.673313,-0.717046,-0.616814,0.324632
-0.203504,-0.472535,0.704091,0.979658,-0.004178,-0.200633
-0.561984,-0.698173,0.605122,-0.555881,0.558239,-0.615926
0.376814,-0.851244,0.759337,0.052432,-0.793582,0.606200
-0.346284,-0.035451,0.749759,-0.299204,-0.566749,0.767641
0.475636,-0.588868,0.840206,-0.508118,0.436419,0.742533
0.301711,0.333520,0.734701,0.167392,-0.874851,0.454550
-0.022968,-0.244531,0.235007,-0.534464,0.844411,-0.036303
0.159067,0.167021,0.539889,-0.663386,-0.119714,-0.738639
0.697335,-0.044216,0.838939,-0.381094,-0.274927,0.882713
0.080419,-0.591997,0.802850,-0.249704,0.966645,-0.056962
0.563757,-0.543921,-0.861406,0.769623,0.638493,0.002664
0.203502,-0.060986,0.919300,-0.196970,0.529163,0.825342
0.505076,0.310835,0.870224,-0.020338,-0.880194,0.474178
0.266204,0.179056,0.837206,0.325920,-0.900380,-0.288257
-0.118314,0.597841,0.535043,0.161603,0.834519,-0.526746
-0.045322,0.570917,0.557510,0.948981,0.311526,-0.048847
-0.007360,-0.220457,0.854546,0.916396,0.342860,0.206556
0.793975,0.168274,0.406929,0.381135,0.543574,-0.747839
0.296940,0.242302,0.900833,-0.470327,0.876391,-0.103596
0.714645,-0.767682,0.695175,0.314808,-0.616141,-0.721988
0.529680,-0.399271,-0.432805,0.637865,-0.768045,0.056872
0.192529,-0.421324,0.258418,0.906290,0.021265,-0.422121
0.759899,0.205776,0.854997,0.009929,-0.606010,0.795395
0.529408,-0.097652,0.884155,-0.053546,-0.907489,0.416650
-0.320862,0.342561,0.684455,0.919879,-0.086996,0.382432
0.538403,-0.399755,-0.694907,0.864892,-0.501958,0.000206
-0.127378,0.772273,0.539691,-0.124817,0.083515,0.988659
0.124787,0.468708,0.645098,0.482479,0.575345,-0.660448
0.498329,-0.276606,-0.210708,0.997706,-0.031162,-0.060103
0.031759,0.141970,0.891283,-0.731790,-0.198864,-0.651872
0.612144,-0.353768,0.841868,0.909896,0.060322,0.410427
-0.368024,0.678065,0.651733,0.551533,0.353673,-0.755465
0.096434,0.932372,0.690019,-0.171681,0.202097,0.964200
-0.343488,-0.008803,0.732208,0.749580,-0.656626,0.083500
0.544333,-0.338251,0.465063,-0.596636,0.038068,0.801609
0.351394,0.623168,0.799540,0.924578,-0.037287,0.379163
-0.067131,-0.542320,0.715600,-0.210384,-0.859458,0.465909
0.536766,-0.489653,-0.734039,0.899631,0.424616,0.101808
0.630886,-0.426751,-0.838121,0.956989,-0.289580,-0.017740
0.261295,0.535988,0.711909,0.471031,0.236044,-0.849949
0.018059,0.816315,0.679539,-0.533241,0.757601,-0.376424
0.203844,0.441848,0.832769,0.792697,0.176533,0.583496
0.327744,0.489093,0.489009,-0.477743,-0.756732,-0.446227
0.476998,0.125205,0.871323,-0.107363,-0.646807,0.755059
0.525386,-0.412143,-0.974927,-0.579964,0.360495,0.730538
0.046888,0.075038,0.889437,-0.270157,0.928858,-0.253451
0.635112,-0.027586,0.831346,-0.442894,0.462209,0.768250
-0.013018,-0.163471,0.849940,-0.713816,0.235866,-0.659419
0.568798,-0.895358,0.674130,0.668003,0.385838,-0.636318
-0.214068,0.409845,0.662368,-0.342416,-0.092794,0.934955
-0.220950,-0.088679,0.750266,-0.317552,-0.862263,0.394541
-0.066039,-0.478798,0.819964,0.394889,-0.304966,0.866636
-0.706401,-0.534043,0.621743,0.514632,-0.102629,0.851247
-0.333062,0.126873,0.582556,-0.569186,-0.195497,0.798629
-0.227221,0.335673,0.794384,0.917102,-0.262810,0.299759
-0.030056,-0.754742,0.574146,-0.203621,-0.199876,0.958430
-0.212976,0.092501,0.812118,0.994705,0.023371,0.100083
-0.070879,-0.584417,0.471359,0.891550,0.363184,-0.270623
-0.057726,0.749175,0.541058,-0.405531,-0.106633,-0.907840
0.081168,0.506975,0.513519,-0.125517,-0.012811,0.992009
0.288489,0.440252,0.748970,0.469466,-0.500794,0.727191
0.486472,-0.172516,0.845404,0.217032,0.481681,0.849047
-0.241056,-0.042615,0.666115,-0.248516,0.242663,0.937739
0.484700,0.678969,0.721432,-0.622656,0.598056,-0.504607
-0.124992,-0.376798,0.864913,0.732639,0.025440,0.680142
-0.031487,-0.497862,0.300466,-0.491355,-0.677469,-0.547363
-0.409392,0.708819,0.414761,0.835207,-0.386109,-0.391598
-0.075172,0.406784,0.798694,-0.687598,-0.572215,0.446967
0.043344,-0.010612,0.455090,-0.234429,-0.253981,-0.938369
0.584133,-0.893200,0.675609,0.720074,0.251077,-0.646880
0.354187,-0.495148,-0.987463,0.450412,-0.156526,-0.878993
0.719483,-0.184347,0.849207,0.658258,-0.250410,-0.709923
0.436516,0.255938,0.871576,0.197214,-0.350686,0.915492
-0.063450,0.385007,0.766409,-0.466784,0.728440,-0.501486
-0.052341,-0.347088,0.284830,0.594764,0.576338,0.560437
0.320249,0.008939,0.954544,0.839523,0.416504,-0.348893
-0.177265,0.004000,0.661565,0.261013,-0.381038,-0.886951
-0.171132,0.161662,0.791116,0.494678,-0.860522,-0.121637
0.549308,-0.823623,-0.969306,-0.310279,0.182091,0.933043
0.564437,-0.229643,-0.386673,0.731984,-0.678492,0.062033
0.130307,0.320436,0.048731,0.345626,-0.367101,0.863585
-0.243032,0.380412,0.752125,-0.653643,0.414150,0.633427
0.255093,0.055975,0.378151,0.056227,0.618287,0.783939
0.894841,0.402469,0.434609,-0.503692,0.630089,-0.591001
-0.023309,0.096327,0.906271,0.899775,0.416002,-0.131708
0.285080,-0.031344,0.467457,0.428670,-0.696591,0.575328
-0.493083,0.192900,0.698372,0.163740,0.102903,0.981122
0.307435,0.720854,0.781932,0.957948,-0.243459,0.151863
0.383357,-0.031137,0.848419,-0.726335,-0.454828,-0.515334
-0.019355,-0.120614,0.777762,0.818211,0.394813,0.417915
-0.130308,-0.352027,0.766029,0.823005,0.310617,0.475584
0.042527,0.089303,0.056408,-0.011460,-0.213778,0.976815
-0.010156,0.851520,0.689160,0.872007,-0.426870,0.239554
0.545833,-0.546359,-0.901199,0.921011,0.368836,0.125292
0.292372,-0.117344,0.275237,-0.249796,0.675429,0.693828
0.845771,-0.046441,0.927428,0.481935,0.872441,-0.081144
-0.362367,0.344583,0.697570,-0.392601,0.184163,-0.901082
0.571729,-0.775475,-0.972292,0.233183,-0.109108,-0.966292
0.469706,-0.083600,0.001810,0.992218,0.096935,0.078147
0.348668,0.454652,0.757408,0.290827,0.617447,-0.730876
0.381040,0.744720,0.801540,-0.546277,0.764207,0.342883
0.545695,-0.502104,-0.849095,0.982399,0.184905,0.026516
0.272541,0.543849,0.807217,0.549225,-0.485857,0.679923
0.028760,-0.276050,0.644155,0.002744,0.189594,0.981859
0.603284,-0.756619,-0.968954,-0.208750,0.071096,0.975381
0.169561,-0.066341,0.813907,0.097368,0.897150,0.430861
0.006747,-0.603621,0.760436,-0.337023,0.524525,-0.781850
0.622980,0.388693,0.293225,0.448688,-0.311385,-0.837686
0.326109,0.321897,0.911299,-0.440177,0.307847,-0.843490
0.519048,-0.379439,-0.463217,-0.796884,0.602815,0.039881
0.416069,-0.159161,0.108584,0.958619,-0.258889,0.118429
0.661555,-0.956166,-0.963644,-0.294174,0.056936,0.954055
0.112382,-0.139885,0.251544,0.706029,0.706104,0.054227
0.398078,0.060774,0.875534,-0.330419,0.545966,-0.769899
0.267225,0.654479,0.746970,0.223217,0.901588,-0.370557
-0.016972,0.824804,0.708669,-0.606632,0.734746,-0.303554
-0.392286,0.513655,0.589486,0.186530,0.093740,0.977967
0.058406,-0.195410,0.873407,-0.031612,-0.542660,0.839358
-0.069517,-0.149907,0.585458,0.287090,-0.434430,0.853727
0.499897,-0.968621,-0.973236,0.354773,-0.008503,-0.934914
0.432017,-0.082695,0.396872,-0.140156,-0.670320,0.728716
0.267635,0.034266,0.301283,0.157252,0.701547,0.695057
0.689020,-0.097444,0.839417,-0.085114,0.213332,0.973265
0.601649,0.150111,0.397562,0.302359,-0.299913,-0.904782
0.219927,-0.124508,0.891241,0.522777,0.476843,0.706629
-0.140531,0.436701,0.722530,0.768377,0.196094,0.609215
-0.127378,-0.352307,0.854180,0.920750,0.157376,0.357005
0.248483,-0.182538,0.620349,-0.273661,0.168206,-0.947004
0.212704,-0.597845,0.676609,0.004981,-0.999966,0.006557
-0.075309,0.341797,0.758084,-0.086550,0.994456,0.059718
0.096026,0.264079,0.826782,0.335602,-0.387144,0.858773
0.080216,0.134250,0.838910,-0.677813,0.155209,0.718665
0.500442,-0.222266,0.855405,0.915249,-0.326829,-0.235587
0.522592,-0.172168,-0.229401,0.873764,-0.471993,0.117300
-0.117222,0.924927,0.553890,-0.004353,-0.544154,0.838974
0.429632,-0.024457,0.658790,0.711242,-0.702808,0.014000
0.370408,-0.310559,0.750350,0.360494,-0.432869,-0.826237
-0.080694,-0.557001,0.823528,-0.289917,0.416138,0.861845
-0.147413,0.222474,0.739842,0.831744,0.530657,0.163110
0.441491,-0.767266,0.804850,0.770381,0.616801,-0.161462
0.556600,-0.449785,0.848137,0.796884,0.437434,-0.416686
-0.008043,0.011585,0.856701,-0.762996,0.109692,-0.637029
0.248074,-0.134598,0.885733,-0.566252,-0.424763,-0.706354
0.585429,-0.366568,0.464570,-0.635185,0.066224,0.769516
0.590472,0.506419,0.395886,-0.622408,-0.463766,-0.630500
-0.303551,-0.069684,0.722474,-0.550896,-0.824355,-0.130201
0.245961,0.329690,0.823092,0.905461,0.084664,0.415899
-0.129830,-0.389113,0.437581,-0.244349,-0.009298,-0.969643
0.414979,-0.138216,0.314143,0.983445,-0.069573,-0.167316
-0.651129,-0.506975,0.618940,-0.360988,0.393186,-0.845632
0.512233,-0.163055,-0.202172,0.875809,-0.482633,0.004940
-0.106523,-0.399339,0.814513,-0.608853,-0.793231,-0.009110
0.458119,0.840041,0.349612,-0.351433,0.271687,0.895925
0.324541,-0.080606,0.276618,0.926624,-0.370055,0.066532
0.074149,-0.308890,0.463133,0.205892,-0.750986,0.627398
0.495467,-0.302838,-0.339569,0.978051,-0.144129,0.150475
0.614802,-0.703184,-0.967982,-0.135108,-0.176469,0.974990
0.005247,-0.676396,0.759647,0.936483,0.096992,0.337034
-0.303210,-0.166117,0.273124,-0.619112,0.509058,-0.597964
0.742520,-0.203063,0.493545,0.478153,0.170819,-0.861505
-0.157638,0.012697,0.587486,0.657389,0.648771,0.383322
-0.118314,0.091736,0.821641,0.118511,-0.293108,0.948706
0.341307,-0.064880,0.338498,0.910708,-0.388706,0.139707
0.245621,-0.893269,0.414761,0.051955,0.023327,0.998377
0.111293,-0.326076,0.681610,0.454971,-0.883393,0.112329
-0.297690,0.348477,0.771635,-0.587357,-0.795750,-0.147629
0.260682,0.603757,0.822472,0.930665,-0.228823,0.285487
0.734545,-0.533067,-0.955798,0.200024,-0.129168,0.971239
0.316704,-0.778745,0.747181,0.662794,0.462407,-0.588969
0.710078,-0.865997,0.699964,-0.678818,0.258996,0.687115
0.364547,-0.426267,-0.989858,-0.337128,0.130411,0.932383
0.036870,-0.666518,0.810724,0.303743,0.861807,-0.406237
0.765350,0.001079,0.696752,-0.271466,0.210123,0.939231
0.195732,0.329830,0.837657,0.356884,-0.631591,0.688278
0.606828,-0.308333,0.725052,0.227437,0.000281,0.973793
0.302869,0.258376,0.893170,0.480292,-0.615245,-0.625134
0.777685,0.127570,0.863787,0.883547,-0.039642,0.466662
0.055339,0.360304,0.896495,0.311482,-0.660028,0.683624
-0.001568,-0.606542,0.502842,0.988311,0.037168,-0.147849
0.495263,-0.255734,-0.296831,0.902579,-0.428131,-0.045331
0.528247,-0.463005,-0.694527,0.890126,0.271315,-0.366148
-0.475636,-0.077056,0.426171,0.036839,0.140947,0.989332
-0.390445,0.768722,0.659664,0.052015,-0.818879,0.571604
0.002658,0.192900,0.818218,-0.165128,0.412471,0.895880
0.625366,-0.162010,-0.664875,0.904244,0.007613,0.426947
0.248618,-0.308957,0.853025,0.973026,-0.193844,0.125078
0.107611,0.301653,0.900664,-0.590101,0.497142,-0.636106
-0.007839,-0.213080,0.442328,0.884413,0.419097,0.205357
0.658215,0.277090,0.864885,0.164389,-0.906395,0.389134
-0.074286,0.404346,0.705035,0.517108,0.599404,0.610995
0.046753,0.411026,0.690752,0.006231,0.326744,0.945092
-0.344578,0.438859,0.724643,0.191640,0.807396,0.558019
-0.022899,0.110524,0.379588,-0.535679,0.724677,0.433464
0.049070,0.574115,0.695302,0.455562,0.048072,-0.888905
0.436857,-0.094450,-0.031532,-0.819754,0.572489,-0.016111
0.100184,0.260461,0.813457,0.821131,-0.271769,-0.501883
-0.221701,-0.441088,0.684329,0.936775,0.299983,0.180173
0.504055,0.185320,0.833276,-0.763612,0.507213,-0.399540
0.805221,-0.211760,-0.964982,0.251186,-0.212431,-0.944340
0.209840,0.228110,0.291112,0.018345,0.341434,0.939727
0.224698,-0.071560,0.380743,0.111206,-0.468459,-0.876458
0.722551,-0.468428,-0.960038,0.353352,-0.000723,0.935490
0.586383,0.303250,0.881028,0.348598,0.590679,-0.727721
0.291147,-0.507672,0.871914,0.100551,0.944062,0.314063
0.782933,-0.943783,-0.950205,-0.387382,0.169775,0.906152
-0.047163,0.025429,0.699964,0.317849,-0.852636,0.414710
-0.228652,0.121378,0.825388,0.728876,-0.594031,0.340394
0.356914,-0.019450,0.764310,0.997112,-0.070034,-0.029390
-0.300825,-0.152689,0.574653,0.170600,-0.034647,0.984731
-0.163975,-0.301165,0.843700,-0.695919,0.536898,-0.476904
0.371974,-0.336094,0.828402,0.476211,-0.571870,-0.667973
0.021331,-0.339504,0.723094,-0.130214,-0.308616,0.942232
0.459484,0.215306,0.386828,0.010338,0.360593,0.932666
-0.023240,0.314873,0.062339,0.123639,-0.093853,0.987879
0.051249,-0.384590,0.285985,0.142970,0.235914,0.961199
0.424384,-0.792869,0.803005,0.968275,0.207310,0.139518
0.593197,0.031761,0.862237,0.437036,0.455487,-0.775584
0.013494,-0.416037,0.830825,-0.382832,0.663590,-0.642720
0.151161,-0.219064,0.533282,0.372472,-0.132013,0.918606
0.749131,0.171264,0.852264,0.570803,0.443414,-0.691062
0.741837,-0.649888,-0.962305,0.246038,0.105716,-0.963478
-0.324816,0.123744,0.688625,0.831256,0.550681,0.075916
-0.588292,0.013322,0.416987,0.029828,0.070008,0.997100
-0.159476,0.197704,0.718361,-0.692487,-0.190974,0.695695
0.440332,-0.132025,0.574991,-0.503325,0.439664,-0.743881
0.069583,0.553383,0.685455,0.105531,-0.696435,0.709818
0.415320,-0.159088,0.346034,0.523461,0.785071,0.331137
0.627683,-0.340476,-0.971335,-0.589240,0.574914,0.567689
0.374087,0.321341,0.831783,0.932633,0.024157,0.360016
0.409118,-0.922282,-0.982322,0.385946,-0.057272,-0.920742
-0.183602,-0.068779,0.398365,-0.179257,-0.535002,-0.825615
-0.207660,-0.095146,0.292324,0.136504,0.583459,0.800589
-0.556396,0.136335,0.415691,-0.074019,0.356700,0.931282
0.528657,-0.160133,-0.223076,0.911380,-0.408232,0.052284
-0.384925,-0.156583,0.572738,-0.476035,-0.013163,0.879328
0.069583,0.326700,0.903214,0.648294,0.322206,0.689854
-0.297759,0.339083,0.757915,0.800934,0.547275,0.242889
-0.215020,-0.109967,0.487558,-0.615700,0.740730,0.268762
0.172561,0.011653,0.901411,0.277584,0.959957,-0.037814
-0.196551,0.309722,0.750041,0.878334,0.458945,0.133784
0.149320,-0.754602,0.586866,0.596096,0.366793,0.714235
-0.259047,0.068010,0.672130,-0.269789,0.380629,-0.884497
0.417706,-0.834478,0.743026,0.957160,0.172111,-0.232858
0.182238,0.253713,0.853602,0.861623,-0.271546,-0.428800
0.220268,0.195478,0.896734,-0.653965,0.698978,0.289414
-0.104206,-0.382225,0.861561,0.968091,0.051593,0.245229
0.109180,-0.329486,0.860392,-0.215619,0.631571,0.744732
-0.195803,0.068847,0.653832,-0.443434,0.162132,-0.881521
0.324473,-0.129171,0.244698,0.317459,0.938616,-0.134980
-0.029307,0.349870,0.561722,0.753687,0.217486,0.620206
0.387854,0.668603,0.782143,-0.338637,0.940160,-0.037732
0.376677,0.040738,0.729940,0.922893,-0.179504,0.340656
-0.379678,0.692678,0.647366,0.107210,-0.801781,0.587922
0.545560,-0.550877,-0.937683,0.556357,0.829023,0.056459
0.105635,0.042127,0.850038,0.646559,-0.762772,-0.011826
0.341648,0.671385,0.767789,0.882216,-0.450960,0.135386
-0.189056,0.495773,0.599938,-0.293346,-0.598314,0.745633
0.055952,0.148582,0.221203,0.961737,-0.272840,0.024908
0.670209,0.579890,0.713360,-0.070036,-0.084300,0.993976
0.207795,0.194782,0.872238,-0.357345,0.707045,0.610239
-0.391059,-0.045193,0.424776,0.335752,-0.580944,-0.741468
-0.022627,0.432319,0.064719,-0.173755,0.358867,-0.917073
0.479656,0.680846,0.707599,0.238528,0.953942,0.181929
0.118381,0.884920,0.694879,-0.632138,0.261914,-0.729248
-0.227766,0.450197,0.572132,0.046300,-0.860722,0.506966
0.003748,0.289474,0.475261,0.816346,0.455112,-0.355602
-0.296873,0.444494,0.062662,-0.224396,0.005527,0.974482
-0.335583,0.492991,0.656973,0.857010,0.402810,-0.321369
-0.294487,-0.108787,0.427946,0.264957,0.250513,0.931150
0.284400,0.028283,0.810386,-0.191436,-0.942035,-0.275540
-0.274860,0.376586,0.743392,-0.681400,0.301366,0.666987
0.317384,0.431134,0.832853,0.808453,-0.563381,-0.170311
0.343487,0.427380,0.827050,0.725124,0.657994,-0.203074
0.609214,-0.436841,-0.944655,-0.495655,0.737895,0.458080
0.384720,0.035867,0.292690,0.036913,0.996347,-0.077012
-0.229879,-0.855002,0.609700,0.499850,0.582740,0.640753
-0.048934,0.070516,0.704345,-0.578211,0.097998,-0.809981
0.488310,-0.087218,0.906609,-0.665875,-0.215124,0.714375
0.361344,-0.120541,0.906623,-0.306411,-0.362513,0.880168
0.547671,-0.432527,-0.550143,0.830849,0.549140,0.090195
0.329857,-0.748339,0.411817,-0.538274,-0.099364,-0.836892
-0.289716,0.561799,0.632012,-0.303969,-0.836058,0.456738
0.198935,0.435032,0.853109,0.935451,-0.180346,0.303985
0.080419,0.230543,0.367657,-0.474101,-0.813328,-0.337232
0.252641,0.442965,0.835980,0.421020,0.901938,-0.096177
0.524023,0.385075,0.431200,-0.411831,-0.856032,-0.312416
0.162542,0.136543,0.710332,0.338326,-0.814561,0.471196
-0.213590,0.222402,0.076678,0.282633,0.403829,0.870081
-0.202344,0.009495,0.790834,0.806120,-0.366564,0.464544
0.085532,-0.557349,0.286985,-0.212110,0.605675,0.766921
0.476181,0.087630,0.857645,-0.575645,0.799108,-0.173373
0.562120,-0.574259,-0.969644,0.574334,0.180324,-0.798513
0.618891,-0.362673,-0.532338,0.772172,-0.475956,0.420971
0.287058,-0.182606,0.908214,0.482940,0.123327,-0.866925
0.527499,-0.126737,0.910736,0.036280,-0.400292,0.915669
0.194370,0.602436,0.699415,-0.370043,0.342926,0.863406
0.487220,-0.150807,0.456062,0.196598,0.251832,0.947592
0.244053,-0.628944,-0.995957,-0.428373,0.026237,0.903221
-0.408165,0.228874,0.713670,0.889352,-0.456801,-0.019624
0.397259,-0.051593,0.043660,0.960981,0.247586,-0.123355
0.164859,0.189703,0.808611,0.906746,-0.399526,0.134872
0.053021,-0.847277,0.602122,0.144808,0.207276,0.967506
0.580454,-0.360236,-0.677792,-0.277021,0.956020,0.096364
0.234511,0.790988,-0.015121,0.521927,0.754940,0.397061
0.065494,-0.558045,0.659044,-0.326053,0.424276,0.844796
-0.301779,0.052285,0.763634,0.854431,-0.129008,-0.503294
0.379403,0.318003,0.900960,0.907733,0.133712,-0.397671
-0.043618,-0.279804,0.836192,-0.563847,0.469178,-0.679668
0.294554,-0.735051,0.648493,-0.363567,-0.133138,0.922005
-0.123834,-0.330598,0.702866,-0.308903,0.654740,0.689851
0.598991,-0.568692,-0.912243,0.348837,0.927352,-0.135392
0.572956,0.439971,0.390293,-0.521978,-0.377971,-0.764642
0.330402,0.277439,0.634646,-0.428340,-0.279054,0.859450
0.244394,-0.297967,0.853152,0.840906,-0.409970,0.353272
0.663121,0.625882,0.706486,0.204413,-0.240460,-0.948891
0.527909,-0.363646,-0.602389,0.997052,-0.066692,-0.037943
0.176718,-0.847557,0.589388,-0.254561,0.619808,-0.742318
0.250528,-0.897443,0.416240,0.203949,0.079416,0.975755
0.334150,0.142110,0.849081,0.997670,-0.012805,-0.067005
0.412117,-0.179477,0.857913,0.380072,0.349206,0.856505
-0.316704,0.589981,0.610474,0.069038,-0.679724,0.730212
0.550670,-0.320092,-0.579513,-0.464227,0.881225,-0.089081
0.737476,-0.192764,-0.029940,0.330674,0.943309,-0.028678
0.296871,-0.511009,0.890536,-0.237145,0.775525,0.585084
-0.355893,0.261786,0.591106,0.728987,-0.118034,-0.674274
0.538200,-0.361213,-0.636787,0.555414,-0.824534,0.107979
-0.111634,0.092573,0.011882,-0.508118,0.022314,0.860998
0.996864,0.479423,0.431200,0.139449,-0.655665,0.742063
-0.549308,0.177944,0.420931,-0.468657,0.362077,-0.805767
0.223947,-0.035659,0.042956,0.172328,-0.261717,0.949635
0.353438,0.583368,0.782664,0.847907,0.507090,0.154637
0.053090,-0.089511,0.405859,-0.302330,-0.792782,-0.529239
0.102295,-0.700194,0.450526,0.199405,0.423411,0.883720
0.292168,-0.842406,0.576358,0.071840,-0.483566,0.872355
0.329106,-0.081022,0.309326,0.885056,-0.213678,-0.413542
0.170857,-0.185596,0.243867,0.318409,-0.702323,-0.636677
0.536563,-0.468360,-0.713628,0.967459,0.252197,-0.020474
-0.354597,0.270135,0.589444,0.728987,-0.118034,-0.674274
0.359776,0.047486,0.637379,0.959280,0.263222,-0.102451
-0.248824,-0.133137,0.674468,-0.581566,0.656302,0.480674
0.825052,0.691493,0.410310,-0.453988,0.011769,-0.890930
0.264090,0.548163,0.794046,0.812650,0.525758,-0.251354
0.518911,-0.487844,-0.889297,0.998950,-0.025866,0.037804
0.499352,0.005045,0.951910,0.188137,0.981990,0.017324
0.619846,-0.371579,-0.803441,-0.573915,0.812642,0.101168
0.175560,0.424318,0.643591,0.491873,0.556806,-0.669349
-0.000478,0.144756,0.795046,0.781757,-0.592627,0.194032
0.396579,-0.243138,0.837967,0.305295,0.939775,0.153680
0.612213,0.205216,0.290676,0.276868,0.145728,-0.949793
0.333878,0.086169,0.968560,-0.062425,0.858547,0.508920
-0.578954,0.045329,0.421818,-0.101435,0.301513,0.948051
0.209705,-0.346948,0.881451,0.433752,0.838513,-0.329779
0.188168,0.101827,0.352909,-0.028608,0.675663,0.736655
-0.239964,-0.846513,0.614658,-0.526883,-0.279430,-0.802691
0.279833,-0.077616,0.390321,0.417199,0.322301,-0.849745
0.690723,-0.841990,-0.963066,-0.264982,-0.000117,0.964253
-0.231037,0.439415,0.754731,0.057396,0.711735,0.700099
0.502965,-0.245436,-0.318707,0.797186,-0.592496,0.115944
0.371566,0.001355,0.919131,0.891887,0.371474,-0.257963
0.525044,-0.611621,-0.968334,0.428081,0.028487,-0.903291
0.893886,-0.097512,0.384969,-0.244338,0.393619,-0.886207
-0.225653,-0.101478,0.742434,-0.482404,-0.857658,0.178071
0.161317,-0.851940,0.445243,-0.694789,0.257277,-0.671623
0.215428,0.536613,0.770494,0.702735,-0.447490,0.553097
0.279492,-0.370950,0.807498,-0.345107,0.191226,0.918877
-0.092620,-0.680362,0.583725,0.558398,-0.079209,0.825783
-0.410279,0.667626,0.638112,0.466584,-0.710908,0.526222
-0.175083,-0.530841,0.741716,-0.349610,0.935066,-0.058517
0.062085,0.082207,0.873407,0.685763,-0.467339,0.557963
-0.230151,-0.085061,0.662495,0.516247,-0.378880,-0.768075
-0.180058,0.155054,0.075312,0.363712,-0.198971,0.910013
0.120357,-0.652185,0.647127,0.195104,0.715844,-0.670449
0.299119,0.255314,0.909525,-0.579485,0.594373,-0.557599
0.070946,0.396137,0.845629,0.752415,-0.265685,0.602729
-0.093165,-0.506419,0.432256,-0.676959,0.018674,-0.735784
0.268725,-0.860081,0.419705,-0.676820,-0.038782,-0.735127
0.053090,0.179473,0.366938,0.576421,0.586732,0.568757
0.619164,-0.378399,-0.661523,-0.095993,0.994976,0.028433
0.147482,-0.545242,0.640337,0.481209,0.862165,0.158459
-0.375793,-0.513935,0.578612,0.233827,0.348446,0.907695
0.638315,-0.191023,0.837037,-0.349188,-0.484817,0.801885
0.414707,-0.009152,0.533719,-0.472321,0.878066,0.076895
0.438151,0.770396,0.788299,-0.442350,-0.887341,-0.130204
-0.065359,-0.550809,0.696471,-0.292196,0.839241,-0.458580
0.035370,-0.189703,0.843925,-0.549785,-0.348836,-0.758980
0.341715,-0.422577,0.400140,-0.058602,0.193328,0.979383
0.050432,-0.386399,0.792919,0.894817,-0.443045,-0.054904
0.404347,-0.290799,0.260898,0.276698,-0.704487,-0.653557
-0.197234,0.466271,0.724009,0.329670,-0.372392,0.867549
0.154364,0.798713,0.659678,0.311405,-0.731519,-0.606553
-0.130581,-0.058481,0.397097,0.022122,0.689934,0.723534
-0.214748,0.155054,0.816401,0.898730,0.335214,0.282693
0.649627,-0.485546,0.740011,-0.156168,-0.987169,-0.033295
0.557282,-0.422021,0.474867,0.879206,0.299609,-0.370448
0.442036,-0.779997,0.788933,0.544972,-0.815085,-0.196575
0.437537,-0.091180,0.839967,0.734329,0.634705,0.240646
0.066925,0.476709,0.061226,-0.165678,0.367213,-0.915263
0.467048,-0.690380,0.795835,-0.543953,-0.358980,-0.758451
0.586656,-0.755507,-0.967010,-0.202615,0.064489,0.977133
0.440127,-0.002956,0.950825,0.069883,0.848774,0.524118
0.688884,0.423690,-0.620687,0.958656,-0.191214,0.210751
-0.209160,0.104120,0.733010,0.297360,-0.626999,-0.720034
-0.294077,0.464950,0.679159,0.951850,0.268523,0.147908
0.727457,0.209114,0.800385,-0.555758,0.056002,0.829456
0.802084,-0.799689,-0.957164,-0.347734,0.082274,0.933976
0.346213,-0.125485,0.284365,-0.366723,0.731328,0.575042
-0.229742,0.255174,0.351063,-0.493071,-0.692300,-0.526880
0.614189,0.184900,0.885592,0.268643,-0.855012,0.443606
0.301642,0.432459,0.863899,0.884955,0.314930,0.343036
0.081988,0.023204,0.454653,0.032623,-0.271459,0.961897
0.403392,-0.497930,-0.984153,0.339511,-0.177311,-0.923739
0.214135,0.378535,0.834135,0.982357,-0.180912,0.047397
-0.200982,0.148582,0.804399,0.849636,0.320916,0.418486
-0.125469,-0.048183,0.585612,0.157867,-0.146301,0.976562
-0.234923,0.332684,0.807456,0.928832,0.049678,0.367156
0.188509,-0.015967,0.894579,-0.148651,-0.553700,0.819341
-0.031759,-0.063352,0.509448,0.452594,0.340042,0.824336
0.319021,0.582952,0.056225,-0.606920,0.317314,-0.728669
0.103387,0.660462,0.083355,-0.302772,-0.275638,0.912334
0.186261,0.431342,0.772339,-0.314113,-0.257751,0.913727
0.429290,-0.808802,0.822683,0.940515,0.338769,-0.025819
0.323587,-0.157976,0.293916,0.764738,-0.473503,0.437002
-0.474408,0.229154,0.697091,-0.303313,0.054580,-0.951327
0.039187,-0.406435,0.708937,-0.195600,-0.407237,0.892132
0.543310,0.028979,0.846489,0.743298,0.080246,-0.664130
0.086076,-0.237223,0.732278,-0.684101,0.518714,0.512778
-0.525387,0.354393,0.687751,0.173983,0.477008,0.861507
-0.488449,0.221149,0.697232,-0.303313,0.054580,-0.951327
-0.070130,-0.226440,0.852095,-0.689782,0.609706,0.390460
0.037073,0.379647,0.754647,0.190337,-0.283737,0.939822
0.325563,-0.115535,0.900749,-0.623370,0.225927,0.748576
-0.462755,0.520611,0.592177,0.015844,0.105873,0.994253
-0.375861,0.521584,0.610277,0.008025,-0.799871,0.600118
-0.185580,-0.454096,0.434918,0.150688,-0.187016,0.970731
0.660532,0.264635,0.800596,-0.147272,-0.232507,0.961380
0.368771,-0.001843,0.526690,0.982716,-0.177646,0.052064
0.147276,0.101686,0.201271,0.735582,0.677169,-0.019016
0.472023,-0.629640,-0.972983,0.419763,-0.006920,-0.907607
-0.390377,0.753974,0.410831,0.824452,-0.395571,-0.404725
0.552783,0.403097,0.898650,0.591721,0.710644,-0.380594
-0.624821,-0.395025,0.582373,-0.283620,0.618534,0.732786
-0.033327,-0.354949,0.815288,0.871276,0.153761,-0.466085
0.223881,-0.123952,0.863913,-0.093762,-0.889069,0.448068
0.371429,-0.139885,0.936838,-0.366702,-0.142244,0.919400
-0.450692,-0.535572,0.590106,0.859114,0.278207,0.429563
0.699924,0.784936,0.733926,0.837523,-0.491851,-0.237985
-0.161727,0.507324,0.598839,-0.551214,0.429368,-0.715406
-0.835753,0.187894,0.389575,0.134051,0.559861,0.817671
0.634840,-0.522492,0.831994,0.429720,-0.518996,-0.738907
0.048525,0.059245,0.702176,0.289993,-0.721940,0.628256
0.323859,0.004973,0.917948,0.513915,0.696893,-0.500232
-0.024943,0.800241,0.541847,-0.167742,-0.101186,-0.980624
-0.105024,-0.250999,0.853307,-0.517301,0.695508,-0.498666
-0.070197,-0.323430,0.851489,0.171971,0.325996,0.929598
0.228991,0.069123,0.905327,0.792846,0.451143,-0.409713
0.383561,-0.033502,0.051253,0.918879,0.237763,-0.314849
-0.377565,0.255381,0.578710,0.891742,-0.111098,-0.438696
-0.381040,0.596728,0.625349,-0.186840,0.680266,-0.708752
0.216042,0.472255,0.856828,0.892457,-0.197875,0.405421
0.118312,0.210715,0.196327,0.679280,0.062251,-0.731235
0.271586,0.539674,0.812837,-0.764628,-0.612972,-0.199021
-0.289920,-0.675631,0.583190,0.545207,0.544919,-0.637034
0.267362,0.235346,0.367037,0.353115,0.462791,-0.813101
-0.641792,-0.217675,0.572555,0.803952,0.259886,0.534903
0.228856,0.031485,0.798046,0.200068,0.683416,0.702079
0.090983,0.381389,0.829008,0.797963,-0.432751,0.419501
0.118516,-0.441712,0.403365,-0.062421,0.221055,0.973262
-0.220746,0.472395,0.592191,0.348250,0.722880,-0.596797
-0.011928,0.041779,0.774283,0.916690,-0.390033,0.086908
0.091869,-0.168898,0.232387,-0.367175,0.763367,0.531464
0.081578,-0.204035,0.713670,-0.597434,0.678897,0.426815
-0.156887,0.230059,0.769029,0.302739,0.641921,-0.704475
0.440401,-0.029816,0.127191,0.733514,-0.678140,0.045650
-0.350780,0.262618,0.593867,0.701532,-0.106391,-0.704652
-0.066245,0.229571,0.026545,-0.457049,-0.530087,0.714223
-0.031079,-0.161734,0.752323,-0.280966,-0.440278,-0.852768
-0.638248,0.119569,0.416057,-0.355168,0.503747,0.787461
0.393103,-0.977875,-0.981054,-0.348115,0.101448,0.931947
-0.130512,0.276815,0.776748,0.038031,-0.381498,0.923587
0.569618,0.204940,0.907975,-0.555022,-0.481173,-0.678545
0.407483,-0.015967,0.853377,-0.420384,0.889731,-0.177921
0.602057,-0.380972,-0.706796,0.852084,0.165467,-0.496563
-0.002113,-0.734842,0.515435,0.904844,0.421577,-0.059407
0.331357,-0.006158,0.836671,-0.112200,-0.984430,0.135313
0.255299,-0.476989,0.869407,0.183577,-0.957084,-0.224255
0.449532,-0.212036,0.810794,0.403854,0.385815,0.829487
0.041096,0.255106,0.492066,-0.555797,-0.648964,0.519553
0.199686,-0.169106,0.310157,-0.648443,0.385814,0.656254
0.041437,-0.038373,0.843883,-0.757532,0.253169,-0.601706
0.165951,0.032665,0.910426,0.827790,0.459768,0.321523
0.223199,0.445539,0.493263,-0.472246,0.620539,-0.626032
-0.133580,0.193040,0.791919,-0.662159,0.362867,0.655647
0.173243,-0.217535,0.632336,0.300775,0.495005,0.815172
0.406733,-0.190331,0.850926,0.496907,0.438578,0.748821
-0.335993,-0.262690,0.327103,0.480253,0.520825,0.705760
-0.638180,-0.234301,0.581091,0.860189,0.328328,0.390225
0.498056,0.179893,0.846038,-0.711023,0.355764,-0.606529
0.266339,-0.205984,0.281985,0.585212,-0.357557,0.727791
0.279357,0.679250,0.747280,-0.147864,-0.819961,0.552993
-0.248961,-0.050060,0.296212,0.301877,-0.481947,0.822555
0.423089,0.204940,0.702852,-0.721692,0.198709,-0.663081
0.447897,-0.067802,0.958347,-0.151458,0.684244,-0.713352
0.081715,-0.040598,0.832304,0.632744,-0.773206,-0.042277
0.284059,0.242718,0.640112,0.186234,0.154014,0.970359
0.390239,-0.840113,0.767465,-0.740442,0.642755,0.196498
-0.475636,-0.416734,0.565047,0.242385,0.190514,0.951291
-0.188987,0.964027,0.560483,-0.080297,0.930276,-0.357966
0.375246,-0.067386,0.769325,0.787002,-0.604010,0.125697
0.326995,-0.240149,0.831515,-0.388039,0.271892,-0.880625
-0.610237,-0.384034,0.574245,-0.338151,-0.925726,-0.169366
0.493354,-0.260601,0.277068,0.182772,-0.330725,0.925859
-0.415320,0.327397,0.705063,0.976906,0.144800,0.157124
0.250528,-0.676120,0.755252,0.042906,0.695764,0.716988
0.251890,-0.002539,0.857969,0.692509,-0.046755,0.719893
-0.256050,0.912472,0.552327,-0.093961,-0.873871,0.476992
-0.034621,0.469333,0.484629,0.857915,-0.265391,-0.439943
0.595379,-0.435869,-0.581612,0.923162,0.291898,-0.250134
-0.150346,-0.307081,0.870717,-0.194481,-0.594871,0.779939
0.661349,-0.775542,-0.964827,0.328139,-0.100504,-0.939268
-0.127582,-0.313620,0.858068,0.963888,0.197809,0.178299
0.546172,-0.427796,-0.860448,0.977408,-0.204676,-0.052735
0.512709,-0.363994,-0.592726,0.969278,-0.245906,0.005509
0.804470,0.579890,0.300339,-0.705831,-0.220067,0.673330
0.601989,-0.286208,-0.402365,0.993912,-0.102555,-0.040274
0.704286,-0.309586,0.720150,0.061443,-0.064344,0.996034
-0.311388,-0.193045,0.478797,0.428550,-0.903503,-0.005269
0.534994,-0.810892,0.676595,0.553212,0.416365,-0.721524
0.519662,-0.099877,0.907299,0.260449,-0.341653,0.903017
0.536835,-0.210575,-0.045858,0.796733,0.603797,0.025428
0.046684,-0.172380,0.829022,-0.483970,0.365214,0.795230
0.764397,0.223727,0.875605,-0.417931,-0.542789,0.728501
0.566277,-0.272432,0.845897,0.659187,0.672935,0.335605
0.613779,-0.369353,0.257559,-0.332598,-0.802715,-0.495003
-0.094595,0.112541,0.718967,0.450132,0.244630,-0.858800
-0.330336,0.501824,0.722826,-0.644544,0.753980,-0.126796
-0.558305,-0.492923,0.593571,0.606207,0.531165,0.591927
0.130444,0.287665,0.869449,0.087114,-0.882361,0.462440
-0.428065,-0.237295,0.422353,-0.018291,0.275937,0.961002
0.601853,0.113513,0.477529,-0.245131,0.585896,-0.772422
0.477815,-0.385495,0.778452,-0.502826,0.325363,0.800815
0.426156,-0.544894,-0.979012,-0.354548,0.204469,0.912408
0.192529,-0.648147,0.781143,0.763774,0.105844,0.636746
-0.295850,0.395165,0.666157,0.814347,0.135110,0.564432
0.113541,-0.528684,0.412845,0.011270,0.181923,0.983248
0.632385,0.188866,0.897269,0.128731,-0.886464,0.444534
-0.072992,-0.006158,0.467091,0.619664,-0.783725,0.042334
0.064130,0.448320,0.748998,-0.701948,0.213256,-0.679552
0.491447,-0.156447,0.559271,-0.469343,-0.599975,0.647880
-0.375316,-0.272848,0.320553,0.411653,0.595977,0.689458
0.195325,0.277231,0.883254,-0.122954,-0.139282,0.982590
0.118447,-0.444358,0.821528,0.071020,-0.220678,0.972758
-0.020447,0.272428,0.843686,-0.377559,0.422858,-0.823796
0.581202,0.067870,0.767578,-0.639593,0.762127,0.100415
0.479791,-0.211760,-0.250826,0.985232,-0.152946,0.076972
0.237102,0.445887,0.833896,0.666963,0.705384,-0.239985
-0.581681,-0.541624,0.595445,0.166122,0.546336,0.820926
-0.122130,-0.518038,0.642295,0.092283,0.757682,0.646067
0.124718,0.104400,0.888550,-0.049494,0.948500,0.312888
0.414162,-0.156583,0.026982,0.960204,0.211285,0.182665
0.178694,0.605217,0.077411,-0.167588,0.246156,-0.954632
0.273562,0.662063,0.826993,-0.209989,-0.967844,-0.138503
0.689361,0.219620,0.859758,-0.756369,-0.260952,0.599841
0.349554,-0.038861,0.344119,0.910416,-0.274157,0.309806
-0.550604,-0.472535,0.583161,-0.647060,-0.643224,-0.409361
0.579089,-0.011309,0.889874,-0.736707,-0.582539,0.343382
0.363865,0.065021,0.897720,0.119294,0.525462,0.842413
0.199959,0.139329,0.052225,-0.185372,-0.027807,-0.982275
0.120629,-0.396698,0.290845,0.089174,0.054441,0.994527
-0.258161,-0.865092,0.609362,0.807906,0.476660,0.346532
0.520207,-0.372203,-0.472599,0.936581,-0.228005,0.266138
0.501601,0.561592,0.713571,0.706088,-0.423965,0.567180
0.386764,-0.008523,0.984759,0.976003,0.111318,-0.187156
0.350712,-0.045885,0.536705,0.174058,-0.978907,0.106982
-0.170381,0.184832,0.775847,0.291118,0.642288,0.709025
0.177742,0.143779,0.836854,0.429841,-0.469857,0.771019
-0.841000,0.052981,0.434158,-0.396986,-0.802079,-0.446174
0.338173,0.046025,0.950867,0.733851,0.193006,0.651315
0.421250,0.025289,0.944317,-0.654697,-0.688149,-0.312766
-0.340830,0.399823,0.699161,-0.522584,-0.215336,-0.824946
-0.286582,0.571541,0.626786,-0.368501,-0.800531,0.472606
0.441695,0.663176,0.768296,0.814794,0.028765,-0.579036
-0.452054,-0.547051,0.588373,0.815607,0.155550,0.557305
-0.333607,0.921866,0.540311,0.030576,-0.908017,0.417817
0.684727,0.141762,0.557201,0.803126,0.343205,0.487032
0.067880,-0.723359,0.729799,0.118104,0.991639,0.052003
0.535336,-0.362533,-0.611249,0.882209,-0.439161,0.169838
-0.234103,-0.338599,0.530409,-0.679366,0.694115,-0.238049
-0.278949,0.429881,0.715698,0.327457,0.182934,0.926988
-0.143871,-0.865300,0.599840,0.606875,0.079536,0.790807
0.455189,-0.477822,0.845080,0.458763,0.812524,-0.359640
0.019763,-0.624145,0.828515,-0.447476,-0.869408,-0.209509
0.040210,0.060426,0.911581,0.191898,0.634796,0.748471
-0.049548,0.757732,0.670848,-0.688551,0.672968,0.270206
-0.253596,0.332055,0.748547,0.757913,-0.058885,-0.649692
0.225106,0.343398,0.802314,0.283847,0.782279,0.554500
0.224016,0.482413,0.857687,0.921802,-0.086779,0.377823
0.181558,0.909550,0.682455,0.655014,-0.673592,0.342389
0.537041,-0.250027,-0.979138,0.342003,-0.114863,-0.932652
0.111975,-0.027170,0.286549,0.486085,0.749464,-0.449473
-0.126151,-0.153385,0.751463,0.143263,0.603666,0.784260
0.032371,-0.252044,0.711304,0.732288,-0.623131,0.274702
0.090983,-0.430442,0.779143,0.091913,-0.022661,0.995509
-0.235195,-0.183163,0.463020,0.455564,-0.886369,-0.082530
-0.434336,-0.035103,0.739617,-0.551532,0.828574,-0.096321
0.548694,-0.474068,0.865111,0.318161,0.575904,-0.753066
0.029033,-0.219272,0.522098,0.325607,-0.879280,-0.347630
0.515300,-0.206541,-0.271476,0.863725,-0.491000,0.113572
0.706058,0.052841,0.361910,0.237992,-0.246770,0.939396
-0.145575,0.069892,0.828303,-0.346026,-0.689738,0.636025
0.416683,-0.751332,0.788496,0.908546,-0.413173,-0.061910
0.329654,-0.653438,-0.987661,-0.364406,-0.036167,0.930538
0.672526,-0.057368,0.699809,0.014636,0.254255,0.967027
0.216859,0.204175,0.491080,0.156190,0.222861,0.962257
-0.369932,0.397250,0.720657,-0.758072,0.590986,0.275794
-0.272815,0.463001,0.585880,-0.119954,0.273404,-0.954390
0.585156,0.223379,0.444018,-0.309368,0.256340,0.915741
0.611121,-0.115951,0.839896,0.078748,-0.020184,0.996690
-0.023377,-0.814370,0.567540,0.001164,0.019644,0.999806
0.034484,-0.461680,0.296198,0.187587,0.266821,0.945314
-0.068425,0.833153,0.539846,-0.029942,-0.331394,0.943017
0.654399,-0.824388,0.693879,0.630575,-0.053123,-0.774308
-0.122470,-0.659698,0.722629,0.122668,0.098362,0.987561
0.614393,-0.178152,0.363332,-0.576162,0.798822,-0.172977
0.356094,0.124576,0.916427,0.290190,-0.513645,-0.807439
-0.022286,-0.680642,0.757844,0.914230,0.405154,-0.005742
0.164928,-0.065925,0.925583,0.120078,-0.297026,-0.947289
0.131124,-0.789879,0.442933,-0.523925,-0.311657,-0.792700
-0.185988,0.309026,0.769916,-0.504125,0.831428,-0.233635
0.552239,-0.659838,0.800342,0.315927,0.178865,-0.931771
-0.749131,0.097720,0.411000,-0.098328,-0.966935,-0.235305
-0.192055,0.181838,0.068100,-0.497030,-0.148224,-0.854980
0.011244,0.116227,0.345048,0.824853,-0.222097,0.519895
-0.251482,-0.834478,0.612094,-0.526883,-0.279430,-0.802691
0.567912,-0.916995,0.665368,0.532148,0.779321,-0.330874
-0.149663,-0.313064,0.691794,0.696976,-0.310613,-0.646331
-0.061405,0.380412,0.471106,0.956732,0.289056,-0.033334
0.599330,-0.860289,0.681286,0.672841,0.439341,-0.595201
0.518162,-0.164099,0.898298,0.004092,-0.797424,0.603405
0.800312,-0.228598,0.841249,-0.359308,0.536287,-0.763737
