0.013743,0.620725,0.063191,0.045829,0.735521,-0.675951
0.162193,-0.038883,0.224623,0.683101,0.240523,-0.689581
0.353782,0.643149,0.530283,0.430887,-0.521152,0.736707
0.104448,0.739092,0.669440,-0.041439,-0.948774,0.313226
0.000313,0.331022,0.530731,0.398189,0.174718,0.900511
0.183522,0.303101,0.684214,-0.247293,-0.618307,0.746018
0.130138,0.695493,0.625184,0.527577,-0.661674,0.532776
-0.785565,-0.081420,0.593026,-0.554914,0.612300,-0.563168
0.087624,0.309348,0.023082,-0.573942,0.818416,0.028043
-0.718678,-0.021269,-0.005735,0.189428,-0.137489,0.972221
-0.224236,0.659452,0.548808,-0.363913,-0.093972,-0.926680
-0.249715,-0.139448,0.267907,0.064917,0.786342,0.614372
0.179296,0.233330,0.596085,0.608243,0.500008,0.616468
0.411941,-0.211905,0.742770,0.443088,0.342084,-0.828644
0.640644,-0.846778,0.460871,0.161052,-0.741666,0.651148
0.015476,0.581561,0.747622,0.524083,0.792683,-0.311432
0.485200,-0.447141,0.712237,0.914903,0.137538,-0.379522
-0.630675,0.177426,0.604035,-0.410156,0.595056,0.691144
0.898008,0.034948,0.435036,0.786301,-0.121870,-0.605705
-0.835834,-0.252694,0.315120,-0.295662,-0.106612,0.949325
-0.038740,0.302664,0.020381,0.158224,-0.003390,0.987397
0.060412,0.020144,-0.983511,-0.435168,-0.485263,0.758386
-0.352814,0.788938,-0.221666,0.459215,0.873582,0.161170
0.425723,0.416534,0.563184,-0.604313,0.484727,0.632334
0.340073,-0.170493,0.911014,0.552920,-0.699571,0.452636
0.373793,0.214092,0.809635,0.321725,-0.886060,0.333753
-0.390135,-0.200849,0.517289,0.499980,-0.501022,-0.706397
0.861866,-0.316843,0.683228,0.599265,0.797849,-0.065706
0.375246,0.075861,-0.133934,-0.703856,0.090102,0.704605
-0.156035,-0.395796,0.797307,0.745257,-0.600742,-0.289311
-0.622159,-0.415847,0.426344,0.399466,-0.243531,-0.883810
-0.972721,0.654393,0.441553,-0.729412,0.323995,-0.602483
-0.429048,-0.294856,0.537670,0.387552,0.892927,-0.229098
0.264324,0.009588,0.962657,0.513427,-0.852409,0.098956
0.694856,0.285862,0.789062,-0.689398,-0.636199,0.346383
-0.125016,0.116899,0.863864,0.481758,0.864075,-0.145889
0.088105,0.394672,0.702047,0.044539,-0.680241,0.731634
0.779052,-0.245635,0.568407,0.553653,0.355048,0.753266
0.542320,-0.583247,-0.092865,-0.671630,-0.737544,-0.070303
0.185597,-0.173928,0.857847,0.966653,-0.122472,0.224905
0.107148,0.037946,-0.781854,-0.686159,0.726938,-0.027328
0.152984,0.335957,0.688746,0.381544,-0.601185,0.702140
0.176735,-0.098535,-0.125805,-0.014473,0.981312,0.191879
-0.757867,0.003404,0.316388,-0.326134,-0.439355,0.837021
0.332178,0.075611,0.495359,-0.856114,0.460553,-0.234437
0.672978,0.657204,0.730596,0.684423,0.649504,-0.331224
0.111163,-0.038009,0.659519,0.767451,-0.525979,0.366558
0.193905,-0.157688,0.649853,-0.707051,0.286606,-0.646480
0.625134,0.286111,0.670183,0.902114,-0.022682,-0.430901
-0.418039,0.044193,0.567524,-0.206093,-0.433085,0.877475
0.136993,0.081046,0.759848,-0.270244,0.737086,0.619413
-0.554373,-0.339142,0.280094,-0.595825,0.023305,-0.802776
0.002320,0.721166,0.478973,0.772311,-0.101836,-0.627029
-0.070728,0.500734,0.329830,-0.049496,-0.628271,0.776418
0.559423,0.377432,0.419687,-0.601349,0.758743,-0.250378
0.124737,0.047753,0.830105,0.595038,0.474379,-0.648764
-0.405712,-0.453637,0.481226,0.029100,0.667976,0.743614
0.380787,0.282988,-0.009550,-0.168837,-0.174318,0.970107
-0.091778,-0.042069,0.452818,0.332690,-0.757474,0.561739
-0.562542,-0.558325,0.477270,-0.568303,-0.347164,-0.745996
-0.175006,0.321153,0.437110,0.723611,-0.690018,-0.016204
0.799063,-0.588869,0.572491,0.960776,0.047285,-0.273265
0.805089,-0.313845,0.571121,0.623420,0.103168,0.775051
-0.126191,-0.374934,0.773585,0.518616,0.828726,-0.210359
-0.640644,-0.642275,0.494745,0.627778,0.688601,0.362936
0.334672,0.039195,0.898583,0.108230,-0.919698,-0.377415
0.693267,0.651457,0.705990,0.938872,-0.202409,-0.278479
0.175141,0.090852,0.035717,0.945545,-0.320639,-0.055995
-0.184561,-0.229020,0.718894,-0.200558,0.909525,0.364062
-0.525428,0.341391,0.260354,0.286133,0.956247,0.060993
-0.827800,0.211218,0.313392,0.389782,-0.215952,0.895229
0.177221,0.380555,0.548475,0.148669,-0.547284,0.823637
-0.683019,-0.158250,0.509928,-0.325009,-0.431629,0.841466
0.290496,0.812424,0.665242,-0.404696,-0.653272,0.639889
-0.015544,0.385053,0.691076,-0.783781,-0.162683,-0.599350
-0.607063,0.385927,0.209031,-0.406682,-0.913000,0.032266
0.263352,0.121709,-0.167539,0.471445,0.877787,0.085029
-0.727266,-0.254068,0.394160,-0.323995,-0.722652,-0.610575
0.178395,0.146319,-0.961415,0.898611,0.328006,0.291393
-0.577358,0.351073,0.413401,0.845823,-0.354363,0.398760
0.007028,0.558387,0.525290,-0.063629,0.822124,-0.565742
0.181303,-0.087792,-0.164761,0.411781,-0.906416,-0.094056
-0.269311,-0.325650,0.441399,-0.129766,0.698436,0.703809
0.560742,0.445579,0.458336,0.266098,-0.880562,0.392177
0.664530,-0.091227,0.662924,0.919351,0.345214,-0.188737
-0.053764,0.069865,0.523293,-0.650478,-0.084230,-0.754840
-0.469483,0.077110,0.604189,0.633869,0.670619,0.385331
0.043376,0.641026,0.765942,0.650059,0.731751,-0.204851
0.696035,-0.153940,0.682678,0.566776,0.823512,0.024351
0.330103,-0.476623,0.167360,-0.434454,0.510353,0.742152
0.239674,0.721790,0.657547,-0.170750,-0.094721,0.980751
-0.084923,0.337393,0.778731,0.386786,0.869598,-0.306915
-0.047463,0.352072,0.784479,0.833692,0.546575,0.078831
-0.592107,-0.008214,0.351120,0.649011,0.115921,-0.751895
0.442825,0.185733,0.732439,-0.557156,-0.202393,0.805366
-0.058058,0.087979,0.871942,-0.456575,-0.696356,-0.553740
0.694303,0.654330,0.656600,-0.081911,0.983722,-0.159941
0.166347,0.872701,0.692446,0.650928,0.522873,-0.550360
0.197992,0.109903,0.375507,0.905536,0.362367,-0.220667
-0.624581,-0.047003,0.563146,0.759891,0.530000,0.376385
0.437006,0.063868,0.286495,0.142842,0.985900,-0.087158
0.554648,-0.796808,0.586829,0.840559,0.501251,-0.205443
0.038047,0.223961,0.723900,0.291605,0.772087,0.564666
0.386116,0.076174,0.841665,-0.175110,0.982354,-0.065707
0.086305,0.336956,0.636194,-0.458544,0.498228,-0.735871
-0.183175,0.397483,0.784978,0.434921,0.898423,0.060665
-0.495242,-0.258565,0.365189,0.390432,-0.131511,0.911190
-0.494688,0.058871,0.488459,0.542025,-0.108969,0.833268
0.214541,0.200974,0.851753,0.402576,0.543961,-0.736233
-0.182689,0.095724,0.814909,0.974622,-0.018220,0.223116
0.308293,0.116525,0.592808,-0.111056,0.985097,0.131341
0.146201,0.036385,0.812310,-0.299818,0.949401,-0.093521
0.218902,0.112652,-0.154597,0.756012,0.632847,0.167185
-0.002113,0.399606,-0.982410,-0.248569,0.049741,0.967336
0.058405,0.212905,0.398359,0.474295,-0.495201,0.727887
-0.188369,0.588057,0.352720,0.153188,-0.630481,0.760939
-0.079940,0.960773,0.260546,0.319137,0.668844,-0.671416
-0.807303,0.145882,0.298414,-0.435419,0.018088,-0.900046
-0.230537,-0.632406,0.171175,-0.054838,0.007180,0.998469
0.699429,-0.366376,0.550472,0.999482,0.028286,-0.015327
0.143915,0.868391,0.651390,0.813622,-0.306078,0.494304
-0.290289,-0.139573,0.719317,0.382384,0.786283,0.485326
0.233859,0.027515,0.877626,-0.198814,0.748797,0.632278
-0.426694,0.663762,0.530949,-0.688076,0.384602,-0.615331
-0.145787,-0.258128,0.700332,0.748677,0.494667,0.441348
0.032714,0.092476,0.854518,-0.585863,-0.524269,-0.617986
-0.137614,0.411787,-0.986609,-0.134015,-0.144819,0.980341
0.465604,0.616415,0.280312,0.707679,-0.429136,0.561278
-0.178400,-0.191355,0.388233,-0.152348,0.831945,0.533533
0.899669,-0.141572,0.653054,0.742616,-0.599616,-0.298299
0.211562,-0.253756,0.843099,0.161123,0.414706,0.895577
0.779817,0.624598,0.532780,0.414939,0.804204,-0.425536
0.637043,0.373809,0.790496,0.965345,0.161782,0.204780
0.466644,0.017333,0.853379,0.008557,0.260025,0.965564
0.331071,0.078235,0.276190,0.298454,0.953886,-0.032026
-0.891986,-0.018145,0.615237,0.774677,-0.366607,0.515242
0.623402,0.605797,0.495539,0.164163,0.967742,0.191119
0.481946,-0.057247,0.869420,-0.135899,-0.989862,-0.041289
0.134774,0.638839,0.309014,0.535084,0.374150,-0.757428
0.113728,0.781380,0.659314,0.807325,-0.326167,-0.491774
0.497524,0.222524,0.745638,0.043289,-0.911219,0.409642
0.934428,-0.226522,0.508597,0.969026,-0.193445,0.153515
0.204014,0.110528,-0.781496,0.996764,-0.062151,0.050981
-0.044488,0.711171,0.571070,0.074965,-0.851425,0.519091
-0.519960,0.251257,0.593256,0.923846,0.381029,0.036410
0.097660,0.421531,0.709370,0.233812,0.966077,-0.109667
0.293057,0.103407,0.302690,-0.348542,-0.923912,-0.157812
-0.309193,-0.565820,0.561494,0.920066,0.313460,0.234991
0.337719,0.927730,0.415475,0.881371,-0.351178,0.316006
0.832301,-0.373185,0.609092,0.860522,0.042026,-0.507676
-0.428495,-0.054062,-0.230320,-0.200530,0.976547,0.078377
-0.168844,-0.444330,0.524253,0.377854,-0.637500,-0.671432
0.376286,0.229395,0.736920,-0.457139,-0.469107,0.755621
-0.562821,-0.242825,0.289529,-0.634387,0.005417,-0.772997
-0.426208,0.462007,0.325362,0.089870,-0.579161,0.810245
0.352396,-0.025204,0.853942,-0.672304,0.697700,0.247430
0.027731,0.243012,0.402712,0.784284,0.210443,0.583621
0.693888,0.639277,0.713825,-0.415009,-0.736991,0.533490
0.396224,-0.821231,0.229808,0.129210,0.963273,0.235394
-0.801560,-0.308473,0.311433,0.072350,0.176554,0.981628
-0.066438,0.479497,0.681308,-0.196640,-0.367720,0.908909
0.123418,0.230582,0.615762,0.783017,0.517186,0.345547
-0.191069,-0.148068,-0.060630,0.326215,-0.935719,0.134214
0.099254,0.567819,0.609194,0.681062,-0.227140,0.696105
-0.672077,0.078984,0.583655,0.570972,0.132041,-0.810282
-0.638290,0.339205,0.427714,-0.652832,-0.701912,0.284833
0.765968,0.569193,0.696670,0.951825,-0.094758,0.291633
-0.587053,0.327774,0.465684,-0.672989,-0.704348,0.225786
0.063734,-0.004029,-0.989208,0.345458,0.270703,-0.898542
-0.506457,-0.640151,0.489918,-0.537527,0.693642,0.479505
0.476820,-0.233080,0.698987,-0.228215,-0.198100,-0.953244
-0.082848,-0.140635,-0.241458,-0.122834,-0.787446,0.604021
0.073360,0.146007,-0.839950,0.687353,-0.287753,0.666892
0.569603,0.312408,-0.173019,0.563303,-0.762493,-0.318267
0.541285,0.077673,0.085299,-0.442997,0.792706,-0.418773
0.180821,-0.071426,0.917952,0.949767,-0.190649,-0.248186
0.545092,0.577688,0.613867,0.904145,-0.402009,0.144605
0.031121,-0.574565,0.670785,0.973038,0.216653,-0.079113
-0.050510,-0.572566,0.692151,-0.808520,-0.580591,0.095965
0.441718,0.800056,-0.009857,-0.777618,0.368549,0.509394
-0.766040,0.268747,0.308002,0.219357,-0.456156,0.862441
-0.464290,0.279678,0.445406,-0.326876,0.913635,0.241709
-0.174106,-0.179675,0.392764,-0.232496,0.915148,0.329318
0.196052,0.106343,0.775966,-0.620457,0.633457,0.462348
-0.531315,-0.091914,0.546106,0.427654,0.751506,0.502345
0.904516,-0.347512,0.520170,0.812033,-0.583315,-0.018599
0.268060,0.066617,0.968277,0.746120,-0.640661,0.181269
-0.013261,0.593366,0.711738,0.201530,-0.844320,0.496497
-0.273605,0.629907,0.559779,0.299449,-0.360262,0.883483
-0.306078,0.005403,0.620306,-0.329947,-0.932256,-0.148436
-0.123769,-0.550205,0.027038,-0.845908,0.507277,-0.164649
0.576665,-0.364003,0.737880,0.856783,0.291263,-0.425545
-0.784318,0.490240,0.394224,-0.581641,-0.339927,-0.739015
-0.179574,-0.048877,-0.005697,-0.215262,-0.091668,-0.972244
0.321169,-0.081483,0.897789,0.112178,0.878611,-0.464176
-0.714457,-0.143571,0.582080,0.617447,0.201952,0.760246
-0.224789,0.365877,0.453138,0.728184,0.261237,0.633643
0.238980,0.094100,0.535084,-0.750193,0.661025,0.016016
-0.488801,-0.480496,0.458733,-0.652869,0.757448,0.005858
0.264253,0.090790,-0.407627,-0.447521,0.894082,-0.018474
0.647427,0.474062,0.662143,0.702334,0.697530,0.142050
0.138721,0.101346,-0.613432,0.939650,-0.339766,0.040206
0.333700,0.931603,0.420135,0.793499,-0.423403,0.437138
-0.075021,-0.140136,0.679170,0.464064,0.454946,0.760045
-0.341598,-0.697492,0.421121,-0.230117,-0.775248,0.588248
0.544192,0.033012,0.592424,-0.333921,-0.933549,0.130317
-0.754545,-0.290609,0.184067,-0.330983,-0.088272,0.939499
-0.548832,0.274743,0.596943,0.106386,-0.722376,0.683268
0.343534,-0.402730,0.652593,-0.610975,0.177097,0.771586
0.685094,-0.155314,0.658533,0.927767,-0.163191,-0.335586
-0.622294,0.363815,0.444177,0.307971,0.808001,-0.502283
0.278448,-0.340142,0.866284,0.366950,-0.644372,-0.670919
0.170987,0.863331,0.637423,0.970596,0.203865,0.127997
0.673603,0.711109,0.714106,0.353808,0.879396,0.318565
0.319301,-0.333021,0.774788,0.679112,0.487730,0.548567
0.388609,-0.312783,-0.175566,0.524722,0.836882,-0.155871
0.249089,-0.052063,0.573003,0.958096,-0.009952,-0.286275
-0.003635,0.559137,0.047457,-0.170262,0.785967,-0.594363
-0.147587,0.448515,-0.984318,0.144171,0.160643,-0.976426
-0.592661,-0.160811,0.004225,0.019527,0.249758,0.968111
0.089217,-0.244449,0.474748,0.893548,-0.403748,0.196368
-0.602284,0.354946,0.339150,-0.091460,0.994668,-0.047654
-0.453348,-0.547831,0.473596,-0.509522,0.349563,0.786253
-0.247982,0.173241,0.463687,0.707257,-0.272464,0.652343
0.271800,0.049564,0.975215,0.900786,-0.432435,0.039808
-0.662941,0.047191,0.630894,-0.638866,0.745081,0.191586
0.420182,-0.817671,0.229590,0.129210,0.963273,0.235394
-0.039366,-0.369312,0.692343,-0.498957,-0.713657,-0.491665
0.578258,-0.097348,0.895882,0.289811,0.953614,-0.081424
0.070381,0.363253,0.659890,0.497957,0.766521,-0.405566
0.782306,0.684500,0.399882,0.834321,0.547078,0.067931
-0.900987,-0.353446,0.009666,-0.536564,0.676639,-0.504241
-0.923284,-0.313408,0.420007,0.973272,-0.203466,0.106504
0.216409,0.861582,0.501095,0.989470,0.140277,0.035665
-0.556520,0.234017,0.594690,0.052114,-0.032389,0.998116
-0.410906,-0.323652,0.174196,0.084906,0.077912,0.993338
-0.513173,0.220588,0.418765,-0.057530,0.987002,0.150058
0.608445,-0.513976,0.761128,0.234375,0.971950,-0.019512
0.171820,-0.002030,0.929026,-0.661036,0.251030,-0.707117
-0.698943,0.528467,0.384097,0.790011,-0.424046,0.442795
0.255390,0.734408,0.343630,0.960818,0.208977,-0.182091
0.588160,0.144570,0.461076,-0.192986,-0.401647,0.895230
0.013536,0.276492,0.538924,-0.879875,0.240477,-0.409867
0.434238,0.557825,0.285689,-0.683264,0.526142,-0.506285
0.600069,0.495799,0.439517,0.622160,-0.782578,-0.022118
0.929167,-0.287673,0.499955,0.924061,-0.365427,0.112135
-0.087484,0.638090,-0.329587,0.122131,-0.605680,0.786280
0.174448,-0.229645,0.809917,-0.527009,0.477792,0.702835
-0.030225,0.690871,0.629473,-0.383440,0.803035,-0.456190
0.563717,0.524470,0.593640,0.579056,0.044250,-0.814086
0.049124,0.112027,0.419956,0.144246,0.903366,0.403884
-0.613918,0.206034,0.429096,0.618971,0.655505,-0.432653
0.404951,0.251070,0.584691,0.423880,-0.765446,0.484168
-0.115596,0.334770,0.663270,-0.209609,-0.632521,0.745641
-0.271525,-0.537400,0.527390,0.356410,0.003139,0.934324
0.373860,0.293357,0.742834,-0.527449,-0.166446,0.833123
0.005849,0.313658,0.528363,0.102418,0.258782,0.960491
0.210522,0.356445,0.585933,-0.482983,-0.575175,-0.660228
-0.066852,0.040132,-0.996697,-0.536217,-0.231222,0.811793
-0.295623,0.543209,0.472136,0.841998,-0.380899,0.382041
0.017065,-0.328524,-0.243801,-0.474740,0.657649,0.584910
0.082916,0.572004,0.762946,0.094134,-0.836844,0.539288
0.331278,0.660764,0.341966,0.982415,0.040556,-0.182255
0.165240,-0.005965,0.932687,-0.083777,-0.433732,0.897139
-0.516845,-0.198351,0.173287,-0.083716,-0.102032,0.991252
-0.376565,-0.541023,0.176565,0.129135,-0.027537,0.991245
0.254009,0.843343,0.593090,0.114656,0.921933,0.369991
0.679000,-0.219713,0.744588,-0.701522,-0.688142,-0.185277
0.265432,0.109966,0.866847,0.812987,-0.579468,-0.057175
0.389923,0.459508,0.484503,0.928152,-0.372098,-0.008769
0.556241,0.346575,0.229181,-0.641837,0.373906,-0.669507
-0.170087,0.317780,0.434550,0.833181,-0.538721,-0.124859
-0.468097,-0.092726,0.359185,0.598261,-0.169603,-0.783146
-0.291397,0.097661,0.282668,0.443785,0.087584,-0.891843
-0.001766,0.434960,0.714798,0.132029,-0.958728,0.251810
-0.059790,-0.272494,0.714068,0.624515,0.521577,-0.581325
0.277201,-0.013086,-0.039123,0.722124,-0.691750,-0.004356
0.208654,-0.111965,-0.239730,0.940927,-0.318898,-0.113841
-0.263078,0.354321,-0.188163,0.346159,0.832312,-0.432933
0.635036,0.524282,0.674139,0.836013,0.221860,-0.501857
-0.188229,0.947344,0.479434,-0.549003,-0.832774,0.071299
-0.080494,0.465317,-0.183183,0.746845,0.664994,-0.002492
0.519334,-0.370874,0.723721,-0.748305,0.029010,0.662720
-0.358354,0.036822,0.005146,0.269005,-0.282224,0.920861
0.142600,-0.173553,-0.105962,0.945712,0.274926,0.173335
-0.340558,-0.201474,0.725961,0.590847,0.801718,0.090271
0.243342,-0.147694,0.886370,-0.273313,0.591509,-0.758563
-0.035140,0.968644,0.197189,0.616837,-0.735399,-0.280536
-0.031264,-0.479372,0.320036,0.745367,-0.440477,-0.500408
0.240641,0.765889,0.602896,-0.695532,-0.085285,-0.713416
0.045249,0.400044,0.708499,-0.086595,-0.948820,0.303713
0.600344,-0.507230,0.772215,0.198353,0.979682,-0.029657
-0.657400,0.373872,0.282130,0.396763,-0.901647,0.172081
0.586360,-0.443081,0.765302,0.198353,0.979682,-0.029657
0.036247,0.693494,0.224150,-0.140745,0.625375,-0.767526
0.007303,0.280240,-0.130068,0.662903,0.545566,0.512755
-0.497523,-0.080733,0.644131,0.599947,0.800036,0.002354
-0.120097,-0.545895,0.552610,-0.131452,-0.690773,-0.711023
0.166419,0.118398,0.881928,-0.346037,-0.907987,-0.236257
0.169394,0.863019,0.665293,0.937026,-0.344201,-0.059233
0.072667,0.454262,0.456749,0.915524,0.191436,0.353790
-0.521274,0.801243,0.579071,-0.226830,-0.866413,0.444832
0.128819,-0.020831,-0.009934,-0.205456,0.281040,0.937446
-0.113035,0.443643,0.196856,-0.348963,0.627277,-0.696239
0.160392,0.896936,0.668596,-0.638458,0.691531,-0.337871
-0.346027,0.115088,0.605482,-0.569274,-0.445132,-0.691220
-0.692088,0.469690,0.365240,-0.492474,0.082272,-0.866430
-0.095585,-0.082607,0.420685,-0.729398,0.669422,0.140899
0.369013,-0.037072,0.686890,0.662379,0.674460,-0.326126
0.553887,-0.176489,0.635093,-0.615519,-0.712086,0.337743
-0.496623,0.019582,0.686006,0.209718,0.933786,0.289935
0.263906,0.063056,0.958829,0.107422,0.984754,-0.136822
0.030153,0.006465,-0.985918,0.468561,0.376770,-0.799059
0.246735,0.047066,0.890671,0.431367,0.613323,0.661632
0.835901,0.014210,0.406808,0.746323,0.665143,-0.024227
0.050650,-0.146007,0.644861,0.910594,0.095627,0.402088
0.251997,0.005840,-0.289312,-0.218768,0.920574,0.323550
-0.378986,0.108030,0.480765,-0.272612,0.921286,-0.277334
-0.541285,0.093351,0.502004,0.648297,0.166764,0.742900
-0.476059,-0.445704,0.481840,-0.540414,0.157736,0.826482
0.230186,0.252194,0.139490,-0.470259,-0.865537,0.172341
-0.614404,0.431025,0.369132,0.517614,0.529963,0.671725
0.074328,0.176676,0.765711,0.309249,0.645988,0.697900
-0.217381,0.774197,0.213114,-0.240345,-0.315066,0.918133
-0.265985,0.447765,0.452025,-0.558549,0.401166,-0.726009
-0.289803,-0.662263,0.571659,0.878634,0.457288,0.137439
0.209068,-0.129579,0.771587,0.743707,-0.497932,-0.446053
0.740143,0.458634,0.471599,0.690213,0.506042,-0.517231
0.362504,0.425091,0.280939,0.233676,-0.651723,0.721563
-0.076894,0.093413,0.526903,-0.703922,0.093738,-0.704064
-0.065952,0.247072,-0.222613,-0.244030,-0.307766,0.919635
0.360358,0.692370,0.649060,0.991961,0.036514,-0.121160
0.210387,0.023580,-0.983460,-0.087421,0.260776,-0.961433
-0.552154,0.530154,0.339278,-0.486787,0.167829,-0.857247
0.422122,0.245823,0.553890,0.268179,-0.945024,0.187108
0.235380,0.438896,0.682985,-0.563916,0.289291,-0.773505
0.391103,0.027640,0.880980,0.113170,0.341834,0.932921
-0.397683,0.437646,0.331929,0.158169,-0.663333,0.731418
0.853486,-0.392236,0.619756,0.997665,0.068185,-0.003932
0.422536,0.074237,0.935312,0.213553,0.853995,-0.474435
0.296798,-0.228458,0.860203,0.907218,-0.003720,-0.420645
0.547586,-0.083419,0.641839,0.399732,0.323110,-0.857796
-0.076340,0.412911,0.561405,-0.662872,0.190752,0.724027
0.254351,0.167869,0.556642,0.776030,-0.563615,0.283049
-0.034100,0.597239,0.056085,-0.277270,-0.713232,0.643755
0.038461,0.036947,-0.983434,0.448407,0.516934,-0.729185
-0.543364,0.751772,0.572683,-0.226830,-0.866413,0.444832
0.274847,-0.357819,0.595163,0.498784,0.814946,-0.295088
-0.337098,-0.447640,-0.183990,0.734416,-0.364782,-0.572335
0.039569,0.081483,0.848182,-0.512044,0.301177,0.804427
0.469483,0.287298,0.582323,-0.705385,0.627069,-0.330480
0.007789,0.668384,0.221948,0.106010,-0.621943,0.775853
-0.011529,0.061745,0.882440,-0.093235,-0.269147,0.958576
-0.148348,0.312970,0.290886,0.020375,-0.922046,0.386544
-0.488315,0.632593,0.354282,-0.464957,0.171975,-0.868470
-0.388681,-0.404978,0.174312,0.295825,0.040819,0.954370
-0.735088,0.229707,0.418010,0.078382,0.958158,-0.275301
-0.085963,0.164246,0.804271,-0.597032,-0.708084,-0.377053
-0.429948,-0.226209,0.505665,0.814648,-0.496656,0.299469
-0.724287,-0.027765,0.318590,0.291245,0.427597,-0.855767
0.233373,0.317593,0.528158,0.187083,-0.771365,0.608272
0.513933,0.894625,-0.025655,-0.791119,0.380683,0.478760
0.102440,0.053062,0.662758,-0.241225,0.841749,-0.482980
0.248122,0.164683,0.820926,-0.015275,-0.908255,0.418138
-0.076061,-0.004966,-0.229104,0.082917,-0.155680,0.984321
-0.374346,0.490053,-0.120108,-0.527238,-0.583949,-0.617271
-0.904448,-0.349136,0.317553,0.063156,0.175610,0.982432
0.175002,0.620288,0.168576,0.997237,0.007710,0.073889
0.240713,0.292670,0.684777,-0.124949,0.517801,-0.846328
0.556862,0.254880,0.784863,-0.316641,0.947143,-0.051564
0.288003,0.310347,0.261160,0.940487,-0.335745,0.052524
-0.428148,0.614042,-0.134689,0.386471,0.711836,0.586456
-0.309332,-0.586246,0.478141,-0.363035,0.882245,0.299748
0.270279,0.141072,0.926606,-0.013130,-0.490955,0.871086
0.454595,0.450389,0.594203,0.930213,0.366621,-0.017095
0.335158,0.814797,0.355075,0.949529,0.267774,-0.163375
0.145436,-0.179237,-0.251507,-0.540723,0.680789,0.494110
0.620008,0.302102,0.651018,0.687412,-0.386220,-0.615060
-0.342845,0.298292,0.433295,0.891696,0.064241,0.448052
-0.211908,-0.130891,0.318551,0.943818,0.215056,-0.250916
-0.188023,-0.051438,0.691293,0.074533,0.644844,0.760672
0.506525,-0.189544,0.306428,0.764820,-0.087844,-0.638227
0.679558,0.490053,0.471740,0.020153,0.100495,0.994733
-0.077375,0.159562,0.713249,0.241109,-0.833755,0.496708
-0.009382,0.089728,0.840859,-0.477368,0.805658,-0.350763
-0.712031,0.064930,-0.310588,0.070450,-0.987396,-0.141722
0.641405,0.530904,0.687568,0.785956,0.534602,-0.310602
0.388330,-0.591430,0.395978,0.482064,-0.215718,0.849164
-0.914211,-0.321778,0.316132,0.063156,0.175610,0.982432
0.983726,0.049877,0.455110,0.944778,-0.235143,-0.228258
0.176320,-0.143196,0.847593,0.976480,0.195405,-0.091128
-0.060065,0.821481,0.255937,-0.359597,-0.635242,0.683489
0.165447,0.263187,-0.978813,0.388638,0.352926,0.851119
-0.627074,0.230270,0.314647,-0.404444,0.701650,0.586610
-0.029325,0.068366,0.844251,-0.464956,0.834917,0.294501
-0.758074,-0.136138,0.353654,-0.396504,0.756208,0.520514
-0.162750,0.178488,0.371321,-0.366357,-0.907484,-0.205559
-0.152988,-0.372997,0.776606,-0.334962,-0.932552,0.134711
0.242653,0.069115,0.620998,0.748887,-0.662689,0.003528
-0.929860,0.382804,0.331481,-0.697988,0.429795,-0.572790
-0.229844,0.565570,-0.028177,0.303391,0.900819,-0.310611
-0.564756,0.223836,0.593333,0.651157,0.197560,-0.732779
0.532144,0.465880,0.645501,0.092464,-0.962393,0.255440
-0.608238,0.065867,0.639394,0.324781,0.926830,-0.188423
-0.768115,-0.226272,0.419828,-0.213678,0.895210,-0.391076
0.792415,0.280740,0.664832,0.681265,0.321182,-0.657815
0.282395,-0.854836,0.345986,0.730279,0.302149,-0.612698
0.036247,-0.055436,0.619718,0.852131,0.358797,0.380969
0.627628,0.207533,0.702431,0.668673,0.730122,0.140704
0.384248,-0.058559,0.706464,0.733711,0.679460,0.001567
0.064980,0.490490,0.441604,0.511625,-0.198786,0.835897
0.068167,-0.987695,0.333530,-0.131499,0.411321,0.901955
0.682186,0.521222,0.613201,-0.179557,-0.392404,0.902097
0.005156,0.436959,0.705593,0.213360,0.837956,0.502302
-0.481046,0.499235,0.344219,-0.383745,0.339286,-0.858851
0.224650,0.199788,0.408242,0.429381,0.762949,-0.483261
-0.603184,-0.073737,0.668826,0.133566,0.909596,-0.393441
0.233859,0.116212,0.040595,0.945545,-0.320639,-0.055995
-0.699707,0.260377,0.296276,0.283696,0.114511,0.952052
0.515248,0.336019,0.639317,-0.725511,0.277705,0.629693
0.274154,0.114901,0.885640,0.226297,-0.933853,0.276962
-0.705176,0.161748,0.620396,-0.608610,-0.478185,-0.633193
-0.474331,0.065055,0.491749,0.476501,-0.198929,0.856372
-0.063945,-0.927106,0.323083,0.003574,0.633249,0.773940
0.176667,0.300665,0.596047,0.824344,0.426636,0.372073
0.208587,0.096287,0.232509,0.339019,0.930843,-0.136372
0.108534,-0.231644,0.724156,-0.423854,0.403221,0.811024
-0.696382,-0.591493,0.471932,0.509365,0.824487,0.246513
-0.651792,0.017708,0.590734,0.841875,-0.464958,0.273971
0.211769,0.033074,-0.709511,-0.669024,0.726672,0.156063
0.655321,0.633530,0.472085,0.999920,-0.011956,0.004085
0.311961,0.456260,0.672820,0.718873,-0.159449,0.676608
0.000448,-0.480746,0.634030,0.701433,-0.649975,-0.292445
-0.730727,-0.396796,0.414182,0.889846,0.214189,-0.402861
0.176456,0.347450,0.694225,0.049245,-0.679243,0.732259
0.146201,0.267185,-0.826828,0.942248,0.101271,-0.319238
-0.186708,0.327837,0.663923,-0.436278,0.707265,-0.556271
0.743118,-0.166557,0.757646,0.878178,0.477671,0.025165
0.815266,0.601986,0.501504,0.351470,0.628264,-0.694085
0.248675,0.092914,0.287814,0.597149,0.801904,0.019050
-0.272079,-0.592617,0.582566,0.869778,0.489696,0.060704
0.497803,0.311534,0.790982,-0.554031,0.728453,0.402995
0.352189,0.098535,0.471087,0.092956,0.987842,-0.124606
-0.039226,0.199788,0.869945,-0.026150,0.947311,0.319247
-0.471558,-0.421843,0.437776,-0.328670,0.232762,0.915313
0.344920,0.370624,0.628000,-0.555288,0.667193,-0.496496
-0.862974,-0.416159,0.398346,0.285546,0.032454,0.957815
-0.171334,0.838658,0.589735,-0.166512,-0.913428,0.371379
-0.108120,0.154440,-0.992588,-0.505413,-0.362092,0.783228
-0.253729,0.238577,0.471612,-0.518209,-0.020721,-0.855003
0.729269,0.523658,0.698514,0.939593,0.269362,0.211208
0.087416,0.570318,0.558639,-0.155201,0.693366,0.703674
-0.151809,-0.020706,0.828351,0.546982,0.814839,-0.191958
0.599583,0.575065,0.622368,-0.747319,0.605758,-0.273077
-0.756067,0.128705,0.635182,0.760518,0.316816,0.566781
0.363958,0.889441,0.604906,-0.566411,-0.208491,0.797315
0.339933,0.080046,0.863032,0.231970,0.954316,-0.188339
0.023298,0.194728,0.255809,-0.119739,0.894764,-0.430187
-0.722072,-0.306787,0.403864,-0.255443,-0.412920,-0.874212
-0.129999,-0.342266,0.763509,0.964112,0.215421,-0.155185
0.131938,0.080046,0.832998,0.061636,-0.900076,0.431351
0.019005,-0.237765,0.758209,0.547395,-0.789680,-0.277065
0.263145,-0.165433,0.606852,-0.655474,0.729807,0.194255
-0.689667,0.221525,0.310320,-0.429227,0.459355,0.777661
0.107495,0.084981,-0.704876,0.414069,0.898168,0.147787
-0.738621,0.376808,0.439274,0.482981,0.693680,-0.534357
-0.660654,0.088416,-0.305455,0.018277,-0.996829,-0.077446
0.527710,0.742528,0.737944,0.405760,0.911139,-0.072000
-0.140868,0.535713,0.675918,0.137358,0.081672,-0.987149
0.088384,0.911490,0.620025,0.043407,0.921590,-0.385731
-0.380508,-0.147131,0.597532,0.618137,0.299305,-0.726858
-0.527301,0.370624,0.455814,-0.200535,-0.477376,0.855511
0.003702,-0.372747,0.019024,-0.813716,0.481987,0.324892
0.080976,0.529717,0.742104,0.124840,0.877818,-0.462439
0.610592,0.217215,0.757172,-0.087478,0.804149,-0.587956
-0.133185,0.717605,0.551509,-0.495212,0.102936,0.862653
0.399897,-0.602861,0.190417,-0.458878,0.427797,0.778730
-0.551254,0.783316,0.570916,-0.226830,-0.866413,0.444832
0.691255,0.459946,0.647652,0.035376,0.972632,0.229644
-0.637183,-0.259440,0.426971,0.666810,-0.137161,-0.732497
0.454595,-0.722665,0.567178,-0.516875,-0.369466,0.772228
-0.449680,0.358631,0.454188,0.579018,0.314336,-0.752284
-0.797474,-0.201537,0.314570,0.121187,0.291803,0.948770
-0.051135,-0.658328,0.288864,-0.490499,-0.126425,-0.862222
0.381961,0.123208,0.346319,0.245988,-0.939383,0.238852
-0.766175,0.439770,0.321278,0.928185,0.136437,-0.346204
0.127919,0.079671,0.887381,0.260011,0.677137,-0.688389
0.140175,0.381430,0.479882,0.939360,-0.119040,0.321609
0.668409,-0.619476,0.398205,0.050624,-0.141292,0.988673
0.395950,0.406352,-0.007118,0.751844,-0.236078,0.615628
0.310574,0.042194,0.884257,0.277530,0.949502,0.146369
0.379261,-0.629532,0.479933,0.403030,0.498460,0.767531
-0.002045,0.470939,0.701036,0.007952,0.686403,0.727178
-0.662108,-0.460196,0.171111,-0.438152,-0.535552,0.721946
-0.636976,0.053062,0.499942,0.013742,-0.794333,0.607327
-0.049263,0.012336,0.872441,0.810283,0.480943,0.334865
0.153263,0.280177,0.590414,0.575160,0.531865,0.621539
-0.552087,0.729973,0.538540,0.527815,-0.849080,-0.021772
0.251515,0.019082,0.635054,0.852058,-0.407391,0.328680
0.187811,0.601487,0.591220,-0.695609,0.227419,-0.681475
0.030639,0.792123,0.650788,-0.534060,0.034394,0.844747
-0.204918,0.433149,0.451602,0.695351,-0.238047,0.678101
-0.023924,0.544770,0.732093,-0.771444,0.573255,-0.276138
0.081183,0.246010,0.637909,0.235084,-0.537905,0.809564
-0.555619,-0.076174,0.533829,0.209261,-0.911984,0.352838
-0.351153,-0.083981,0.266204,0.130674,0.303444,0.943847
0.180196,0.083794,0.181301,-0.368254,-0.767530,-0.524677
-0.635315,0.111777,0.592437,-0.640639,-0.288987,0.711385
0.334258,0.355695,0.444523,-0.268128,0.644747,-0.715827
-0.097111,-0.162622,0.410495,0.440153,-0.835942,-0.327820
0.818380,0.403542,0.699704,0.819642,0.526109,-0.226707
0.708151,0.413661,0.699333,-0.694015,0.120846,0.709746
-0.143361,-0.681189,0.186499,0.319370,0.944236,0.080131
0.482360,0.389987,-0.048942,0.987127,-0.144576,0.068391
0.721932,0.625347,0.623328,0.633930,0.714094,-0.296989
-0.188297,0.477185,0.693329,0.765819,0.641550,-0.043976
-0.619733,0.221275,0.428431,0.680417,0.637282,-0.361807
0.268271,0.909991,0.346767,0.879300,0.350025,-0.322978
0.248396,0.022018,0.974345,-0.454954,0.875794,-0.161247
0.566071,0.332521,0.777668,0.460308,-0.851684,-0.250503
0.434031,-0.651707,0.628180,0.451427,0.580425,0.677732
-0.473777,0.295543,0.257755,-0.071207,-0.748411,0.659402
0.776145,0.758831,0.413209,0.869567,0.412360,0.271685
0.231158,-0.036072,-0.196638,0.943180,0.138957,-0.301830
-0.035207,0.429464,-0.982244,-0.178724,-0.092894,0.979504
0.648466,-0.410225,0.404773,0.135613,0.532436,-0.835537
-0.746790,0.406352,0.439223,-0.569026,-0.670860,0.475558
-0.742983,0.071239,0.648701,-0.378953,-0.662055,0.646589
0.443861,-0.729286,0.626311,0.851739,0.523966,-0.001064
-0.202218,0.695493,0.082035,-0.098241,-0.616759,0.780998
0.048084,-0.310160,0.709139,-0.599832,0.660643,-0.451390
-0.564482,0.151941,0.594216,-0.126959,0.420823,0.898215
0.365898,-0.802867,0.684419,0.090094,0.860803,0.500900
0.090599,0.490115,0.725180,0.055759,-0.546889,0.835346
-0.377807,0.560511,0.488126,-0.440524,0.271185,-0.855802
-0.430363,-0.421406,0.178498,-0.163342,0.011073,-0.986507
-0.331003,-0.291795,-0.265961,0.229516,-0.661403,0.714050
-0.337304,-0.438146,0.170292,0.261104,0.059385,0.963482
-0.339033,-0.240638,0.170369,0.169401,0.007995,0.985515
-0.270765,-0.052937,-0.222895,0.015931,-0.782675,0.622227
-0.193838,-0.412037,0.483453,0.188386,-0.618648,-0.762748
0.698803,-0.301165,0.451321,0.874039,0.086458,0.478101
-0.490669,-0.425404,-0.065111,0.493945,-0.440352,-0.749739
0.216688,0.909804,0.527377,0.919723,0.383907,0.082009
0.014229,-0.493925,0.623456,-0.147548,0.799733,0.581942
0.023298,0.368500,0.440426,0.058274,-0.816752,0.574038
-0.523628,0.694494,0.349545,-0.280586,-0.276365,-0.919181
0.267160,0.122771,0.802043,0.958624,-0.212388,-0.189554
0.076615,0.229770,0.733834,-0.252297,-0.967080,-0.033212
0.455081,-0.649521,0.616287,-0.440042,-0.588213,0.678504
0.354268,0.266998,0.589479,0.063498,-0.792904,0.606029
-0.881737,-0.117399,0.348175,0.944016,0.076155,-0.320990
0.505346,0.216403,-0.179240,-0.635553,0.757054,0.151464
0.861448,-0.163684,0.246015,-0.131149,0.900656,-0.414269
0.348795,-0.580249,0.196165,-0.688310,0.254774,0.679205
0.418454,-0.764515,0.600860,0.351444,0.919677,-0.175161
-0.619666,0.774509,0.560560,0.059940,0.922921,-0.380295
0.721586,-0.378806,0.489496,-0.719188,0.664295,0.203668
0.546339,-0.641713,0.526788,0.108742,0.480475,0.870241
0.424336,0.524033,0.507150,0.933938,0.203849,-0.293608
0.421496,-0.790437,0.556002,0.545180,0.573747,-0.611222
-0.881463,0.634280,0.280632,0.095696,0.092145,0.991137
-0.126677,0.287673,0.747571,0.458890,-0.877903,-0.136768
0.195220,0.101221,-0.016591,0.824907,-0.509137,0.245575
-0.810076,0.605172,0.398256,-0.622685,0.141876,-0.769503
0.234966,0.017771,0.614571,-0.041256,-0.072051,0.996547
0.649781,0.547081,0.678824,0.697444,0.290346,-0.655188
0.146336,0.900684,0.519376,0.935081,0.352125,-0.040396
-0.864360,0.252944,0.315492,0.060403,-0.549039,0.833611
0.369566,-0.741341,0.573272,0.754871,-0.180497,-0.630548
-0.770055,0.009338,0.319268,-0.362499,-0.572290,0.735581
0.166347,0.985134,0.505370,0.767066,0.534899,0.354249
0.287242,0.257316,0.242764,-0.161351,-0.610566,0.775355
-0.390756,-0.125144,0.503322,-0.716662,0.261736,-0.646444
0.107980,0.105094,-0.708397,0.548972,0.834192,0.052470
0.139000,-0.066554,0.937027,0.763577,0.516022,0.388164
0.458056,0.037821,0.858794,-0.748557,-0.634246,-0.193378
0.403079,-0.594678,0.573195,0.868112,0.348411,-0.353542
0.604777,0.291421,0.643747,-0.669318,0.134414,0.730716
0.501817,0.235454,0.643990,-0.555717,0.711342,0.430316
-0.263910,0.683875,0.376979,-0.091216,-0.976298,0.196270
-0.196678,0.182798,0.817994,0.940862,-0.321699,-0.106246
-0.146548,-0.149380,0.710893,0.417763,-0.835167,-0.357728
0.673945,0.469190,0.568292,0.451199,-0.583699,0.675066
0.020112,-0.052625,0.668736,0.257131,0.000017,0.966376
-0.103619,-0.616228,0.559779,0.312076,0.636301,0.705500
-0.017830,0.645086,-0.980515,-0.131506,-0.054790,0.989800
0.799481,-0.268372,0.724758,-0.207469,0.973809,0.093022
0.465464,0.820357,0.542086,-0.345881,0.831422,-0.434861
0.342287,-0.232955,-0.203897,-0.566702,-0.027002,0.823480
0.566071,0.045442,0.580889,0.377540,0.904967,-0.196209
-0.735435,0.313408,0.314698,0.402434,-0.378163,0.833690
-0.266264,0.194603,0.462036,0.779063,-0.160426,0.606073
0.328785,-0.518473,0.511989,0.849675,0.018637,-0.526977
-0.731902,0.175927,0.395261,-0.183905,-0.790664,0.583977
-0.304485,-0.486930,0.475299,0.200921,0.888824,0.411854
-0.098772,-0.132203,0.900618,0.696284,0.576180,0.428025
0.212741,0.486118,0.701663,-0.582253,-0.169850,-0.795068
0.487483,-0.779693,0.675470,-0.496695,-0.766822,-0.406544
-0.877237,-0.160811,0.320459,-0.591505,0.762814,-0.261221
0.017551,0.543646,0.740094,-0.258328,0.913523,-0.314232
-0.065331,0.710672,0.576575,0.020916,-0.778665,0.627091
0.260652,-0.158500,0.829555,0.755730,0.330368,0.565446
-0.423162,0.542334,0.502964,0.760739,-0.491437,0.423989
-0.053004,0.049502,0.844904,-0.618642,0.605060,-0.501183
-0.131106,0.326837,0.637948,-0.263019,-0.947975,-0.179346
-0.607964,-0.677816,0.480394,0.741198,0.557632,0.373728
-0.171473,0.296855,0.275742,0.239885,-0.572014,0.784382
0.842410,0.036510,0.414003,-0.683275,0.110262,0.721787
-0.399758,0.069303,0.278084,0.724681,-0.130876,-0.676542
0.037840,0.145258,-0.921089,-0.342567,0.936776,0.071411
0.643898,0.440707,0.434640,0.785774,-0.603369,-0.136035
0.693056,0.216840,0.716334,0.379465,0.878321,0.290789
0.144122,0.809863,0.655806,0.301306,0.216127,0.928711
0.142182,0.435648,0.593243,0.852964,-0.017847,-0.521665
0.900362,-0.355758,0.544032,0.948200,-0.298456,0.108819
0.031332,0.465442,0.459591,0.642372,-0.094636,0.760528
0.348867,-0.805803,0.545274,0.731073,0.405914,-0.548421
-0.971195,0.595303,0.438544,-0.729412,0.323995,-0.602483
0.151044,-0.097473,-0.234762,0.727592,-0.351175,-0.589310
0.313000,0.193416,0.777847,-0.035390,0.996507,-0.075635
-0.518646,-0.112527,0.277687,-0.572279,-0.224905,-0.788616
0.396085,0.575002,0.517494,0.849608,0.439068,-0.292206
0.030014,0.812486,0.674523,0.079437,-0.165004,0.983089
0.137681,0.218839,0.423784,-0.610845,0.608831,0.506155
-0.466437,0.712671,0.508661,0.009562,0.298510,0.954359
-0.250894,0.002655,0.245286,0.535892,0.624071,0.568644
-0.234412,0.417783,0.454944,0.835476,-0.302010,0.459096
0.145022,0.535713,0.176386,-0.661844,-0.268025,-0.700089
0.430498,-0.778694,0.567114,0.478000,0.158694,-0.863905
0.090806,0.334520,0.471663,0.985336,0.160918,-0.056730
0.769569,0.465317,0.690589,0.873894,0.480516,-0.073577
-0.861727,0.507168,0.382945,-0.075067,0.959413,0.271831
0.037701,0.132140,-0.889583,0.950586,0.308591,0.034034
-0.487968,-0.161810,0.272912,-0.450731,-0.387726,-0.804059
-0.252969,-0.680127,0.286162,0.053005,0.678517,0.732670
-0.706491,-0.003779,0.664204,-0.118454,0.969680,-0.213751
0.117743,0.221899,-0.963860,0.130544,0.704236,0.697861
0.206300,-0.327274,0.697413,0.316397,0.948309,0.024569
0.703651,-0.030701,0.458311,0.807105,-0.258642,-0.530740
0.402804,0.236891,0.550574,0.016921,-0.077221,0.996870
0.067960,0.446641,0.718894,0.383286,-0.686594,0.617803
-0.300398,-0.179924,0.735678,0.572425,0.816040,-0.080058
-0.074814,-0.801243,0.621945,0.903349,-0.402577,-0.147962
-0.426762,-0.584622,0.484465,0.811853,-0.565817,-0.144030
0.853418,0.371748,0.715976,0.963406,0.248891,-0.099510
0.657814,0.633780,0.700165,-0.612250,-0.241912,0.752747
0.209901,0.773884,0.679797,-0.326863,0.837108,-0.438647
0.402386,0.687311,0.530270,-0.280033,0.614484,-0.737557
0.384041,0.868953,0.580736,-0.454045,-0.599063,0.659521
0.634829,0.588369,0.693995,0.721837,0.482817,-0.495822
0.685301,0.364627,0.834445,-0.180973,-0.751209,0.634771
0.031886,-0.175052,0.504180,-0.666292,0.171509,-0.725699
-0.270418,0.369624,0.326361,0.134113,-0.563068,0.815456
-0.672496,0.007839,0.562416,-0.706624,-0.558750,-0.434145
-0.324981,0.463756,0.485835,0.732837,-0.007348,0.680364
-0.115668,-0.272432,0.456864,0.477790,-0.585859,-0.654589
0.686341,0.618352,0.664396,0.731117,-0.614514,0.296380
0.620148,0.415909,0.445521,0.426458,-0.887033,0.176938
0.560809,0.218901,0.754151,0.008797,0.992841,-0.119122
-0.891432,0.497361,0.282514,0.644519,0.053993,0.762679
0.019212,-0.340517,0.022109,-0.708415,0.531549,0.464331
-0.005781,0.287798,0.732695,0.838654,0.462401,-0.287828
0.040401,0.802242,0.682703,-0.141000,-0.350215,0.925996
-0.421983,0.446579,0.327065,-0.221814,0.667048,-0.711228
-0.675471,0.249133,0.421505,0.031953,-0.960883,0.275105
-0.641058,0.251507,0.431093,0.757907,0.502857,-0.415585
-0.033132,-0.852962,0.330598,-0.084356,0.475963,0.875410
0.864356,-0.298979,0.213358,0.038760,-0.758885,0.650070
0.318815,-0.505856,0.606429,-0.731361,-0.169489,0.660594
0.315075,0.114089,0.749056,-0.493105,0.868997,0.041127
0.177495,0.094600,-0.102813,-0.675920,0.728963,0.108372
-0.111649,0.493863,-0.182249,0.824160,0.536795,0.180584
0.068581,0.439770,0.703033,-0.294656,0.948462,0.116606
-0.185601,0.342640,0.775082,0.887423,0.415703,-0.199178
-0.718471,0.175552,0.396733,-0.155551,-0.715895,0.680660
0.442339,0.220463,0.739787,0.580366,0.384776,-0.717720
-0.164272,0.804803,0.585293,-0.381526,-0.796019,0.469884
0.160811,-0.051563,0.607748,0.843197,0.426775,0.326928
-0.619940,0.297230,0.442526,0.350202,-0.239116,0.905639
0.293958,-0.557138,0.493183,0.589455,0.344655,-0.730586
0.095860,0.553890,0.720456,-0.391402,-0.046371,0.919051
0.425515,0.827290,0.386530,0.503313,0.566827,-0.652215
-0.514352,0.654643,0.536274,-0.632253,0.507009,-0.585831
0.492190,-0.327150,0.300705,0.691453,-0.518589,-0.502950
0.515455,0.213529,0.409497,-0.141715,0.059711,-0.988105
-0.338551,0.588682,0.488971,0.525607,-0.164752,0.834622
-0.159078,-0.672819,0.585664,-0.357547,0.922692,0.144218
0.225964,0.130516,-0.620383,0.673060,-0.718577,0.175036
0.855565,-0.249695,-0.142204,0.988153,-0.030902,-0.150326
-0.076754,0.142072,0.533727,-0.673915,0.232122,-0.701397
0.654214,-0.201287,0.742540,0.723114,0.174636,0.668287
0.652900,0.297230,0.789382,0.788096,0.523034,0.324562
-0.651932,0.250820,0.419597,0.300527,-0.931597,0.204474
0.533323,0.416909,0.612062,-0.439530,0.891138,-0.112633
0.025031,0.237453,0.654629,0.772674,-0.481596,0.413570
-0.052310,-0.256129,0.749299,-0.494016,0.828255,0.264464
0.850511,-0.219901,0.794554,-0.166300,-0.986011,-0.011219
0.684747,0.420282,0.833267,-0.431411,-0.627569,0.648106
-0.215302,0.155876,0.406232,0.193176,0.947753,-0.253863
0.333285,0.020019,0.896957,-0.071346,0.979529,0.188234
-0.485547,0.049314,0.608772,-0.536816,-0.752867,-0.380814
0.141421,-0.824479,0.317681,0.417373,-0.395421,-0.818194
-0.190309,-0.529279,0.485489,-0.172376,0.508078,0.843886
0.583173,0.238015,0.419597,0.849915,0.291551,-0.438910
0.150702,0.093913,-0.553134,0.984565,-0.131369,-0.115643
0.180196,-0.080359,0.920794,0.984091,-0.149992,-0.095220
-0.172306,0.225148,0.278660,-0.085631,-0.771748,0.630137
-0.436317,-0.636278,0.471842,0.599411,-0.797408,-0.069625
0.047603,0.233767,-0.131041,0.000823,0.037294,0.999304
-0.420461,-0.490990,0.453177,-0.614311,0.785170,0.078302
0.947098,0.485118,0.416640,0.139925,0.391838,0.909332
-0.049403,0.344764,0.693777,0.874767,-0.418016,-0.245040
-0.265292,-0.002655,0.361156,0.776803,-0.567360,0.273277
0.843238,0.637090,0.377927,0.815072,0.573860,-0.079636
0.344920,0.161623,0.658482,-0.274224,0.941590,0.195470
0.810418,0.615853,0.658226,-0.177714,0.940962,-0.288111
0.067474,-0.894688,0.319857,0.293468,-0.385143,-0.874952
0.213848,0.105156,-0.466017,0.561245,-0.826187,-0.049177
0.306146,0.712858,0.628436,0.564476,0.803306,-0.189910
0.245214,-0.036634,0.832704,0.894174,-0.380665,-0.235685
0.127645,0.753521,0.221180,-0.334319,-0.840598,0.426175
-0.363755,-0.450639,0.443422,-0.663937,0.509294,0.547547
0.243553,0.163309,0.641801,0.803598,0.093118,0.587843
-0.695207,0.101409,0.506868,0.389104,-0.713130,0.583133
-0.446219,0.677317,0.510811,0.153497,-0.026792,0.987786
0.194738,0.390424,0.580364,0.858995,0.488119,0.154494
0.451134,0.230207,0.544890,-0.012788,-0.644709,0.764322
0.184004,0.039320,-0.286303,0.384053,-0.872044,-0.303385
0.379122,-0.707361,0.558985,-0.800359,0.444636,0.402151
-0.312033,0.375433,0.467003,0.911774,-0.020724,0.410168
-0.037980,-0.133577,0.445022,0.936293,0.254552,-0.241989
-0.003499,0.316593,0.652311,0.755862,-0.351661,0.552274
-0.338826,-0.557950,0.173095,0.133929,-0.002282,0.990988
0.148483,0.216590,0.852854,0.956874,0.059759,-0.284290
-0.062973,0.691808,0.639228,0.250493,-0.713971,0.653833
0.150009,0.306599,0.524177,0.128523,0.959968,-0.248884
-0.380165,-0.344014,0.463354,0.821017,-0.198213,0.535390
0.078761,-0.104407,0.893142,0.899204,0.364504,0.242009
-0.205539,-0.678191,0.579622,-0.437523,0.873146,0.214920
-0.449266,0.132140,0.575039,0.483872,0.666375,0.567285
0.040955,0.579000,0.723030,-0.164744,0.867671,0.469048
0.402940,-0.852962,0.532818,0.562453,0.317177,0.763574
0.429530,-0.101034,0.481879,-0.338788,0.769140,0.541892
0.126398,0.224023,0.398794,-0.244645,-0.969451,-0.017711
-0.257609,0.125582,0.584384,-0.471763,-0.881688,0.008109
0.722833,0.478622,0.670529,-0.024054,-0.996261,0.082973
0.460271,0.289359,0.840244,0.926436,-0.034351,-0.374882
0.705311,-0.010275,0.610833,0.389664,0.903245,0.179749
-0.022817,0.362878,0.759605,-0.027478,0.902299,-0.430234
-0.150216,0.428402,0.677621,0.473191,0.614897,-0.630866
0.297144,0.312783,0.439479,0.015353,-0.911688,0.410595
-0.173620,-0.212093,0.426831,-0.275370,0.725594,0.630622
0.293544,-0.635591,0.486539,0.521407,0.530113,0.668666
-0.124598,0.151254,0.449221,-0.141440,0.954216,0.263565
0.584074,0.087042,0.732234,0.026490,-0.875972,0.481634
0.619040,-0.799994,0.479677,0.142971,-0.695461,0.704197
0.251376,0.104032,0.886971,0.505251,-0.823866,0.256839
0.745679,-0.183735,0.700242,0.656712,0.352337,-0.666774
0.281427,0.305662,0.249792,0.216135,0.809010,-0.546615
-0.453213,-0.200412,0.524663,-0.449333,-0.829808,0.330936
-0.005160,0.179799,0.391177,0.279362,-0.939336,0.199010
0.326431,0.114901,-0.302229,-0.007915,0.997347,0.072366
0.554854,0.431837,0.619564,-0.779188,0.260233,-0.570214
0.498217,0.371623,0.864978,0.684924,0.566780,-0.457864
-0.438811,-0.100159,0.262287,0.236021,0.221376,0.946196
-0.125016,-0.155876,0.394736,-0.214927,0.976595,-0.008316
-0.172027,-0.143196,0.656741,0.916592,0.088438,-0.389920
0.629982,0.213717,0.728394,0.671457,0.535376,0.512366
-0.181307,-0.212967,0.691114,-0.622020,0.500312,-0.602311
0.273461,-0.263750,0.862417,0.930036,0.015965,-0.367120
-0.936786,-0.230894,0.312765,0.542155,-0.314048,-0.779385
-0.127991,0.387301,-0.986097,-0.061994,-0.145311,0.987442
-0.830086,0.286611,0.312867,-0.434574,0.407421,-0.803215
0.626102,0.546394,0.661631,0.625831,0.611125,-0.484625
-0.495863,-0.114651,0.275383,-0.479212,-0.328842,-0.813768
-0.618419,0.051251,0.671553,-0.017900,0.962685,0.270030
-0.020463,-0.693182,0.289209,-0.474936,-0.474066,-0.741416
0.469137,0.913301,-0.024657,-0.791119,0.380683,0.478760
0.025585,-0.113714,0.363256,-0.553169,0.831487,0.051319
0.408552,-0.269621,0.130887,0.111066,0.617057,0.779041
-0.006267,0.237016,0.532203,-0.338850,0.812141,-0.474982
0.199306,0.400419,0.700037,0.409033,-0.513420,0.754382
-0.710991,-0.173366,0.299310,0.287252,0.187818,0.939261
-0.623266,0.144383,0.395350,-0.292509,0.546971,-0.784386
0.801903,0.354258,0.725487,0.777177,0.452612,-0.437193
0.179296,-0.106655,0.912691,-0.612113,0.716667,0.334225
-0.383766,-0.252132,0.182108,0.166218,-0.045549,0.985036
-0.069692,0.259565,0.687286,0.875162,-0.195345,-0.442641
-0.602423,-0.015834,0.639561,0.421752,0.814939,-0.397491
0.672010,-0.092289,0.476489,-0.222343,0.754853,0.617058
-0.139346,0.202848,0.858436,0.364153,-0.915528,0.170883
0.821360,0.104094,0.748531,0.804878,-0.078499,-0.588225
-0.554926,-0.368750,0.430569,0.440881,-0.350539,-0.826284
-0.347760,0.609107,0.046279,0.193756,0.803557,-0.562810
-0.743811,-0.063743,0.582605,-0.580299,0.245605,-0.776487
0.403151,0.040445,0.594715,-0.294201,-0.881686,-0.368883
-0.387088,0.229770,0.021328,-0.433839,-0.025660,-0.900625
-0.034519,0.389675,0.672090,-0.256885,-0.372586,0.891734
-0.420461,0.303976,0.450527,-0.418907,0.312122,-0.852700
0.781271,-0.132390,0.701881,0.556553,0.446114,-0.700879
-0.233098,0.403354,0.435920,0.757301,0.063602,0.649961
0.265778,0.001905,0.692164,0.534603,0.713189,0.453388
0.359250,-0.417596,0.493157,0.651501,-0.624846,-0.430249
-0.613918,0.713295,0.358058,-0.293077,-0.263525,-0.919054
-0.841924,-0.162060,0.308054,-0.280547,0.528857,0.801002
0.461310,-0.137637,0.799252,0.169477,0.789426,0.589986
0.140868,-0.025641,0.832153,0.577132,-0.469932,-0.667894
-0.762786,0.044505,0.321022,0.504304,0.806174,-0.309453
0.230051,0.102158,-0.307030,-0.231458,0.960408,0.155063
-0.251515,0.579999,0.360939,-0.554605,-0.764683,0.328135
0.379814,0.094787,0.934480,0.275491,0.690563,-0.668751
0.156724,0.142509,-0.132628,-0.369412,-0.425616,0.826066
0.489354,-0.763765,0.571057,0.827685,0.340869,-0.445809
0.031260,0.190231,0.770461,0.558670,0.583288,0.589630
0.872322,-0.542584,0.608862,0.980532,0.070144,-0.183405
0.220149,0.898810,0.511899,0.956593,0.254331,0.142284
-0.914697,0.578625,0.425461,-0.729412,0.323995,-0.602483
0.154510,0.927106,0.517545,0.742172,0.651231,0.158363
0.716667,-0.638152,0.595509,0.173333,-0.983842,-0.044849
-0.148001,0.086480,0.872556,0.459174,0.859655,-0.223946
-0.185669,-0.459508,0.527377,-0.097991,0.895043,0.435082
-0.476338,-0.272307,-0.074520,0.455247,-0.466217,-0.758546
-0.102647,0.324838,0.776951,-0.057124,-0.759616,0.647858
-0.722418,-0.111403,0.555426,0.805509,0.303335,0.509060
0.182689,0.651082,0.592885,0.498046,-0.669865,0.550664
0.622708,0.352947,0.671796,0.981234,0.191143,0.025402
0.052932,-0.159624,0.513935,-0.591640,0.304131,-0.746637
0.892679,-0.185234,0.738904,-0.065359,0.986260,-0.151720
-0.557073,0.208408,0.299963,0.876353,-0.460665,0.140690
0.240367,-0.141572,0.603344,-0.629587,0.775983,-0.038346
-0.024338,0.685624,0.475759,0.938370,-0.287854,-0.191317
-0.070520,0.306474,-0.986916,-0.320450,0.021159,0.947029
0.452727,0.788501,0.390165,0.465964,0.743953,-0.478970
0.251308,0.656829,0.079667,-0.049980,-0.853031,0.519462
-0.549179,0.217090,0.406514,-0.382602,0.911280,-0.152263
-0.191416,0.004216,0.470831,0.371384,0.594078,0.713544
0.621327,0.339017,0.777796,0.303435,0.790760,0.531625
0.511440,0.044817,0.311216,0.540387,0.244920,-0.804982
0.331764,-0.325276,0.475951,0.998651,0.047320,-0.021364
0.135814,-0.039758,0.910950,-0.155916,-0.888299,0.431989
0.572718,0.397420,0.613381,-0.279008,0.758482,0.588948
0.577012,-0.075237,0.803848,-0.499694,-0.780747,-0.375155
0.400311,0.581936,0.497011,-0.711588,-0.275612,-0.646282
0.272633,-0.085918,0.771562,0.379949,-0.077517,-0.921754
-0.079869,0.324401,0.544455,-0.508912,0.580153,-0.635949
-0.020255,-0.509354,0.669632,0.991033,-0.054776,0.121874
0.550633,0.322590,0.696337,-0.815171,0.561838,-0.140831
0.146615,0.060933,0.887151,0.519509,0.447836,-0.727704
0.069413,-0.312033,0.719176,0.481304,-0.837749,0.257922
0.164619,-0.192729,0.114322,0.187756,0.398855,0.897587
0.243895,0.275430,0.676609,-0.777721,0.532055,-0.334766
0.016304,-0.487804,0.659980,0.955474,0.141128,-0.259139
-0.276305,0.682064,0.378247,-0.091216,-0.976298,0.196270
