0.188742,-0.252758,-0.126102,0.304177,0.941062,0.147914
-0.842780,-0.053115,0.355759,-0.709102,-0.277655,-0.648138
-0.082007,-0.367555,0.382247,0.151063,-0.639680,0.753651
-0.083654,0.449104,0.623262,-0.529554,0.816345,-0.230550
-0.557907,-0.374872,0.340861,0.950644,0.276585,-0.140627
-0.449114,-0.517724,0.142171,-0.060277,0.268152,0.961489
0.102062,-0.056185,0.928442,0.474502,0.810962,0.342329
0.801356,-0.463813,0.685706,0.671785,0.438047,-0.597343
-0.048529,0.356636,0.205078,0.922544,-0.118113,-0.367370
0.325702,-0.354514,0.734461,-0.048823,0.983445,0.174507
0.827874,-0.048223,0.544628,0.513298,-0.732535,-0.447121
0.717599,-0.312583,0.485307,0.977143,-0.160425,0.139481
-0.237868,-0.078857,0.698493,0.222631,0.170409,-0.959894
-0.516564,0.431550,0.276819,0.755127,0.558596,-0.343152
0.075542,-0.190734,0.871306,-0.732042,0.681147,0.012373
0.644754,-0.555332,0.579815,0.344329,-0.205316,-0.916124
-0.452449,-0.117792,0.175223,-0.427609,0.521562,0.738325
0.006856,0.387763,0.615088,0.229762,0.859108,0.457322
-0.121538,0.421239,0.649738,0.580353,0.664504,-0.470771
0.645619,-0.275050,0.620627,-0.486049,-0.231228,-0.842787
0.212626,-0.343821,0.632938,0.965793,-0.101141,0.238775
-0.008667,-0.552412,0.448924,0.266545,-0.630888,0.728652
-0.404023,0.526975,0.293242,0.749166,0.662312,0.009660
0.339580,-0.200173,0.742074,0.951226,0.270819,0.147738
0.638001,-0.504530,0.597091,0.815900,-0.285515,0.502781
0.178982,0.155856,0.552034,0.350350,0.112940,0.929785
-0.175687,-0.048565,0.537978,0.452155,-0.040071,-0.891039
0.197061,-0.124349,0.573666,-0.315292,-0.287958,-0.904252
-0.622023,-0.003790,0.316777,-0.144092,0.379242,0.914009
0.258046,-0.531448,0.789975,0.706408,0.628808,-0.324944
-0.823510,-0.140577,0.415421,0.088126,-0.781281,0.617927
0.003521,-0.572507,0.696528,-0.285526,0.328293,0.900388
-0.222673,-0.022103,0.599995,0.601361,0.357253,-0.714658
-0.249974,0.788415,0.164962,0.350493,0.817733,0.456582
-0.052070,0.066006,0.882945,-0.037512,-0.730448,0.681937
-0.064135,-0.159191,0.592467,-0.370390,0.786978,0.493434
-0.642983,0.616143,0.304942,0.594477,-0.395272,0.700255
0.317178,-0.731128,0.678483,-0.029639,0.895169,0.444740
-0.162922,-0.012625,0.625214,-0.411544,-0.141563,0.900328
-0.669090,-0.054743,0.389079,0.245520,-0.749917,-0.614283
-0.316477,-0.085491,0.763157,0.873737,0.486050,-0.018429
-0.300377,0.103688,0.538430,0.018063,-0.722454,0.691183
0.170048,-0.197824,0.275331,0.651370,0.750247,0.113345
0.757211,-0.128785,0.333333,0.913977,-0.036998,-0.404076
-0.480285,0.600598,0.280443,0.675139,0.663895,0.321608
0.344398,0.175002,0.812363,0.712018,-0.653122,0.257801
0.181124,-0.139818,0.435564,-0.536626,0.320808,0.780458
-0.026086,0.048452,0.881676,-0.297295,-0.725303,0.620927
0.689515,0.080109,0.594737,-0.080737,0.273169,-0.958572
0.183636,-0.522613,0.491273,-0.102200,0.112037,0.988435
0.230251,-0.297343,-0.525497,0.746540,-0.664410,-0.035181
-0.339866,0.746520,0.192597,0.037632,0.921879,0.385647
0.093867,-0.702127,0.626666,-0.586779,-0.354957,0.727802
0.860816,-0.052015,0.433356,-0.776772,0.521034,-0.353764
0.511171,-0.416234,0.722126,0.809375,0.214281,0.546805
0.304907,-0.592069,0.677605,0.907141,0.402117,-0.124088
0.796703,-0.722143,0.433478,-0.706743,-0.494744,0.505709
0.882476,-0.167759,0.571201,-0.508520,-0.415173,0.754347
-0.291359,-0.204762,0.546128,-0.134854,0.806879,0.575118
-0.246309,-0.272623,0.701836,0.834799,0.548116,-0.051753
0.009327,0.220230,0.608890,0.706414,-0.303544,0.639406
-0.021803,-0.082231,0.815657,0.849154,0.433832,0.301209
-0.503345,0.587709,0.310201,-0.179244,-0.514202,0.838730
-0.430130,0.339577,0.301770,-0.255735,0.049016,0.965504
0.490951,-0.066269,0.857946,-0.161190,0.744912,0.647398
-0.194506,-0.105546,0.599288,-0.027784,0.355858,0.934127
-0.590644,-0.536376,0.443617,0.908613,0.030238,0.416544
-0.552883,-0.142472,0.524850,0.110315,-0.758357,0.642437
-0.122939,-0.231224,0.597567,0.356587,0.854058,-0.378722
-0.543865,0.900595,0.188680,0.871672,0.380681,-0.308658
0.300007,-0.810781,0.628191,0.047703,-0.996702,-0.065651
0.351274,-0.750996,0.694967,0.859730,0.361064,-0.361243
-0.309312,0.255602,0.476230,-0.212571,0.084734,-0.973465
-0.298523,0.348144,0.480976,-0.438874,0.482223,-0.758189
0.600035,-0.326154,0.789145,0.852324,0.511510,0.109091
0.676337,-0.507450,0.342887,-0.654836,0.352529,0.668516
0.037370,-0.298706,-0.068172,-0.070562,0.417350,0.906002
-0.130392,-0.163363,0.705825,0.374437,-0.071867,0.924463
-0.703103,-0.045342,0.301782,-0.723219,0.667124,0.178606
-0.060305,0.251698,0.541285,0.031689,0.193140,0.980659
-0.522124,0.133867,0.281089,-0.480705,0.819164,-0.312879
0.399535,0.345605,0.122124,0.764185,0.063845,0.641830
0.010481,-0.082421,0.775761,0.856725,-0.334470,-0.392622
0.795344,-0.439396,0.678056,-0.723121,0.214171,0.656678
0.025098,-0.013837,0.865888,-0.111757,-0.676402,0.728005
-0.351191,-0.462485,0.547690,-0.745466,0.666200,0.021400
-0.151517,0.430300,0.638940,-0.269225,0.354152,0.895597
-0.529577,-0.349585,0.515858,0.668841,0.288101,-0.685310
-0.024438,0.041212,0.858739,0.886141,0.262955,0.381586
0.871978,-0.100731,0.421350,0.272108,-0.846248,0.458063
-0.264469,0.003793,0.720942,-0.640559,0.270216,-0.718796
0.488400,-0.510520,0.568627,-0.597267,-0.200407,0.776601
-0.781713,-0.437881,0.457270,0.831024,0.533142,0.158617
0.320637,-0.178869,0.804494,0.521854,-0.066995,0.850400
0.222262,-0.631003,0.443617,-0.027775,0.323389,0.945858
-0.163993,-0.066535,0.756630,0.238591,0.896245,0.373925
0.277852,-0.320355,0.833703,-0.711390,-0.700512,0.056631
-0.548107,-0.047087,0.367691,-0.270800,-0.945339,-0.181661
-0.203401,0.480874,0.390067,0.842355,0.379877,-0.382273
-0.467809,-0.070895,0.397851,-0.218390,0.822462,0.525227
0.118039,-0.865640,-0.478694,0.906335,-0.067006,-0.417213
-0.486297,-0.062137,0.391715,-0.419485,0.845577,0.330200
0.751818,-0.390225,0.665977,-0.220123,0.148875,0.964045
-0.258209,0.461576,0.368203,0.853738,-0.470588,0.222888
0.164117,0.189029,0.666356,-0.514538,0.264611,-0.815617
0.494246,-0.270841,0.797527,-0.151526,-0.966959,0.205011
-0.741646,-0.160063,0.397522,-0.336449,0.504250,-0.795320
0.342915,-0.336997,0.831921,-0.890792,0.175780,-0.419036
0.134181,-0.714750,0.257688,-0.477050,-0.195272,0.856908
0.143487,-0.050687,0.866279,-0.429031,-0.027742,0.902863
-0.156004,0.384692,0.606108,-0.568360,-0.660685,-0.490369
-0.305606,0.724117,0.278905,-0.035120,0.958922,0.281486
-0.256563,-0.083670,0.488772,-0.676586,-0.399424,0.618620
-0.049187,0.414869,0.652227,-0.143296,0.818727,-0.556015
-0.635694,-0.039124,0.395204,0.183662,-0.829837,-0.526915
-0.199159,-0.654358,0.365910,-0.558696,0.548813,0.621822
-0.060840,0.023126,0.632486,-0.520436,0.850104,0.080435
-0.281929,-0.496380,0.387042,-0.259620,0.930483,0.258454
0.362187,0.093074,0.510905,0.269887,0.709280,0.651217
-0.372851,-0.200782,0.189473,-0.076229,0.158363,0.984434
-0.068089,-0.309928,0.727299,-0.491429,0.532748,-0.688968
0.117833,-0.492208,0.353538,0.335739,0.457669,0.823297
-0.220367,-0.546611,0.470715,0.168761,-0.543741,0.822110
-0.268339,0.433521,0.370156,0.309715,-0.642519,0.700889
-0.620046,-0.180953,0.453597,0.934939,-0.259395,0.242083
-0.043011,-0.195663,0.772113,-0.512180,0.674737,0.531415
-0.041322,0.076733,0.872623,0.906252,0.229628,0.354934
-0.578043,-0.363802,0.183666,0.722125,-0.061017,-0.689067
0.305525,0.098686,0.802908,0.883829,0.384283,0.266781
0.478681,-0.269212,0.617943,0.257747,0.862733,0.435038
0.229674,-0.294536,-0.671309,0.998337,-0.045755,0.035077
-0.507093,-0.428669,0.484197,-0.449634,-0.197996,0.870992
0.275135,-0.508322,0.797442,0.429496,0.897943,0.096082
0.255452,0.169883,0.745649,-0.444619,-0.878518,0.174697
-0.465297,-0.481554,0.490273,-0.283333,-0.666092,0.689959
0.219379,0.240399,0.699395,0.969434,-0.210916,-0.125345
0.677903,-0.351064,0.631059,0.889500,0.199722,0.410975
0.424036,-0.122947,0.429854,-0.440437,0.653162,-0.615950
0.538018,-0.055313,0.865022,-0.420823,0.454731,0.784938
-0.560666,0.412291,0.298207,0.604429,0.795720,0.038656
0.200602,-0.332675,-0.239277,-0.298066,0.925073,-0.235367
0.537689,0.040226,0.645761,-0.601593,0.746032,-0.285519
0.479915,0.144027,0.407124,0.879716,-0.147402,0.452075
0.214190,-0.108770,0.977550,0.802175,0.529189,0.276540
0.406083,-0.632216,0.532927,0.296138,0.098827,-0.950019
0.542467,-0.536147,0.741659,0.196560,0.958844,0.204897
0.702569,-0.533683,0.579376,-0.289439,-0.192143,-0.937713
0.133152,-0.315806,0.750371,-0.897229,-0.089774,0.432343
-0.172888,0.061759,0.708473,-0.628016,-0.507441,-0.590000
-0.378904,0.093947,0.469678,-0.217838,-0.522649,0.824248
-0.022463,-0.838306,-0.977245,-0.217133,0.112477,0.969640
0.143034,-0.217157,-0.005667,-0.544885,0.837210,0.046694
-0.458214,-0.309965,0.506451,-0.370119,0.849293,-0.376447
-0.002985,-0.194941,-0.073260,-0.069587,0.335952,0.939305
0.288600,-0.508852,0.433246,0.439658,-0.135061,-0.887952
-0.021639,-0.154112,0.817573,0.965906,0.159234,0.204133
-0.368527,-0.271184,0.525509,0.485891,-0.271509,0.830778
-0.805966,-0.445047,0.433673,0.771701,0.585396,0.248575
-0.036422,-0.480191,0.672895,-0.186903,-0.156997,0.969752
0.036628,-0.150169,0.917681,-0.699445,0.707324,0.102321
0.101073,-0.268377,0.814645,0.243290,0.923993,-0.295038
-0.788589,-0.092012,0.361103,-0.183585,0.738831,0.648403
0.229551,-0.286916,-0.898257,-0.721210,-0.682136,-0.120611
0.195537,-0.139439,0.892254,0.831105,0.472597,-0.293114
0.157364,-0.851687,-0.964642,-0.251886,0.183654,0.950171
0.358769,-0.059482,0.832104,-0.299594,0.792281,0.531540
0.204760,-0.295219,0.859678,0.889259,0.446283,0.100255
0.519077,0.085112,0.444666,-0.651179,0.275715,-0.707070
0.214891,-0.003714,0.836228,-0.789839,0.271056,-0.550167
0.443803,-0.530992,0.688805,0.029880,-0.243987,0.969318
-0.210937,0.452894,0.327538,0.860714,-0.480237,-0.168947
0.263893,0.158814,0.813937,-0.539660,0.811946,-0.222512
-0.222632,-0.075444,0.811582,0.938957,0.194148,0.284020
-0.681895,-0.482540,0.427158,0.060162,-0.178078,-0.982176
-0.585991,-0.246387,0.541883,-0.044161,0.820763,0.569559
0.342832,0.173903,0.808959,0.830076,-0.455705,0.321414
-0.258745,0.425295,0.372388,-0.023938,-0.612654,0.789989
0.164942,-0.028584,0.874905,-0.564507,-0.370122,-0.737795
0.539089,-0.617848,0.575508,-0.483395,-0.433185,0.760711
0.200890,-0.665201,0.645639,0.386617,-0.586383,0.711816
-0.086742,0.345302,0.515968,0.130513,0.139003,-0.981654
-0.035064,-0.735184,0.183422,0.375212,0.378992,-0.845920
0.842039,-0.452780,0.341423,0.793861,0.171313,0.583470
0.254628,0.038291,0.694149,0.664045,0.488347,-0.566181
0.283865,0.145506,0.820099,-0.381884,0.823292,-0.419947
-0.277563,0.530006,0.513003,-0.617080,0.676303,0.402277
-0.098931,0.329417,0.512332,-0.086908,-0.066975,0.993962
-0.053305,0.412936,0.653716,-0.216222,0.874881,-0.433395
0.157241,-0.745345,0.525509,-0.420738,0.128103,0.898092
-0.241121,0.119763,0.506756,0.764733,-0.637602,0.092991
-0.332784,-0.048982,0.439420,0.940344,-0.299632,0.161162
0.767383,-0.113849,0.568371,-0.270836,0.453654,-0.849026
0.642078,0.176214,0.404818,0.779640,0.550043,0.299356
-0.323313,-0.167646,0.722699,0.691074,0.404604,-0.598926
-0.643476,-0.301283,0.535794,-0.365771,0.799353,0.476704
0.635035,-0.490199,0.362701,-0.231785,0.304462,0.923893
0.024604,-0.600447,0.220634,0.859743,-0.256971,-0.441370
-0.215672,0.498388,0.351281,0.945875,0.025851,-0.323500
-0.670490,-0.474807,0.430367,-0.195950,0.455492,0.868407
-0.326566,0.473671,0.509721,-0.780702,0.563155,-0.270853
0.640924,-0.384160,0.523533,0.949712,-0.030867,-0.311599
0.789990,-0.374037,0.636244,0.709768,0.658426,0.250408
0.221973,-0.223718,0.894804,0.909932,0.389636,-0.142152
-0.103790,-0.076696,0.882408,-0.690775,0.477073,-0.543352
0.337768,-0.341283,0.611366,0.092650,-0.219139,0.971285
0.827545,-0.241801,0.431221,0.125053,0.660444,0.740388
0.136693,-0.233499,0.832714,-0.039918,0.872407,-0.487148
-0.022339,-0.273229,0.755166,0.201873,-0.843612,0.497560
0.441579,-0.065550,0.862643,-0.249453,0.867159,0.431055
-0.227944,-0.510064,0.478609,0.515532,0.051417,0.855326
-0.724640,-0.464003,0.422766,0.555399,0.478167,0.680358
0.151064,-0.265343,-0.560733,0.875576,-0.477155,0.075424
0.216455,-0.758689,0.388018,-0.221617,-0.122402,0.967421
-0.711379,-0.049438,0.290460,0.777972,-0.622281,0.086749
-0.323931,0.067938,0.544884,0.062305,-0.636078,0.769106
-0.317425,0.251318,0.476132,-0.292742,0.095431,-0.951417
-0.102060,0.413769,0.642930,0.041689,0.000094,0.999131
0.144888,0.296547,0.547922,-0.142574,-0.057290,0.988125
-0.243633,-0.533230,0.471777,0.678493,-0.157848,0.717448
-0.098149,0.571294,0.317985,0.050279,-0.975550,0.213949
0.386398,0.009934,-0.014830,0.381484,-0.168765,-0.908839
-0.493175,0.356106,0.474290,0.184849,0.723422,-0.665200
0.188166,-0.733252,0.606132,0.770536,0.611263,0.180644
0.272994,-0.251999,0.822575,0.500507,0.576394,0.645959
-0.882188,-0.071274,0.353806,0.906014,-0.319102,-0.278052
-0.205336,0.167456,0.476986,0.129425,0.440943,0.888154
-0.694785,0.720174,0.222843,-0.796894,0.482171,-0.363965
-0.299800,0.431703,0.337262,-0.785406,0.239605,0.570725
0.080072,-0.355157,0.656656,0.869210,-0.486487,-0.088344
-0.130927,0.131745,0.647566,-0.104243,0.967545,0.230197
-0.518376,-0.273648,0.331869,0.949611,0.259799,-0.175340
0.149417,-0.100844,0.553534,-0.424249,-0.134068,0.895566
0.170335,-0.620502,0.222733,-0.578939,0.098688,-0.809377
-0.200395,-0.738560,0.328063,0.383213,0.897399,-0.218686
0.308284,0.252987,0.530755,0.269921,0.320101,0.908118
-0.553212,-0.464116,0.504121,0.516710,0.400071,-0.756937
-0.830345,-0.136331,0.399108,-0.457213,0.070263,0.886577
0.406000,-0.377790,0.493274,-0.057106,0.159354,0.985569
-0.850728,-0.106569,0.420496,0.964714,-0.224754,0.137155
-0.545388,0.396026,0.299964,-0.761875,-0.646973,0.031170
-0.331096,0.055086,0.527486,0.690575,0.020878,0.722959
0.217361,-0.407589,0.711743,0.856501,-0.476195,-0.199109
0.004715,-0.192250,0.759777,0.500198,0.827816,0.254012
-0.185365,0.115973,0.476693,0.802194,0.074787,0.592361
0.832116,0.086287,0.452975,0.418528,-0.000376,0.908204
-0.820173,-0.381050,0.500998,0.951283,0.036136,0.306196
-0.456278,0.356219,0.294852,-0.274674,0.234558,0.932489
-0.164282,0.473178,0.555377,-0.607418,0.650251,-0.456308
0.545473,-0.571937,-0.123308,0.959388,-0.219641,0.177012
0.226585,-0.685749,0.508855,0.284085,-0.126651,-0.950397
-0.421442,-0.183985,0.513394,0.809983,0.544632,0.217493
-0.345549,0.113469,0.560952,-0.130233,-0.684595,0.717195
0.510266,-0.318687,0.860373,0.768258,0.625675,0.135314
-0.710269,0.137280,0.317973,0.665060,-0.251895,0.703025
0.858429,-0.486976,0.713414,-0.050504,0.974316,0.219449
-0.048158,-0.285324,-0.071381,0.201995,-0.026586,0.979026
0.564702,-0.082761,0.573470,-0.204566,-0.474060,0.856399
0.012416,0.017667,0.863680,0.844955,0.167610,-0.507896
-0.256109,-0.458961,0.482647,0.005965,-0.092852,0.995662
-0.441577,-0.292678,0.199087,0.353872,-0.253577,-0.900263
0.061418,0.355955,0.518323,0.586138,-0.345873,-0.732676
0.343327,0.173220,0.818256,0.758088,-0.548244,0.353173
0.381706,-0.747733,0.545018,-0.244855,0.581168,0.776074
-0.020816,0.241688,0.530877,-0.025505,0.198890,0.979690
-0.105766,0.477007,0.666404,0.183760,0.675199,-0.714380
0.178324,-0.255146,-0.618882,0.960930,-0.260676,-0.093073
0.316025,-0.597907,0.792537,0.293687,-0.888197,0.353346
-0.313307,0.054290,0.520800,0.861990,-0.027535,0.506178
-0.450678,-0.589415,0.312153,0.130384,-0.609630,0.781889
-0.172600,0.443226,0.539174,-0.127775,-0.783985,0.607488
-0.090613,-0.382036,0.500924,0.602693,0.058805,0.795804
-0.450926,-0.306592,0.525021,0.425978,-0.695293,0.578887
-0.267433,0.444934,0.459746,0.278836,0.923774,0.262473
0.895324,-0.358191,0.422204,0.717650,0.136152,0.682965
-0.812432,-0.364559,0.469617,0.971322,0.152118,0.182737
-0.315942,-0.013004,0.398913,-0.270775,0.882546,-0.384439
0.624658,0.090913,0.695613,0.232183,0.819124,-0.524525
0.430995,-0.242939,0.835362,0.058880,0.766800,0.639180
-0.126026,0.039087,0.346413,0.735485,0.386672,-0.556368
-0.816550,-0.096448,0.403732,0.800197,-0.133846,0.584611
0.265128,-0.034348,0.687585,0.864680,0.127336,-0.485916
0.132287,-0.227431,0.773320,-0.299313,0.768428,-0.565623
0.048076,-0.295445,0.459624,0.864415,-0.308483,-0.397019
-0.125368,0.382871,0.595298,0.733016,0.374848,0.567606
-0.451872,-0.407512,0.317851,0.887295,0.313402,-0.338360
-0.525334,-0.226751,0.410650,0.146040,0.395246,0.906892
0.498981,-0.614322,0.660145,0.946851,0.022016,-0.320920
0.525831,-0.008606,0.782557,0.991968,0.079005,-0.098786
-0.505899,-0.375971,0.504316,0.077339,0.995726,-0.050473
0.061665,-0.063502,0.819122,0.206044,-0.919146,-0.335733
0.480040,-0.424650,0.765829,0.826771,-0.559796,0.055476
-0.200848,0.357850,0.490602,-0.693752,-0.396937,0.600957
-0.247750,0.542138,0.317863,0.714705,0.201541,-0.669760
0.683133,-0.718503,0.219804,-0.002699,0.177581,0.984102
0.212874,-0.280585,-0.215168,0.807518,-0.485789,0.334550
0.020569,-0.222922,0.867682,0.313818,-0.051919,0.948063
0.071507,-0.253061,0.796026,0.193579,0.961726,-0.193933
0.206079,-0.319710,-0.273147,-0.203261,-0.224592,0.953018
-0.117050,0.106192,0.475900,0.898370,-0.346783,0.269580
-0.199078,0.445427,0.515114,0.657397,-0.039028,-0.752533
0.161111,-0.466278,0.611061,-0.712765,0.678675,-0.177106
-0.007392,-0.287560,0.206542,0.034066,0.086728,0.995649
0.914473,-0.363119,0.415933,0.813986,0.087630,0.574237
0.145669,-0.323160,-0.237215,0.305331,-0.945301,0.114799
0.667402,-0.325777,0.632352,0.514051,0.461285,0.723165
-0.561901,0.446489,0.287922,-0.563070,-0.813275,-0.146752
-0.095761,-0.431853,0.506378,0.613154,-0.001541,0.789962
-0.364161,-0.573946,0.326794,-0.392353,-0.766151,0.508990
-0.087607,-0.333586,0.351317,-0.144131,0.182941,-0.972501
0.234368,-0.272243,-0.958236,0.627498,0.778587,0.006983
-0.348596,0.729992,0.264215,-0.658410,0.749942,-0.063895
-0.650807,-0.254692,0.436260,0.819884,-0.540885,0.187703
0.514094,0.053950,0.473973,0.950460,-0.273807,0.147156
-0.300706,-0.139895,0.734900,0.448279,0.803172,-0.392378
-0.324260,0.092239,0.609305,0.889832,-0.399321,0.220775
-0.517306,0.358950,0.260226,0.890739,0.043184,-0.452459
0.691779,-0.505742,0.377305,0.105005,0.260814,0.959661
-0.047911,-0.131592,0.833910,-0.487049,-0.873277,-0.013023
0.185900,-0.273912,-0.840096,0.996103,-0.055798,-0.068310
0.143528,-0.267620,-0.267717,0.829176,-0.179649,-0.529333
0.072290,-0.076090,0.389079,-0.429258,0.154057,0.889946
-0.291770,-0.455624,0.154005,0.688341,0.390779,-0.611129
-0.021639,-0.610303,0.432490,0.490377,-0.640737,0.590750
-0.362803,0.188346,0.676031,0.268196,-0.667283,0.694842
-0.272993,0.588278,0.407856,0.281821,-0.932074,0.227631
0.526117,-0.306781,0.859166,0.768258,0.625675,0.135314
0.187177,-0.358683,-0.655607,0.984501,0.084260,-0.153812
-0.211925,-0.534102,0.466957,0.319006,-0.243916,0.915827
0.216044,-0.632748,0.372510,0.333431,0.536150,0.775479
-0.358356,0.272056,0.294230,0.186202,0.081969,0.979086
0.024604,0.226145,0.608316,0.756307,0.288026,-0.587402
0.269123,0.337909,0.499045,-0.119146,-0.779596,0.614845
0.222673,-0.844903,-0.959029,-0.237651,0.122249,0.963627
0.559927,-0.566439,0.750322,0.224067,0.968391,0.109600
-0.089418,0.464762,0.531073,0.968329,0.223816,-0.110656
-0.137556,0.002807,0.671285,0.307358,0.874848,0.374396
0.172847,-0.424497,0.496703,0.206647,0.004771,0.978404
-0.018922,-0.361261,0.359224,0.111781,-0.171585,0.978807
0.185696,-0.060204,0.872440,-0.464297,0.075854,-0.882425
0.686302,-0.610872,0.592992,0.819870,-0.181781,-0.542926
-0.190183,-0.177124,0.207604,0.091213,0.249006,0.964197
-0.595545,-0.611668,0.441738,0.931394,-0.001087,0.364011
0.122116,-0.594987,0.606925,-0.652058,0.049102,-0.756577
0.223744,0.054517,0.848612,-0.651349,0.187592,-0.735224
0.020857,0.376880,0.606340,0.862547,0.427513,0.270638
0.335379,-0.717973,0.352830,-0.180543,0.276279,0.943967
0.288765,-0.660309,0.331686,0.730836,0.593253,0.337535
0.421894,0.004549,0.598129,0.978093,-0.205584,-0.032705
-0.053264,0.076356,0.885764,-0.037512,-0.730448,0.681937
0.653855,0.079956,0.731850,-0.748799,0.275463,0.602843
0.443637,-0.556545,0.390006,-0.293754,-0.115276,0.948905
0.786120,-0.446752,0.641551,-0.475656,0.160128,0.864934
0.679386,-0.621222,0.591235,-0.743759,0.049051,0.666645
0.338344,0.161694,0.721040,0.638443,0.111096,0.761609
0.258046,0.151837,0.732021,-0.608227,-0.757052,0.238606
-0.338714,-0.110741,0.189278,-0.297761,0.188049,0.935936
0.741277,-0.048868,0.587685,0.046083,-0.743804,0.666807
0.770142,-0.086401,0.401585,-0.404057,0.470552,-0.784423
-0.198047,0.215605,0.660328,0.410315,0.090181,0.907474
0.107703,-0.231717,0.246854,0.993143,-0.106078,-0.049136
0.853241,-0.048413,0.559379,0.271084,0.762885,0.586958
-0.513723,0.376806,0.475254,0.096592,-0.587700,0.803292
-0.124339,0.462980,0.488272,-0.032437,0.729284,0.683442
-0.135827,-0.635592,0.490920,-0.626089,0.779752,0.000072
-0.321295,-0.194601,0.198721,-0.491332,0.090934,0.866212
0.155429,-0.298252,0.647359,0.454046,0.198800,-0.868517
-0.473492,-0.170490,0.520934,0.272935,-0.242866,0.930872
-0.416005,0.211132,0.483123,-0.559828,0.515794,-0.648498
0.125986,-0.224664,0.211593,-0.136665,0.950711,0.278335
0.582657,-0.319710,0.643162,0.246538,0.713860,0.655456
0.346415,-0.280622,0.761351,-0.550626,0.506560,-0.663482
0.283618,-0.556318,0.786046,0.947037,0.318881,-0.037887
0.846405,-0.496190,0.692661,-0.050504,0.974316,0.219449
-0.185076,-0.031467,0.542444,0.715375,-0.138226,-0.684933
-0.293540,0.455851,0.516395,0.320038,-0.001342,-0.947404
-0.190759,-0.054743,0.791170,0.938978,0.126727,0.319783
-0.110378,-0.148917,0.573715,0.779197,0.355281,0.516360
0.167742,-0.738560,0.526156,-0.330630,-0.043408,0.942761
-0.103254,0.219888,0.620785,-0.404981,0.532038,0.743590
-0.691779,-0.123100,0.408308,0.043393,-0.014482,0.998953
0.051330,-0.557834,0.699444,0.537862,0.505186,0.674902
0.635611,0.071274,0.723126,0.564117,-0.478646,-0.672808
-0.204595,-0.698108,0.353916,-0.594345,-0.718940,0.360387
-0.182647,-0.101756,0.719442,-0.645465,0.744533,0.170429
0.159135,0.018010,0.825796,0.094157,-0.558413,0.824202
-0.217772,-0.129621,0.729824,-0.744131,0.136546,-0.653930
0.054376,-0.630018,0.364006,-0.380063,-0.298087,0.875612
-0.003809,0.308489,0.614856,0.275614,0.144148,0.950399
-0.173794,-0.050877,0.384016,-0.341170,0.766546,0.544068
0.178530,-0.149599,-0.077969,0.935511,-0.203975,-0.288468
-0.492434,-0.617735,0.153639,-0.084492,0.406007,0.909956
0.387140,-0.024528,0.660877,0.460495,-0.768640,0.444001
-0.156333,0.199037,0.490065,0.898626,0.404705,-0.169368
-0.121868,0.400425,0.424425,0.796811,0.200756,-0.569903
-0.700385,-0.253591,0.468226,0.643218,0.704655,-0.299554
0.610616,-0.307124,0.630729,0.366267,0.506398,0.780647
-0.220407,0.412936,0.511685,-0.687717,-0.473867,0.549996
-0.401017,-0.507184,0.461394,0.471878,-0.738635,0.481403
-0.086660,-0.026842,0.536209,0.137653,-0.432889,0.890875
-0.207313,-0.756112,0.333065,0.383213,0.897399,-0.218686
0.537895,-0.476362,0.696845,0.060761,0.028151,0.997755
-0.486297,-0.186791,0.533537,-0.072631,0.048761,0.996166
-0.143157,0.025400,0.695699,-0.476736,-0.397389,-0.784095
-0.036422,-0.714220,-0.983114,-0.269571,0.107527,0.956958
0.205090,-0.256245,-0.341410,0.948812,-0.119172,-0.292495
0.456651,-0.282214,0.833263,0.521826,0.773632,0.359431
-0.361609,-0.691397,0.140316,0.422707,0.281564,-0.861418
0.142993,-0.084316,0.896098,0.980438,0.182492,0.073738
0.394305,0.090117,0.613257,-0.733538,-0.292949,0.613272
0.119110,-0.167343,0.507220,0.037031,-0.986797,0.157672
-0.699191,0.048755,0.296707,0.914703,0.084239,-0.395250
-0.421771,0.390794,0.452316,0.318908,-0.916165,0.242775
-0.410447,0.362097,0.470569,-0.018841,-0.981980,0.188045
-0.566267,0.523675,0.287714,-0.378658,-0.458012,0.804265
0.202825,-0.556128,0.220110,0.273647,-0.694175,0.665761
0.227903,-0.295219,-0.443287,0.789011,-0.448264,0.420144
0.319361,0.065473,0.803091,0.964385,-0.247289,0.093860
-0.022215,-0.756834,-0.981162,-0.257127,0.136599,0.956675
-0.519158,0.354893,0.294364,0.272785,-0.115921,0.955066
0.200313,-0.259392,-0.518823,0.500501,-0.860823,0.092106
-0.183511,-0.706676,0.340032,-0.232119,-0.905747,0.354603
-0.253722,0.740872,0.264472,0.448251,0.871301,0.199763
-0.214272,-0.547257,0.178712,0.484614,0.375298,-0.790127
0.155841,-0.035447,0.875881,0.411153,0.836311,0.362680
0.794808,-0.493156,0.658413,-0.581621,0.775760,0.244773
0.156870,-0.482390,0.609109,0.667696,-0.517846,-0.534806
-0.151269,-0.217993,-0.047443,0.247866,0.569206,0.783943
-0.343697,0.196573,0.669955,-0.334533,0.569100,-0.751141
-0.339866,-0.682223,0.328490,-0.363244,-0.906272,-0.216158
-0.351850,0.130303,0.331650,-0.501613,0.456751,0.734686
-0.713974,-0.070819,0.290521,0.920930,-0.381839,0.078021
0.323561,0.285098,0.737718,0.891475,-0.451394,0.038929
-0.997942,-0.222389,0.445349,0.934976,0.028934,0.353529
-0.148840,-0.244455,0.717855,-0.116423,0.333875,0.935400
-0.664436,-0.378965,0.431880,0.086887,-0.006077,0.996200
-0.268587,-0.622624,0.323597,0.507605,0.380455,-0.773040
-0.155058,-0.471623,0.720698,0.796262,-0.515693,0.316272
0.200642,-0.777382,0.387151,-0.046476,0.171149,0.984148
0.555521,-0.042234,0.715293,0.281830,0.249573,0.926437
0.409624,-0.220230,0.001788,0.034708,-0.628071,0.777382
-0.184541,-0.099595,0.793232,0.953286,-0.049193,0.298038
-0.715785,-0.226978,0.477377,0.419034,0.904451,-0.079867
0.287118,-0.561131,0.825747,-0.684865,-0.667220,-0.292878
0.675143,-0.544566,0.586257,0.057661,0.242316,0.968482
0.855299,-0.098722,0.420752,0.062353,-0.914858,0.398933
0.289013,0.005195,0.071710,0.859010,-0.246513,0.448702
0.203196,-0.275011,-0.024298,-0.225440,0.972457,-0.059197
-0.400317,-0.179702,0.494592,-0.488809,0.549392,0.677668
0.442280,0.046404,0.721369,0.168693,0.331129,0.928384
-0.809714,-0.442127,0.472618,0.816800,0.221599,0.532665
0.602093,-0.336960,0.645614,0.663812,0.700327,0.262479
0.179478,-0.751222,0.609548,0.815771,0.574142,0.069849
0.179024,-0.251432,-0.458075,0.762118,0.494174,-0.418291
0.365646,-0.347044,0.783935,-0.119592,0.992592,-0.021402
-0.095636,0.510900,0.289203,0.253607,-0.678714,0.689225
-0.059811,0.536946,0.282907,-0.067734,-0.644571,0.761538
0.599170,-0.458655,0.700481,-0.667538,-0.516946,-0.535873
0.528178,0.102096,0.429391,0.606495,-0.063392,0.792556
-0.225308,0.087993,0.515248,0.613907,-0.598274,-0.514962
-0.556960,-0.436895,0.487784,-0.572562,-0.069355,0.816923
-0.294240,0.610342,0.412554,-0.338710,0.937550,0.079215
-0.113344,-0.108427,0.765939,0.005193,-0.809191,0.587523
-0.056517,0.065663,0.662854,-0.506846,-0.242993,-0.827080
-0.337849,0.128977,0.722724,0.646919,0.518610,0.559053
0.172641,-0.244835,-0.406148,0.841138,-0.536217,-0.070410
-0.350408,0.567731,0.403745,-0.603392,-0.792964,0.084416
-0.462085,-0.128029,0.535428,0.109387,-0.583958,0.804380
-0.175729,-0.106722,0.599422,-0.191227,0.544678,0.816553
0.603986,-0.495544,0.575813,0.267674,0.147759,-0.952112
-0.163952,-0.092352,0.768794,-0.718373,-0.652468,-0.241300
0.652249,-0.429995,0.551838,-0.204980,-0.863709,-0.460423
-0.194054,-0.476512,0.364055,-0.393411,0.157360,-0.905795
0.099879,-0.647837,0.247854,0.482833,-0.215775,-0.848713
-0.116596,-0.193652,0.702251,0.960226,-0.195756,-0.199113
-0.539130,-0.210297,0.525997,-0.229303,0.432015,0.872229
-0.559349,0.034765,0.307053,0.327572,-0.239955,-0.913848
-0.185611,-0.079121,0.792635,0.931592,0.127607,0.340371
0.740000,-0.366949,0.473997,-0.693762,0.083998,-0.715289
0.198007,0.101983,0.663122,0.884451,0.466582,-0.006909
-0.032963,-0.503960,0.675860,-0.464351,-0.281062,0.839870
0.236757,0.359026,0.564418,0.616338,0.361349,-0.699681
-0.528053,-0.535654,0.137912,0.019503,0.326126,0.945125
0.715786,-0.119877,0.573788,0.058785,-0.692683,0.718842
-0.351561,-0.477651,0.541126,0.800119,-0.597417,0.053879
-0.013321,0.318231,0.619785,0.408842,-0.044107,0.911539
0.189072,-0.279713,-0.852394,0.995686,-0.039567,-0.083931
0.740493,-0.744169,0.296340,-0.448331,0.847644,-0.283722
0.468675,0.276566,0.171721,0.981632,0.094184,0.165916
0.481810,-0.653902,0.536490,0.377342,0.456583,-0.805695
0.054376,-0.213823,0.077945,0.191835,-0.800543,0.567741
-0.183388,-0.589377,0.474912,-0.141807,0.227317,0.963441
-0.467274,-0.360502,0.495410,-0.643402,0.695841,0.319121
0.330025,0.097017,0.794282,0.921221,-0.385181,0.054656
0.126974,0.092165,0.469946,0.964584,-0.067491,0.254995
0.724186,0.006634,0.578314,0.203487,-0.530563,0.822858
-0.291688,0.445690,0.335395,-0.529034,0.352333,0.772001
0.620169,-0.478257,0.698127,0.157005,0.881226,0.445858
-0.400728,0.309133,0.448497,0.378647,-0.805922,0.455101
-0.409706,0.135193,0.314629,-0.373468,0.364763,0.852918
-0.383351,0.363992,0.462626,0.863013,0.441691,-0.245190
-0.506228,0.091709,0.304332,0.237432,0.025148,-0.971079
0.805762,-0.642908,0.595213,-0.709543,0.699161,0.087879
0.720688,-0.333357,0.624092,0.276404,0.384547,0.880752
0.056971,-0.290896,0.564478,0.936066,-0.076702,-0.343361
0.641749,0.040339,0.684913,-0.665675,-0.679833,-0.307741
0.073361,0.397241,0.269291,-0.630922,-0.735789,-0.246074
-0.392699,-0.478030,0.545043,0.563641,-0.823458,0.065011
-0.345097,-0.363459,0.514577,0.305222,-0.780009,0.546284
0.015134,-0.519732,0.697126,0.077745,0.584996,0.807302
0.796497,-0.364255,0.637891,0.528629,0.821965,0.211956
0.239063,-0.185919,0.921817,0.905676,-0.271232,0.325860
0.176018,-0.117262,0.894499,0.787596,0.614136,0.050301
0.405424,0.208705,0.120734,0.115814,0.179689,0.976882
0.088472,-0.186565,0.902064,-0.112730,0.969803,0.216272
0.477979,-0.139059,0.722126,-0.280139,-0.202564,-0.938344
0.229632,-0.288471,0.789975,0.777512,0.571868,-0.261615
-0.418147,0.554157,0.310140,-0.108495,-0.432376,0.895143
-0.173752,0.705045,0.085132,-0.072576,0.556175,0.827890
0.200478,-0.211472,0.184129,-0.253246,0.967312,0.013195
-0.563219,-0.040869,0.355746,0.368658,0.707000,0.603525
0.054459,-0.746067,0.361835,0.778470,0.102619,-0.619236
0.140440,-0.222049,-0.027360,-0.412889,0.878775,-0.239327
-0.355556,-0.396329,0.203931,-0.301792,0.028647,-0.952943
0.180424,-0.242939,0.744612,-0.538140,0.117842,0.834577
0.133522,-0.207263,0.103823,0.955228,0.186213,-0.229924
0.111038,-0.843804,-0.968729,0.243126,-0.166146,-0.955660
-0.282258,0.773742,0.155067,0.149935,0.833620,0.531598
0.247299,-0.253174,0.886923,-0.110242,0.988924,-0.099375
0.172806,-0.187738,0.052323,0.872772,-0.483697,0.065626
0.623710,-0.185350,-0.157006,-0.330714,0.289107,-0.898357
-0.736128,-0.082761,0.403171,0.234786,0.351970,0.906086
0.533449,-0.653523,0.547129,-0.253367,-0.214561,0.943275
0.603905,-0.330060,0.763328,0.651939,-0.057771,-0.756068
-0.188453,0.333283,0.486137,0.633117,0.435619,-0.639843
0.143076,-0.367365,-0.737438,0.994077,0.028677,0.104824
0.217155,-0.049778,0.960799,0.520838,0.852578,-0.042865
-0.119396,-0.709178,0.313739,-0.156122,0.741102,0.652989
-0.126109,0.255602,0.659084,0.351643,0.769042,0.533780
0.296506,0.119613,0.737596,0.871393,0.243224,0.426047
-0.606168,-0.392615,0.504999,-0.185306,-0.805900,0.562306
0.496098,-0.239753,0.741940,0.290528,0.709208,0.642353
-0.261463,0.521440,0.398096,0.456359,-0.028024,0.889354
-0.468097,-0.646319,0.111778,0.937389,0.341554,0.068143
0.024769,-0.368275,0.604741,0.998921,-0.032799,-0.032880
-0.142210,0.531145,0.526424,0.870011,0.468528,0.153501
0.312690,0.054024,0.816987,0.944997,0.018603,0.326550
0.011551,-0.017743,0.673115,0.348200,-0.735390,0.581341
-0.279705,0.604844,0.413383,-0.399471,0.905427,-0.143616
-0.588956,0.540093,0.298463,0.389505,0.382484,-0.837850
-0.660235,0.209424,0.309383,0.376077,-0.427984,0.821824
-0.423294,0.073170,0.322316,0.289082,-0.557588,-0.778156
0.115609,0.269402,0.630217,-0.406613,0.088493,0.909305
0.180384,-0.667816,0.465761,-0.854318,0.275776,-0.440555
-0.158352,-0.076543,0.783557,0.867363,-0.009394,0.497587
-0.095307,-0.119726,0.837277,-0.647343,0.696052,-0.310580
0.132410,-0.193652,0.248525,0.535907,0.843436,0.037663
0.296012,-0.442657,0.324707,0.670663,0.179755,-0.719653
0.097202,-0.741402,0.511319,-0.606395,0.540363,0.583346
-0.036628,-0.388786,0.678801,-0.337067,0.065366,-0.939209
0.314583,0.207036,0.756959,0.336853,-0.940827,-0.037081
0.842740,-0.398377,0.459161,-0.000477,0.870818,0.491606
0.212297,-0.310801,-0.224611,-0.382029,0.827850,-0.410753
-0.185982,-0.588845,0.488894,0.720576,0.628517,-0.292807
-0.158764,0.181673,0.349609,0.802770,0.333348,-0.494409
-0.449401,-0.648214,0.346693,0.982839,0.052948,-0.176701
0.129981,-0.180574,0.109253,0.837043,0.543456,-0.063361
0.251992,-0.097813,0.917742,0.728579,-0.573417,0.374654
-0.158022,0.441141,0.596616,0.834959,0.225610,0.501940
-0.403694,-0.133638,0.524960,-0.265504,-0.732759,0.626555
-0.179312,-0.111384,0.793488,0.881402,-0.286884,0.375271
-0.754041,-0.079234,0.360431,0.420869,-0.530326,-0.735951
0.287942,0.139062,0.723029,0.375429,-0.691783,0.616838
0.152381,-0.474238,0.419325,0.264236,-0.200453,-0.943397
-0.624329,-0.341586,0.503731,0.688061,0.596413,-0.413356
0.368322,0.163969,0.708168,-0.711616,-0.102625,-0.695033
-0.759847,-0.224400,0.479231,0.323970,0.944525,0.054006
0.075213,-0.034425,0.857250,-0.343065,0.888075,-0.305989
0.545636,0.196309,0.403000,0.291188,0.857772,0.423601
-0.415059,0.741594,0.218365,0.476221,-0.319885,0.819077
-0.843028,-0.294878,0.432843,0.474494,0.592647,0.650864
-0.391958,-0.064980,0.376439,-0.182111,0.805820,0.563463
-0.423748,0.545968,0.317326,0.173474,0.347359,-0.921547
-0.991765,-0.210297,0.439505,0.835454,-0.039824,0.548116
0.871566,0.091253,0.441116,0.692329,0.703888,0.158817
0.342174,0.138758,0.509892,-0.068391,-0.861104,0.503808
0.399000,-0.215376,0.760802,-0.701907,-0.586723,-0.403835
-0.391216,0.742920,0.183617,-0.330000,0.908145,0.257628
-0.390516,-0.458921,0.156372,-0.238714,-0.514163,0.823804
-0.382157,0.382152,0.301001,0.390951,0.038932,-0.919588
0.063848,-0.415058,-0.025579,0.983926,-0.026991,0.176528
-0.037945,-0.129544,0.829371,0.900024,0.355622,0.251973
0.234698,0.384653,0.108411,0.195053,-0.941543,-0.274685
-0.514340,0.839368,0.195854,0.858712,-0.101626,0.502280
-0.783813,-0.264054,0.391166,-0.436847,0.095300,0.894473
0.831827,0.039807,0.445862,0.292863,0.151502,0.944076
-0.247215,0.037039,0.574788,0.945928,-0.316942,0.069051
-0.033004,0.109906,0.376524,-0.420678,0.081953,0.903501
0.639564,-0.246350,0.752579,0.187873,0.878108,0.440035
-0.261092,-0.069037,0.143024,0.123197,-0.990214,-0.065566
0.116350,-0.406263,0.675958,-0.698941,0.024884,0.714747
-0.325330,-0.423134,0.530048,0.984537,-0.128696,-0.118849
0.352427,-0.760777,0.372523,0.919049,0.261047,0.295302
-0.440919,-0.668649,0.145672,0.195923,0.639797,-0.743151
0.179189,-0.681996,0.587038,0.833665,0.344907,0.431325
-0.043092,-0.229479,0.542517,0.251349,-0.598362,0.760781
0.390065,-0.738634,0.652849,-0.731597,-0.136748,-0.667882
-0.288105,0.160975,0.701287,-0.647386,-0.482137,-0.590285
0.327719,-0.944801,-0.947609,0.189503,-0.058939,-0.980110
0.684407,-0.302459,0.620761,0.725070,0.251624,0.641061
-0.715416,-0.454789,0.420228,-0.534330,-0.736549,-0.414713
-0.055858,0.032907,0.629155,-0.570992,0.820956,0.000601
0.961498,-0.215186,0.424327,-0.790394,0.197704,-0.579820
-0.272334,0.475529,0.474571,0.465148,0.849846,-0.247790
0.835080,-0.546347,0.586257,0.954472,-0.283729,0.092095
0.189895,-0.230389,0.211605,0.428349,0.897994,0.100618
-0.543082,0.492171,0.155421,0.608623,0.033326,0.792760
-0.208054,0.055239,0.668259,-0.182005,-0.982835,0.030160
-0.108897,-0.083936,0.877894,0.449254,-0.802692,0.392245
-0.457679,0.347273,0.470239,0.449876,0.633930,-0.629083
0.052976,0.021800,0.794526,0.329006,0.043579,-0.943322
-0.167082,0.473557,0.543566,-0.366628,0.633043,-0.681792
0.732465,-0.704895,0.208677,-0.002699,0.177581,0.984102
-0.336573,-0.190621,0.499192,-0.074174,0.842098,0.534200
-0.054953,-0.008832,0.452633,-0.297551,0.026701,-0.954332
-0.550496,-0.446033,0.500461,0.727367,0.025765,-0.685765
-0.377751,-0.282936,0.531609,0.374519,-0.133392,0.917574
-0.268216,-0.055655,0.493445,0.797561,0.421604,-0.431447
-0.318866,0.153468,0.668430,-0.283669,-0.955946,-0.075497
0.053759,-0.126397,0.858409,0.822786,0.557842,0.108791
-0.033828,-0.589072,0.697199,-0.641990,0.302926,0.704332
-0.099302,0.467907,0.663110,-0.150331,-0.482026,0.863164
0.339085,0.117299,0.797442,0.314445,-0.506524,-0.802843
0.119439,-0.535088,0.610781,-0.691598,-0.130602,-0.710376
0.206120,-0.609204,0.564747,0.878681,0.212177,0.427669
-0.781425,-0.430147,0.468738,0.874341,0.100176,0.474861
0.220821,-0.770292,0.633474,0.525683,0.404122,0.748561
0.702981,0.078478,0.673566,0.739185,-0.218415,0.637103
-0.604439,-0.588959,0.458124,0.855697,-0.509482,0.090619
-0.622310,-0.264017,0.537685,0.504108,-0.284981,-0.815267
-0.324260,-0.709897,0.318729,0.441794,0.854957,0.271782
0.774548,0.071351,0.595017,-0.553009,0.524682,0.647217
0.133398,-0.216854,0.202003,-0.102101,0.990430,0.092862
-0.079948,0.545968,0.497118,-0.138844,-0.883606,0.447171
-0.302518,0.433105,0.299391,0.412584,-0.276502,-0.867941
0.444132,-0.165485,0.826028,0.716296,0.200922,-0.668244
-0.585785,0.724723,0.192609,0.862118,0.138649,0.487369
-0.193065,0.154075,0.525582,0.935626,0.062212,0.347466
0.748317,0.050916,0.453073,0.170749,0.111327,0.979005
0.371288,0.017933,0.543383,-0.017845,0.690623,0.722994
-0.066648,0.454335,0.655119,0.501565,0.163212,0.849585
-0.209537,0.093757,0.636061,-0.159341,0.929299,0.333188
0.528631,-0.534632,0.744966,0.193503,0.939654,0.282147
-0.305483,0.147781,0.336371,0.549132,-0.587244,-0.594642
-0.194054,-0.515599,0.179127,0.341812,0.271526,-0.899688
0.263235,-0.522803,0.811765,0.329251,0.889501,0.316832
0.466410,-0.262842,0.556999,0.540166,0.002535,0.841555
0.103503,-0.291239,0.672663,0.669246,-0.705467,-0.233293
0.778379,-0.557001,0.370912,-0.349080,0.515866,-0.782321
0.513724,0.156310,0.787986,-0.125996,0.854449,0.504026
-0.557620,-0.170943,0.526790,0.189970,-0.237748,0.952569
-0.284441,0.749554,0.079483,-0.385819,-0.433019,-0.814640
0.154647,0.210297,0.545714,0.258075,-0.155859,0.953470
-0.042888,-0.334646,0.541053,0.646268,0.761977,0.041579
0.777801,-0.486749,0.373425,0.111809,0.168574,0.979327
-0.382528,0.759145,0.089365,-0.711402,-0.300964,-0.635080
0.280612,0.166167,0.779140,0.261285,0.919008,0.295220
-0.915172,-0.185956,0.425133,-0.611912,-0.076374,-0.787230
-0.524305,-0.567652,0.137058,0.064843,0.435382,0.897907
0.697173,-0.114001,0.574678,0.024975,-0.629421,0.776663
0.065289,-0.347500,-0.971511,0.495660,0.207268,-0.843422
0.119439,0.116730,0.146819,0.761764,0.249770,0.597771
-0.115155,0.067558,0.347865,0.848162,-0.153442,-0.507027
-0.057218,-0.323805,0.739353,-0.324404,0.760627,-0.562324
0.437007,-0.747166,0.544579,-0.077997,0.187805,0.979105
-0.036670,-0.482350,0.482013,0.140267,-0.616920,0.774426
-0.525417,-0.380254,0.508855,0.541254,0.802156,-0.252168
0.123228,-0.718959,0.378550,0.193152,-0.238725,-0.951684
-0.389116,0.416690,0.488980,0.138452,-0.582038,0.801288
-0.282546,-0.025477,0.711218,0.556767,-0.164066,-0.814305
0.237004,0.190468,0.753555,0.356748,-0.927828,0.108930
0.463940,-0.340674,0.550289,0.342254,0.476738,0.809681
-0.631453,0.018880,0.285189,0.903563,0.081100,-0.420709
0.346456,-0.362777,0.784533,-0.359945,0.916029,-0.177004
0.773231,-0.566326,0.588868,-0.027305,0.496759,0.867459
-0.709279,-0.028547,0.385114,0.781146,-0.369313,-0.503407
-0.428154,-0.168821,0.519165,0.168297,-0.161502,0.972416
-0.729992,-0.383591,0.442775,0.650533,0.227706,0.724539
0.497169,-0.919474,-0.277600,0.601640,-0.797004,-0.053050
-0.202330,0.166091,0.512674,-0.868112,0.490102,-0.078617
0.200684,-0.294346,0.510856,0.641751,-0.340079,0.687388
-0.301777,-0.169048,0.767049,-0.679159,-0.050558,-0.732248
0.130846,0.242636,0.548239,-0.640548,-0.174217,-0.747894
0.144969,-0.338286,-0.504340,0.999252,-0.038329,0.005062
-0.416170,-0.422868,0.491762,0.268634,-0.924517,-0.270377
0.524760,-0.284605,0.752640,0.151379,0.757705,0.634797
-0.349379,0.723015,0.285592,-0.208628,-0.945680,-0.249326
-0.236591,-0.192743,0.526461,0.715919,0.698024,0.014902
-0.074924,0.178033,0.535611,-0.071610,0.102114,0.992192
0.458008,-0.712059,0.546068,0.242071,-0.424238,-0.872596
0.027487,-0.051976,0.857616,-0.186417,0.474873,-0.860084
-0.420453,-0.552715,0.321840,0.136234,-0.565782,0.813222
-0.378574,-0.549721,0.320827,0.001513,-0.826264,0.563281
-0.342955,-0.602683,0.470093,0.451282,0.889635,-0.069956
0.655708,-0.594987,0.583671,0.566658,-0.137116,-0.812464
0.217979,-0.290822,-0.944327,0.736731,0.536444,0.411650
-0.462291,0.361604,0.297072,-0.229488,0.187907,0.955001
0.600075,-0.754899,0.374292,0.023366,0.731116,0.681853
-0.648253,-0.265875,0.561697,-0.664195,-0.272615,-0.696079
0.578950,-0.002994,0.717367,-0.394094,0.380283,0.836705
-0.900719,-0.106985,0.356161,0.754718,-0.438159,-0.488281
-0.122237,0.196799,0.669064,-0.038489,0.051489,0.997932
0.022834,0.156842,0.167658,0.772346,0.235957,0.589750
0.467644,-0.329414,0.010462,-0.268487,-0.961845,0.052614
0.177459,-0.216817,0.001629,-0.290466,0.947746,-0.131935
-0.292430,0.518027,0.500802,-0.741817,0.657323,0.132794
0.587722,-0.910186,-0.929137,-0.287926,0.121196,0.949953
-0.492763,0.904994,0.160179,0.438385,0.668916,0.600309
-0.314048,0.214885,0.681228,-0.082026,-0.953245,0.290852
0.478105,-0.583347,0.387249,-0.147346,0.469014,-0.870813
0.226833,-0.692686,0.412724,-0.067676,-0.837802,0.541764
-0.207971,0.014900,0.493152,0.941047,0.291413,0.171782
0.669461,-0.670583,0.208140,-0.115753,0.244397,0.962742
0.157241,-0.345263,-0.329832,0.983526,0.126969,0.128671
0.696391,-0.337906,0.474522,0.961609,0.273772,-0.018919
-0.332908,-0.053948,0.396082,-0.678023,0.719065,-0.152412
-0.022874,-0.052052,0.810423,-0.696910,-0.527645,-0.485702
-0.686590,0.047163,0.355393,0.212190,-0.812622,0.542790
-0.339208,0.135459,0.561904,0.018433,-0.769138,0.638817
-0.337025,0.210410,0.681594,0.116341,-0.849815,0.514081
0.230291,-0.651854,0.645956,0.051175,-0.914241,0.401926
0.221809,-0.531561,0.427805,0.374449,-0.192794,-0.906983
-0.787478,-0.381962,0.465310,-0.662691,-0.499558,-0.557927
-0.391422,0.296433,0.444495,0.939518,-0.190391,0.284704
0.193724,0.118095,0.652312,-0.769980,-0.304321,-0.560820
-0.480368,-0.625582,0.154176,0.104368,0.603281,0.790670
-0.155758,-0.298403,0.690550,0.374505,-0.903115,0.210070
-0.208467,0.516398,0.346010,0.914667,-0.170706,-0.366394
0.078260,-0.666793,0.252808,-0.606996,0.145591,0.781255
0.065001,-0.382339,0.672859,0.795217,0.459454,-0.395641
-0.645989,0.034159,0.310066,0.381640,-0.344984,-0.857518
-0.107497,0.128256,0.630326,0.618268,0.301269,-0.725935
0.189401,-0.251355,-0.444166,0.953073,-0.216465,0.211646
-0.008792,-0.278461,0.760375,-0.058663,0.983115,-0.173328
-0.253433,0.392159,0.357967,0.865516,0.408848,0.289353
0.148594,-0.265383,-0.225514,-0.352456,-0.754822,0.553189
0.197432,-0.667476,0.642783,-0.622196,0.574099,-0.532242
-0.253309,-0.018424,0.611183,-0.179571,-0.685493,0.705588
-0.975869,-0.202031,0.466298,0.955143,0.074686,0.286574
-0.316065,-0.097774,0.770417,0.934368,0.316695,-0.163278
-0.198418,0.220420,0.336640,-0.807639,-0.027515,0.589035
0.225885,-0.266937,0.832568,0.758914,0.648209,-0.062252
0.549755,-0.411002,0.681961,0.585537,0.007446,0.810612
0.613664,-0.347500,0.503242,0.963355,0.157110,0.217403
-0.146286,-0.108200,0.720918,-0.575911,0.637125,0.512249
0.592786,-0.169997,-0.150918,0.016355,-0.196657,0.980336
-0.669459,0.037685,0.365031,-0.481130,0.386717,0.786743
0.251580,-0.743640,0.670699,0.323986,0.874027,-0.362091
0.464968,-0.530272,0.560123,0.606171,0.319798,-0.728207
-0.400317,0.761307,0.212167,-0.566487,0.144144,-0.811366
0.846651,-0.395343,0.461516,0.041195,0.916044,0.398957
0.366757,0.186488,0.807715,0.920878,-0.205395,0.331355
-0.436965,-0.369527,0.525997,0.133691,-0.323472,0.936746
0.528754,-0.558896,0.725798,-0.086727,0.996115,-0.015294
0.467438,-0.214240,0.741330,0.373048,0.410661,0.831981
0.523606,-0.007240,0.780946,0.991968,0.079005,-0.098786
-0.347732,-0.068393,0.368203,-0.163676,0.874558,0.456464
-0.654842,-0.258823,0.437321,0.819884,-0.540885,0.187703
0.728263,-0.515107,0.571555,0.077533,0.425489,0.901636
-0.384917,-0.538538,0.452511,0.431059,0.819310,0.378046
0.278758,-0.241308,0.894158,0.515650,-0.838529,0.175993
-0.086989,-0.778631,-0.985115,0.286226,-0.133347,-0.948838
0.124174,-0.317285,-0.468616,0.938853,0.222829,-0.262491
0.157447,0.377186,0.561733,-0.027520,-0.723769,0.689494
0.418436,0.022406,0.521251,0.557313,0.695856,0.452975
-0.146039,0.326117,0.509318,-0.541233,-0.506933,0.670884
0.330314,-0.762406,-0.391544,0.941640,0.170230,-0.290406
-0.376557,0.325094,0.416080,0.993625,0.099140,0.053674
0.610945,-0.933388,-0.926758,-0.281608,0.125367,0.951304
0.291688,0.125109,0.713207,-0.384586,-0.006555,0.923066
0.050012,-0.064071,0.833800,0.503564,-0.824417,0.258380
0.402172,-0.296621,0.760863,0.755556,-0.513005,0.407383
0.211720,0.357547,0.486893,0.548869,0.612603,-0.568736
0.560213,-0.081321,0.870976,0.139388,0.983153,-0.118242
-0.136239,0.243925,0.623116,0.319812,0.922075,0.217941
0.257387,0.238960,0.539247,0.420490,0.358137,0.833622
-0.395828,0.316375,0.419776,0.993625,0.099140,0.053674
0.068295,-0.814421,0.349097,-0.684632,0.045058,0.727495
-0.347032,-0.337906,0.528999,0.464785,-0.226978,0.855836
0.237004,-0.083557,0.969291,-0.791713,-0.426019,-0.437834
-0.329655,0.487205,0.509123,-0.713987,0.684935,-0.145212
0.134387,0.241081,0.359699,-0.144654,-0.976107,0.162141
-0.260804,0.071198,0.542724,-0.115862,-0.806128,0.580288
-0.190719,-0.235317,0.525289,-0.402954,0.559314,-0.724428
-0.191089,-0.245175,0.529669,0.175949,0.906006,-0.384962
0.120222,-0.325434,0.749504,0.605607,0.747599,-0.272647
0.334720,-0.729802,-0.334224,0.965496,0.242717,0.094369
0.228685,-0.074838,-0.201820,0.959051,-0.188288,-0.211587
-0.713891,-0.468210,0.398315,0.117463,-0.347057,-0.930459
0.855835,-0.410963,0.653142,0.621721,0.672791,0.401019
0.189772,-0.247489,-0.455976,0.762118,0.494174,-0.418291
-0.314830,0.432043,0.456733,-0.732293,0.618580,0.284792
-0.307253,0.090913,0.523410,-0.808769,0.311102,-0.499107
0.239144,-0.464760,0.224050,-0.731234,0.038016,0.681067
-0.094566,-0.690525,0.185264,-0.112150,-0.444279,0.888841
0.626018,-0.379421,0.643479,-0.174663,-0.827281,0.533947
0.409172,-0.661372,0.363494,-0.288116,-0.677184,0.677060
-0.289835,0.769079,0.082618,-0.385819,-0.433019,-0.814640
-0.659618,-0.434090,0.426450,0.362063,-0.249861,-0.898043
0.664643,-0.461728,0.601020,-0.527894,0.673282,-0.517705
0.616628,-0.438600,0.508074,0.502017,0.841472,-0.199758
0.663944,-0.399400,0.650067,0.548796,0.716220,-0.431106
0.173877,-0.368654,0.752164,-0.336668,-0.148144,0.929897
0.377011,0.201615,0.618614,-0.778799,-0.213334,0.589882
-0.629764,-0.284186,0.568883,-0.347102,-0.229996,-0.909187
0.144434,-0.359556,-0.553034,0.994288,-0.106731,0.000896
-0.646647,0.135382,0.300440,-0.094350,0.333601,-0.937981
-0.045152,-0.103725,0.760668,-0.310563,0.230837,-0.922098
0.368611,-0.435416,0.559208,-0.108256,0.145734,0.983383
-0.413782,-0.659854,0.354441,0.974950,0.012518,-0.222074
-0.205171,-0.303938,0.700225,0.603544,0.638082,0.478107
-0.289918,-0.052432,0.589698,-0.626238,-0.769708,0.123999
0.758694,0.016984,0.661024,0.358394,0.845667,0.395476
-0.089418,0.228912,0.623189,-0.087692,0.323070,0.942304
-0.193560,-0.383098,0.519689,0.858658,0.264406,-0.439085
0.063971,-0.628273,0.244609,0.616770,-0.298280,-0.728439
-0.095801,0.192440,0.529889,-0.264633,0.367705,0.891495
0.316972,0.033136,0.775736,0.936087,-0.304734,0.175725
0.821121,-0.135838,0.362750,0.913977,-0.036998,-0.404076
-0.474686,0.713917,0.163193,0.892422,-0.189272,-0.409584
0.250140,-0.527162,0.745405,0.817223,0.046424,-0.574449
0.265951,-0.412404,0.660145,-0.477107,0.134208,0.868537
-0.613786,-0.158698,0.443934,0.877919,-0.330031,0.346897
-0.491775,-0.155667,0.535684,-0.066331,-0.332772,0.940671
0.323149,-0.617432,0.283798,0.662664,0.732608,0.155443
0.089378,-0.330629,0.629814,0.585633,0.499796,-0.638152
0.630300,-0.519885,0.602057,0.742858,-0.381941,0.549803
-0.162347,-0.175455,0.610158,0.772076,0.617710,0.149442
0.274723,-0.317625,0.842634,-0.664468,-0.723822,0.185913
-0.434907,0.350115,0.494397,-0.049059,-0.139307,0.989033
-0.346949,-0.566895,0.361103,-0.534571,0.651326,-0.538525
-0.039428,-0.335026,0.691514,0.962484,0.184599,-0.198866
0.003644,-0.384197,0.708510,-0.541634,-0.484058,0.687256
0.113592,0.379497,0.525582,-0.068821,-0.947789,-0.311383
0.101814,0.301779,0.562294,-0.067171,0.232573,0.970257
-0.522618,-0.520568,0.424559,0.609264,-0.159837,0.776692
0.342586,-0.168592,0.918071,-0.648605,0.600985,-0.467042
0.218390,0.128485,0.704093,-0.580926,-0.239422,0.777947
-0.007597,-0.008909,0.679203,0.327832,-0.820323,0.468611
0.498858,-0.403722,0.760266,0.998114,-0.061133,-0.005620
-0.812555,-0.107175,0.374499,-0.225598,0.951782,0.207885
